ply
format ascii 1.0
element vertex 1257
property float x
property float y
property float z
property uchar red
property uchar green
property uchar blue
end_header
-6.986540 3.612089 23.763742 30 35 40
-6.951202 3.618434 23.805487 30 35 40
-6.911406 3.622530 23.832434 30 35 40
-6.875657 3.628819 23.873808 30 35 40
-6.837080 3.633693 23.905874 30 35 40
-6.798350 3.638553 23.937851 30 35 40
-6.762308 3.644932 23.979816 30 35 40
-6.722096 3.649138 24.007484 30 35 40
-6.685033 3.655126 24.046883 29 38 27
-6.644704 3.659402 24.075014 16 40 22
-6.604025 3.663547 24.102280 39 42 27
-6.566000 3.669235 24.139706 33 28 27
-6.524509 3.673057 24.164846 37 42 39
-6.486580 3.678956 24.203657 25 23 28
-6.446800 3.683886 24.236092 44 31 25
-6.405987 3.688296 24.265102 31 39 18
-6.365569 3.693002 24.296066 41 21 35
-6.320922 3.695308 24.311239 26 41 22
-6.277576 3.698417 24.331692 26 16 24
-6.232269 3.700409 24.344799 33 19 25
-6.186812 3.702344 24.357529 24 31 31
-6.143331 3.705501 24.378298 33 20 19
-6.098486 3.707880 24.393946 38 29 42
-6.055944 3.711708 24.419128 30 43 26
-6.012329 3.714935 24.440363 21 23 29
-5.968408 3.718025 24.460688 38 22 22
-5.925138 3.721574 24.484041 28 25 41
-5.879369 3.723600 24.497370 20 42 18
-5.834065 3.725957 24.512877 19 24 36
-5.787189 3.727342 24.521986 29 18 41
-5.739564 3.728264 24.528051 28 31 28
-5.692335 3.729461 24.535925 30 35 40
-5.644104 3.730017 24.539583 30 35 40
-5.597400 3.731600 24.549999 30 35 40
-5.550259 3.732917 24.558666 30 35 40
-5.504430 3.735149 24.573349 30 35 40
-5.460337 3.738609 24.596111 30 35 40
-5.415350 3.741514 24.615227 30 35 40
-5.376011 3.748411 24.660601 30 35 40
-5.336496 3.755312 24.705999 30 35 40
-5.298563 3.763466 24.759642 30 35 40
-5.263013 3.773481 24.825535 30 35 40
-5.222785 3.780302 24.870407 41 32 29
-5.185490 3.789397 24.930241 16 27 40
-5.143267 3.795032 24.967318 16 16 25
-5.101171 3.800872 25.005739 16 24 27
-5.064275 3.810741 25.070667 24 43 39
-5.024423 3.818562 25.122116 42 16 27
-4.987656 3.828908 25.190182 19 36 42
-4.946187 3.835819 25.235649 40 31 20
-4.903731 3.842099 25.276966 24 31 18
-4.863920 3.850603 25.332916 25 24 36
-4.820073 3.856059 25.368807 39 15 24
-4.780081 3.864747 25.425964 37 41 23
-4.737883 3.871819 25.472490 34 37 38
-4.695401 3.878810 25.518484 36 35 37
-4.654453 3.887236 25.573919 29 24 19
-4.609336 3.892328 25.607422 40 23 41
-4.568369 3.901080 25.664997 38 36 42
-4.525979 3.908800 25.715790 24 42 34
-4.483253 3.916405 25.765823 38 35 43
-4.441584 3.925120 25.823160 37 42 18
-4.395558 3.930146 25.856224 37 27 21
-4.351793 3.937337 25.903530 23 35 21
-4.305586 3.942464 25.937263 24 41 19
-4.259088 3.947448 25.970051 30 22 42
-4.214732 3.954564 26.016867 21 32 16
-4.167902 3.959507 26.049387 37 23 41
-4.123241 3.966663 26.096464 15 31 30
-4.075890 3.971380 26.127502 34 39 39
-4.029120 3.976793 26.163115 37 33 36
-3.985378 3.985378 26.219595 38 29 29
-3.939579 3.992107 26.263861 19 37 15
-3.898506 4.003871 26.341259 17 42 15
-3.855846 4.014305 26.409903 37 31 38
-3.813104 4.024943 26.479887 18 26 28
-3.771485 4.037082 26.559752 33 36 40
-3.724921 4.044200 26.606579 40 16 32
-3.681209 4.054665 26.675428 42 20 17
-3.635459 4.063161 26.731319 20 35 35
-3.588275 4.070282 26.778173 17 18 35
-3.541282 4.077840 26.827892 22 40 29
-3.490566 4.081277 26.850504 42 35 25
-3.440462 4.085548 26.878607 36 24 27
-3.388400 4.087593 26.892061 27 23 18
-7.928790 3.549517 23.048809 35 29 38
-7.885625 3.550837 23.057384 20 41 44
-7.842806 3.552330 23.067076 23 26 34
-7.803264 3.555333 23.086580 44 16 33
-7.762701 3.557905 23.103277 32 35 27
-7.723688 3.561221 23.124813 19 18 26
-7.687249 3.565772 23.154364 38 18 31
-7.648272 3.569194 23.176582 30 24 26
-7.614575 3.575136 23.215168 42 39 22
-7.579313 3.580412 23.249428 36 17 34
-7.543980 3.585719 23.283890 27 16 17
-7.509868 3.591676 23.322573 24 15 41
-7.470295 3.595079 23.344671 40 33 36
-7.434043 3.600134 23.377495 21 30 34
-7.395291 3.604034 23.402821 44 16 24
-7.355883 3.607662 23.426378 27 31 43
-7.318364 3.612269 23.456295 36 35 37
-7.277182 3.615116 23.474781 21 40 43
-7.238097 3.619048 23.500315 23 20 24
-7.196029 3.621531 23.516434 20 16 36
-7.154350 3.624243 23.534046 36 18 39
-7.116065 3.628722 23.563128 37 33 23
-7.075816 3.632252 23.586052 33 37 22
-7.039997 3.638119 23.624151 30 35 40
-7.002026 3.642946 23.655495 30 35 40
-6.964459 3.648050 23.688637 30 35 40
-6.929267 3.654476 23.730366 30 35 40
-6.889739 3.658689 23.757719 30 35 40
-6.854193 3.665089 23.799280 30 35 40
-6.815733 3.670010 23.831234 30 35 40
-6.777062 3.674886 23.862896 30 35 40
-6.741046 3.681281 23.904419 30 35 40
-6.700876 3.685482 23.931702 30 17 16
-6.663834 3.691477 23.970627 32 36 33
-6.623583 3.695767 23.998489 29 29 24
-6.583006 3.699938 24.025570 34 29 23
-6.545066 3.705662 24.062742 29 16 22
-6.503701 3.709518 24.087780 34 36 42
-6.465931 3.715498 24.126608 36 24 16
-6.426351 3.720519 24.159214 38 15 19
-6.385757 3.725025 24.188475 29 19 30
-6.345558 3.729832 24.219687 26 15 17
-6.301105 3.732193 24.235018 15 22 22
-6.257945 3.735363 24.255602 28 36 44
-6.212811 3.737394 24.268791 35 25 29
-6.167492 3.739346 24.281466 42 19 29
-6.124120 3.742518 24.302063 28 16 43
-6.079369 3.744891 24.317474 15 39 24
-6.036898 3.748719 24.342329 22 42 44
-5.993391 3.751960 24.363377 17 36 42
-5.949567 3.755055 24.383472 20 39 33
-5.906354 3.758589 24.406422 24 30 19
-5.860661 3.760591 24.419420 42 21 18
-5.815406 3.762910 24.434479 19 16 34
-5.768620 3.764269 24.443306 34 22 20
-5.721098 3.765167 24.449137 17 37 26
-5.673970 3.766342 24.456768 30 35 40
-5.625880 3.766893 24.460346 30 35 40
-5.579239 3.768433 24.470345 30 35 40
-5.532143 3.769690 24.478508 30 35 40
-5.486340 3.771859 24.492588 30 35 40
-5.442272 3.775270 24.514740 30 35 40
-5.397370 3.778159 24.533499 30 35 40
-5.358029 3.785029 24.578114 30 35 40
-5.318530 3.791915 24.622822 30 35 40
-5.280583 3.800046 24.675621 30 35 40
-5.244998 3.810045 24.740555 30 35 40
-5.204812 3.816862 24.784817 28 18 28
-5.167320 3.825804 24.842886 32 21 15
-5.124882 3.831223 24.878069 21 30 41
-5.082480 3.836774 24.914120 17 41 29
-5.045191 3.846334 24.976194 33 40 33
-5.005140 3.853958 25.025700 18 23 19
-4.967833 3.863870 25.090065 28 15 15
-4.925804 3.870274 25.131651 22 42 42
-4.882906 3.876121 25.169619 34 19 43
-4.842812 3.884339 25.222980 35 35 40
-4.799094 3.889792 25.258390 37 32 41
-4.759311 3.898585 25.315485 43 30 40
-4.717411 3.905813 25.362425 23 32 23
-4.675310 3.913031 25.409292 33 22 29
-4.634702 3.921671 25.465395 35 39 42
-4.589870 3.926889 25.499277 16 41 16
-4.549283 3.935897 25.557772 37 32 24
-4.507270 3.943861 25.609488 43 22 19
-4.464953 3.951740 25.660650 17 39 21
-4.423736 3.960786 25.719393 28 37 26
-4.378084 3.966029 25.753435 39 31 33
-4.334756 3.973526 25.802118 30 36 27
-4.288948 3.978904 25.837038 44 32 22
-4.242789 3.984083 25.870667 30 29 18
-4.198734 3.991389 25.918112 40 44 19
-4.152102 3.996399 25.950640 33 32 43
-4.107600 4.003610 25.997469 27 32 25
-4.060394 4.008338 26.028168 34 36 21
-4.013728 4.013728 26.063166 17 33 43
-3.970063 4.022301 26.118835 35 24 32
-3.924365 4.029015 26.162434 29 17 40
-3.883355 4.040788 26.238886 39 39 37
-3.840767 4.051220 26.306623 31 17 32
-3.798156 4.061917 26.376083 42 19 23
-3.756744 4.074215 26.455944 37 25 25
-3.710464 4.081510 26.503311 24 40 33
-3.667045 4.092209 26.572786 33 18 29
-3.621626 4.100959 26.629602 32 35 23
-3.574648 4.108178 26.676481 16 26 42
-3.527631 4.115569 26.724476 34 34 43
-3.476796 4.118666 26.744585 37 38 34
-3.426475 4.122477 26.769333 37 33 42
-7.861341 3.585875 22.986378 37 30 40
-7.818099 3.587128 22.994410 36 16 35
-7.778289 3.589980 23.012690 25 22 17
-7.737902 3.592597 23.029470 22 36 44
-7.699164 3.596017 23.051390 39 42 42
-7.662714 3.600552 23.080463 26 37 15
-7.623645 3.603905 23.101954 31 36 39
-7.589898 3.609829 23.139933 26 42 36
-7.554665 3.615116 23.173819 22 37 28
-7.519537 3.620518 23.208447 28 21 23
-7.485880 3.626700 23.248075 40 31 27
-7.446862 3.630345 23.271444 25 37 18
-7.411134 3.635651 23.305454 35 19 25
-7.372672 3.639673 23.331240 33 18 25
-7.333429 3.643359 23.354868 28 33 19
-7.296095 3.648048 23.384920 28 41 33
-7.255038 3.650922 23.403347 24 15 40
-7.215949 3.654831 23.428406 36 21 35
-7.173799 3.657231 23.443787 32 44 15
-7.132030 3.659858 23.460627 35 23 24
-7.093769 3.664331 23.489300 42 24 22
-7.053688 3.667918 23.512293 36 28 16
-7.017875 3.673787 23.549915 30 35 40
-6.979763 3.678524 23.580280 30 35 40
-6.942100 3.683563 23.612585 30 35 40
-6.906995 3.690038 23.654093 30 35 40
-6.867739 3.694370 23.681860 30 35 40
-6.832460 3.700916 23.723818 30 35 40
-6.794223 3.705940 23.756025 30 35 40
-6.755721 3.710889 23.787750 30 35 40
-6.719779 3.717324 23.829002 30 35 40
-6.679636 3.721512 23.855844 28 32 41
-6.642608 3.727506 23.894272 17 15 31
-6.602427 3.731807 23.921839 17 18 29
-6.561950 3.736001 23.948723 16 35 44
-6.524090 3.741758 23.985626 44 34 35
-6.482834 3.745638 24.010498 37 21 15
-6.445231 3.751701 24.049368 40 19 18
-6.405860 3.756820 24.082182 35 40 34
-6.365508 3.761437 24.111774 28 33 21
-6.325554 3.766361 24.143337 20 32 26
-6.281305 3.768783 24.158865 19 21 41
-6.238351 3.772026 24.179653 21 39 25
-6.193395 3.774100 24.192947 23 26 22
-6.148226 3.776076 24.205616 24 17 26
-6.104975 3.779270 24.226091 40 15 17
-6.060328 3.781645 24.241314 30 44 41
-6.017945 3.785482 24.265909 39 40 22
-5.974558 3.788744 24.286821 37 34 32
-5.930840 3.791848 24.306721 38 41 40
-5.887696 3.795374 24.329321 44 42 21
-5.842078 3.797351 24.341991 31 18 16
-5.796865 3.799626 24.356575 34 43 22
-5.750153 3.800949 24.365057 25 29 29
-5.702702 3.801802 24.370523 26 22 20
-5.655619 3.802916 24.377668 30 35 40
-5.607612 3.803424 24.380920 30 35 40
-5.560952 3.804862 24.390141 30 35 40
-5.513836 3.806011 24.397505 30 35 40
-5.467993 3.808066 24.410683 30 35 40
-5.423872 3.811369 24.431854 30 35 40
-5.379013 3.814209 24.450058 30 35 40
-5.339599 3.820997 24.493572 30 35 40
-5.300062 3.827822 24.537323 30 35 40
-5.262046 3.835884 24.588999 30 35 40
-5.226314 3.845778 24.652424 30 35 40
-5.186077 3.852515 24.695606 40 39 17
-5.148377 3.861283 24.751814 32 17 36
-5.105829 3.866550 24.785576 20 27 21
-5.063255 3.871901 24.819876 24 25 29
-5.025623 3.881174 24.879320 23 44 38
-4.985355 3.888577 24.926775 30 18 44
-4.947552 3.898072 24.987638 20 20 25
-4.905055 3.904023 25.025791 18 33 22
-4.861819 3.909504 25.060925 24 34 30
-4.821545 3.917505 25.112211 27 28 26
-4.777999 3.922988 25.147362 16 20 25
-4.738481 3.931931 25.204687 30 27 30
-4.696902 3.939337 25.252163 40 28 33
-4.655200 3.946800 25.300001 21 35 21
-4.614982 3.955699 25.357042 44 25 20
-4.570480 3.961083 25.391558 44 18 31
-4.530357 3.970425 25.451443 40 40 18
-4.488783 3.978694 25.504450 35 41 40
-4.446954 3.986924 25.557207 26 42 16
-4.406320 3.996430 25.618141 34 35 35
-4.361143 4.001990 25.653782 40 31 23
-4.318401 4.009944 25.704769 25 29 23
-4.273101 4.015686 25.741575 36 15 40
-4.227374 4.021161 25.776670 21 16 34
-4.183719 4.028767 25.825428 27 43 27
-4.137332 4.033899 25.858324 24 39 43
-4.093023 4.041213 25.905209 25 33 32
-4.045976 4.045976 25.935741 20 28 29
-3.999395 4.051335 25.970095 41 39 15
-3.955760 4.059859 26.024736 33 28 37
-3.910103 4.066507 26.067350 41 28 40
-3.869067 4.078206 26.142345 30 26 38
-3.826481 4.088568 26.208771 38 21 28
-3.783926 4.099253 26.277264 18 41 35
-3.742637 4.111630 26.356600 42 27 27
-3.696587 4.119054 26.404192 44 33 17
-3.653402 4.129933 26.473928 21 32 40
-3.608259 4.138886 26.531319 41 16 23
-3.561463 4.146181 26.578085 19 33 40
-3.514433 4.153421 26.624493 34 34 44
-3.463520 4.156224 26.642464 40 15 43
-7.829925 3.617334 22.894518 21 25 16
-7.786460 3.618414 22.901352 23 43 23
-7.746594 3.621189 22.918917 41 41 15
-7.706512 3.623895 22.936047 17 20 39
-7.668106 3.627428 22.958403 41 35 25
-7.631769 3.631987 22.987257 42 38 20
-7.592714 3.635299 23.008224 33 32 37
-7.558944 3.641199 23.045561 24 26 27
-7.523685 3.646449 23.078789 38 24 29
-7.488680 3.651887 23.113209 41 31 39
-7.455416 3.658248 23.153467 19 24 40
-7.416946 3.662117 23.177958 33 43 44
-7.381719 3.667646 23.212952 40 16 23
-7.343566 3.671783 23.239132 30 19 20
-7.304487 3.675506 23.262697 35 29 29
-7.267262 3.680216 23.292507 24 23 26
-7.226255 3.683059 23.310501 35 25 38
-7.187032 3.686854 23.334518 23 15 39
-7.144727 3.689107 23.348780 18 43 28
-7.102774 3.691573 23.364388 32 41 37
-7.064345 3.695916 23.391870 31 31 25
-7.024281 3.699455 23.414270 30 35 40
-6.988242 3.705175 23.450476 30 35 40
-6.949816 3.709699 23.479107 30 35 40
-6.911919 3.714569 23.509930 30 35 40
-6.876742 3.720977 23.550486 30 35 40
-6.837692 3.725363 23.578249 30 35 40
-6.802796 3.732089 23.620819 30 35 40
-6.765109 3.737368 23.654226 30 35 40
-6.727111 3.742548 23.687010 30 35 40
-6.691391 3.749077 23.728336 30 35 40
-6.651246 3.753203 23.754450 39 28 34
-6.614175 3.759136 23.791998 36 33 36
-6.574046 3.763403 23.819006 26 43 29
-6.533642 3.767575 23.845409 18 30 29
-6.495844 3.773321 23.881779 39 31 35
-6.454721 3.777207 23.906376 36 20 21
-6.417319 3.783345 23.945221 25 43 21
-6.378226 3.788570 23.978292 24 35 35
-6.338199 3.793316 24.008331 34 27 25
-6.298567 3.798373 24.040333 30 31 39
-6.254607 3.800876 24.056179 32 37 39
-6.211940 3.804211 24.077288 35 17 21
-6.167240 3.806343 24.090780 16 38 20
-6.122293 3.808356 24.103518 41 19 33
-6.079245 3.811590 24.123987 16 23 32
-6.034773 3.813977 24.139093 24 39 24
-5.992555 3.817837 24.163528 23 16 22
-5.949365 3.821137 24.184410 31 27 17
-5.905818 3.824259 24.204172 40 36 40
-5.862799 3.827778 24.226440 31 32 18
-5.817306 3.829726 24.238775 15 42 44
-5.772160 3.831938 24.252771 41 31 17
-5.725550 3.833208 24.260807 38 34 42
-5.678172 3.833980 24.265694 30 35 40
-5.631107 3.834978 24.272011 30 35 40
-5.583165 3.835391 24.274630 30 35 40
-5.536413 3.836637 24.282515 30 35 40
-5.489218 3.837595 24.288576 30 35 40
-5.443268 3.839448 24.300304 30 35 40
-5.398998 3.842530 24.319813 30 35 40
-5.354132 3.845240 24.336962 30 35 40
-5.314567 3.851842 24.378748 30 35 40
-5.274970 3.858543 24.421156 30 35 40
-5.236854 3.866462 24.471281 30 35 40
-5.200862 3.876114 24.532366 30 35 40
-5.160485 3.882651 24.573738 30 35 40
-5.122540 3.891160 24.627594 25 35 39
-5.079989 3.896302 24.660141 15 32 37
-5.037345 3.901473 24.692865 31 28 26
-4.999303 3.910346 24.749023 34 41 25
-4.958698 3.917371 24.793489 33 39 38
-4.920403 3.926382 24.850519 25 19 20
-4.877624 3.931962 24.885836 20 40 16
-4.834284 3.937200 24.918987 44 27 43
-4.793955 3.945026 24.968517 35 40 20
-4.750636 3.950529 25.003349 41 18 37
-4.711449 3.959622 25.060900 34 24 30
-4.670268 3.967217 25.108967 26 39 36
-4.629059 3.974953 25.157930 27 19 18
-4.589342 3.984154 25.216164 42 41 18
-4.545276 3.989742 25.251534 16 43 30
-4.505763 3.999497 25.313272 30 17 42
-4.464763 4.008139 25.367971 40 22 26
-4.423581 4.016815 25.422880 19 41 23
-4.383720 4.026906 25.486746 39 22 16
-4.339181 4.032886 25.524595 40 20 33
-4.297253 4.041464 25.578888 41 19 30
-4.252669 4.047721 25.618488 44 36 30
-4.207575 4.053640 25.655947 18 29 31
-4.164542 4.061713 25.707047 40 21 25
-4.118544 4.067062 25.740900 37 32 34
-4.074591 4.074591 25.788548 33 23 44
-4.027818 4.079456 25.819344 38 40 32
-3.981414 4.084828 25.853340 38 18 23
-3.937931 4.093376 25.907444 33 29 42
-3.892406 4.100001 25.949375 44 19 23
-3.851414 4.111645 26.023067 33 19 24
-3.808852 4.121908 26.088028 31 37 32
-3.766360 4.132534 26.155277 41 36 43
-3.725206 4.144947 26.233843 25 18 18
-3.679407 4.152473 26.281477 28 33 28
-3.636531 4.163564 26.351671 24 28 23
-3.591830 4.172862 26.410517 28 21 44
-3.545324 4.180307 26.457642 18 44 43
-3.498182 4.187218 26.501381 43 24 32
-3.447005 4.189437 26.515425 15 22 23
-7.765424 3.654317 22.839481 36 35 16
-7.725635 3.657105 22.856909 38 20 26
-7.685789 3.659900 22.874372 25 20 33
-7.647575 3.663509 22.896933 31 44 17
-7.611370 3.668130 22.925814 16 32 29
-7.572382 3.671458 22.946613 35 16 28
-7.538619 3.677375 22.983595 37 40 22
-7.503323 3.682612 23.016327 38 41 36
-7.468346 3.688072 23.050449 36 19 44
-7.435304 3.694561 23.091005 33 32 39
-7.397175 3.698588 23.116173 39 43 28
-7.362266 3.704285 23.151779 32 40 41
-7.324333 3.708523 23.178270 42 30 15
-7.285381 3.712296 23.201851 38 21 36
-7.248232 3.717042 23.231514 26 36 35
-7.207245 3.719868 23.249176 25 43 18
-7.167914 3.723592 23.272448 26 29 26
-7.125522 3.725763 23.286018 32 30 17
-7.083429 3.728121 23.300755 15 31 43
-7.044799 3.732344 23.327148 36 39 35
-7.004636 3.735806 23.348787 30 35 40
-6.968293 3.741365 23.383533 30 35 40
-6.929539 3.745697 23.410604 30 35 40
-6.891384 3.750413 23.440081 30 35 40
-6.856031 3.756729 23.479557 30 35 40
-6.817041 3.761126 23.507036 30 35 40
-6.782448 3.768027 23.550167 30 35 40
-6.745312 3.773601 23.585007 30 35 40
-6.707846 3.779068 23.619177 30 35 40
-6.672358 3.785735 23.660845 24 37 34
-6.632188 3.789821 23.686384 17 25 29
-6.595048 3.795711 23.723194 30 24 25
-6.554924 3.799956 23.749723 22 23 39
-6.514541 3.804111 23.775696 26 39 30
-6.476757 3.809857 23.811607 28 32 22
-6.435713 3.813756 23.835974 18 41 42
-6.398441 3.819965 23.874781 24 39 42
-6.359536 3.825285 23.908031 15 36 21
-6.319738 3.830144 23.938402 42 16 28
-6.280336 3.835320 23.970749 34 19 34
-6.236578 3.837894 23.986839 24 20 18
-6.194128 3.841320 24.008247 27 33 44
-6.149613 3.843508 24.021927 28 20 43
-6.104830 3.845562 24.034763 19 21 38
-6.061944 3.848853 24.055334 39 15 28
-6.017613 3.851272 24.070452 20 38 15
-5.975541 3.855188 24.094923 35 22 25
-5.932506 3.858540 24.115877 40 26 35
-5.889097 3.861703 24.135643 21 40 34
-5.846184 3.865246 24.157785 37 42 21
-5.800786 3.867191 24.169943 34 39 30
-5.755683 3.869367 24.183542 22 18 16
-5.709137 3.870601 24.191257 18 33 38
-5.661783 3.871305 24.195654 24 15 39
-5.614683 3.872195 24.201220 30 35 40
-5.566738 3.872514 24.203211 30 35 40
-5.519852 3.873581 24.209879 30 35 40
-5.472551 3.874373 24.214828 30 35 40
-5.426473 3.876052 24.225327 30 35 40
-5.382029 3.878940 24.243376 30 35 40
-5.337109 3.881534 24.259584 30 35 40
-5.297382 3.887987 24.299919 30 35 40
-5.257716 3.894605 24.341280 30 35 40
-5.219506 3.902434 24.390215 30 35 40
-5.183253 3.911889 24.449306 30 35 40
-5.142706 3.918253 24.489079 40 31 18
-5.104607 3.926621 24.541382 37 30 40
-5.062172 3.931784 24.573650 28 25 22
-5.019618 3.936955 24.605968 33 34 18
-4.981342 3.945618 24.660110 19 39 15
-4.940472 3.952377 24.702358 43 33 40
-4.901941 3.961164 24.757277 31 26 40
-4.859182 3.966679 24.791744 23 16 24
-4.815988 3.971949 24.824682 16 33 33
-4.775761 3.979801 24.873756 21 40 26
-4.732606 3.985353 24.908455 44 42 22
-4.693650 3.994596 24.966225 37 22 38
-4.652733 4.002351 25.014696 34 21 18
-4.611843 4.010298 25.064363 35 23 39
-4.572474 4.019758 25.123486 24 39 24
-4.528717 4.025526 25.159540 44 35 43
-4.489644 4.035635 25.222721 33 38 15
-4.449054 4.044595 25.278717 32 24 39
-4.408339 4.053645 25.335281 35 43 17
-4.369056 4.064238 25.401489 18 16 27
-4.324992 4.070581 25.441130 25 21 40
-4.283695 4.079709 25.498184 20 21 18
-4.239662 4.086421 25.540133 15 29 43
-4.195067 4.092748 25.579678 21 36 21
-4.152539 4.101273 25.632956 37 22 35
-4.106858 4.106858 25.667862 22 23 40
-4.063207 4.114640 25.716501 37 22 42
-4.016656 4.119647 25.747793 18 38 24
-3.970394 4.125085 25.781782 34 40 37
-3.927047 4.133734 25.835835 40 21 26
-3.881627 4.140402 25.877510 29 35 42
-3.840659 4.152064 25.950397 19 39 26
-3.798093 4.162293 26.014334 20 16 38
-3.755600 4.172889 26.080559 30 34 42
-3.714481 4.185331 26.158319 38 25 22
-3.668797 4.192911 26.205694 22 21 44
-3.626104 4.204179 26.276119 42 39 18
-3.581726 4.213796 26.336224 20 32 43
-3.535433 4.221413 26.383831 34 30 35
-3.488173 4.228088 26.425550 43 23 42
-7.695022 3.688147 22.766336 19 34 38
-7.655229 3.690914 22.783421 33 24 29
-7.616697 3.694326 22.804483 34 22 16
-7.580115 3.698731 22.831673 23 28 42
-7.540821 3.701858 22.850973 38 22 37
-7.506585 3.707521 22.885931 32 36 30
-7.470915 3.712541 22.916918 29 18 32
-7.435770 3.717885 22.949907 17 36 32
-7.402787 3.724383 22.990021 33 19 29
-7.365034 3.728549 23.015732 19 33 40
-7.330528 3.734420 23.051973 40 19 39
-7.292920 3.738776 23.078861 23 19 41
-7.254275 3.742651 23.102785 26 31 32
-7.217446 3.747520 23.132839 44 35 25
-7.176719 3.750415 23.150707 44 17 42
-7.137545 3.754163 23.173847 15 36 32
-7.095254 3.756311 23.187103 44 15 39
-7.053146 3.758585 23.201139 27 41 17
-7.014405 3.762694 23.226505 30 35 40
-6.974174 3.766054 23.247246 30 35 40
-6.937604 3.771449 23.280552 30 35 40
-6.898670 3.775624 23.306318 30 35 40
-6.860408 3.780225 23.334723 30 35 40
-6.824998 3.786471 23.373280 30 35 40
-6.786155 3.790886 23.400534 30 35 40
-6.751885 3.797935 23.444046 36 43 39
-6.715258 3.803747 23.479921 20 35 35
-6.678297 3.809451 23.515129 41 35 39
-6.643106 3.816252 23.557114 37 24 41
-6.603039 3.820330 23.582281 38 37 25
-6.565912 3.826179 23.618389 40 26 30
-6.525809 3.830366 23.644236 25 22 40
-6.485436 3.834455 23.669474 19 42 36
-6.447647 3.840143 23.704584 31 33 39
-6.406691 3.844015 23.728487 26 34 27
-6.369576 3.850266 23.767076 26 21 18
-6.330933 3.855681 23.800501 18 19 44
-6.291446 3.860660 23.831234 40 16 20
-6.252323 3.865940 23.863827 26 27 18
-6.208814 3.868569 23.880053 16 33 17
-6.166576 3.872036 23.901459 34 38 35
-6.122247 3.874234 23.915026 36 30 23
-6.077621 3.876278 23.927643 35 42 25
-6.034883 3.879568 23.947950 43 17 17
-5.990713 3.881982 23.962851 38 19 25
-5.948794 3.885906 23.987074 31 42 41
-5.905950 3.889284 24.007925 38 17 42
-5.862731 3.892469 24.027584 15 38 38
-5.819976 3.896017 24.049488 39 25 16
-5.774746 3.897954 24.061441 20 36 16
-5.729754 3.900085 24.074596 22 20 26
-5.683350 3.901283 24.081993 18 17 28
-5.636082 3.901903 24.085821 21 28 30
-5.588985 3.902654 24.090454 30 35 40
-5.541075 3.902844 24.091629 30 35 40
-5.494029 3.903653 24.096621 30 35 40
-5.446590 3.904193 24.099955 30 35 40
-5.400341 3.905603 24.108664 30 35 40
-5.355671 3.908192 24.124643 30 35 40
-5.310703 3.910609 24.139559 30 35 40
-5.270769 3.916810 24.177839 30 35 40
-5.231003 3.923252 24.217607 30 35 40
-5.192676 3.930904 24.264839 30 35 40
-5.156145 3.940073 24.321438 30 35 40
-5.115461 3.946213 24.359339 32 25 39
-5.077229 3.954380 24.409754 43 16 44
-5.034941 3.959517 24.441463 29 37 23
-4.992546 3.964669 24.473265 16 38 16
-4.954143 3.973124 24.525459 36 25 24
-4.913145 3.979648 24.565727 39 40 21
-4.874521 3.988244 24.618792 16 37 35
-4.831890 3.993705 24.652498 33 16 15
-4.788953 3.999022 24.685324 32 32 17
-4.748978 4.006950 24.734259 23 29 42
-4.706137 4.012601 24.769140 31 26 18
-4.667589 4.022072 24.827602 43 38 34
-4.627087 4.030043 24.876810 44 21 32
-4.586671 4.038265 24.927559 30 37 21
-4.547832 4.048071 24.988091 34 42 32
-4.504537 4.054084 25.025208 26 34 21
-4.466083 4.064637 25.090355 16 41 18
-4.426046 4.073975 25.147991 18 41 44
-4.385935 4.083457 25.206522 32 26 42
-4.347379 4.094624 25.275459 40 21 22
-4.303911 4.101374 25.317122 38 26 44
-4.263370 4.111107 25.377205 36 19 38
-4.219988 4.118302 25.421616 43 30 20
-4.175982 4.125056 25.463306 15 31 27
-4.134068 4.134068 25.518938 23 19 41
-4.088799 4.139909 25.554995 17 33 39
-4.045557 4.147976 25.604792 40 19 21
-3.999320 4.153140 25.636665 41 18 42
-3.953302 4.158669 25.670795 35 43 41
-3.910217 4.167468 25.725109 37 43 30
-3.865021 4.174223 25.766808 38 38 19
-3.824214 4.185964 25.839287 35 43 26
-3.781751 4.196189 25.902401 26 40 35
-3.739379 4.206801 25.967909 35 35 34
-3.698501 4.219416 26.045780 31 17 27
-3.653142 4.227207 26.093868 38 36 20
-3.610626 4.238561 26.163958 23 38 23
-3.566297 4.248089 26.222773 38 40 27
-3.519994 4.255515 26.268610 43 29 19
-7.632684 3.725476 22.716320 30 16 24
-7.593281 3.728437 22.734373 33 44 41
-7.555914 3.732439 22.758776 36 28 28
-7.516112 3.735280 22.776096 43 31 40
-7.481174 3.740587 22.808458 42 28 26
-7.444996 3.745335 22.837410 15 15 26
-7.409579 3.750528 22.869072 39 18 29
-7.376484 3.756967 22.908335 24 18 32
-7.338965 3.761219 22.934265 27 15 16
-7.304757 3.767233 22.970934 41 36 27
-7.267403 3.771690 22.998110 27 39 19
-7.229081 3.775698 23.022551 34 39 29
-7.192669 3.780762 23.053427 27 29 39
-7.152336 3.783817 23.072052 27 43 28
-7.113504 3.787710 23.095791 40 20 30
-7.071436 3.789920 23.109268 39 36 38
-7.029432 3.792193 23.123131 22 42 30
-6.990706 3.796277 23.148033 20 42 29
-6.950447 3.799578 23.168156 30 35 40
-6.913821 3.804921 23.200741 30 35 40
-6.874905 3.809069 23.226030 30 35 40
-6.836715 3.813678 23.254133 30 35 40
-6.801385 3.819956 23.292416 30 35 40
-6.762679 3.824411 23.319582 39 39 37
-6.728571 3.831547 23.363092 23 23 21
-6.692130 3.837445 23.399055 28 38 30
-6.655355 3.843233 23.434349 36 22 18
-6.620335 3.850124 23.476364 31 23 27
-6.580432 3.854253 23.501543 24 44 27
-6.543365 3.860114 23.537283 31 25 26
-6.503273 3.864264 23.562584 39 28 19
-6.462877 3.868291 23.587141 40 38 44
-6.425042 3.873923 23.621479 26 15 15
-6.384114 3.877758 23.644867 21 38 34
-6.347058 3.884021 23.683054 41 44 24
-6.308573 3.889496 23.716438 21 17 36
-6.269288 3.894558 23.747303 27 34 30
-6.230322 3.899896 23.779856 32 30 16
-6.186966 3.902548 23.796024 31 40 24
-6.144829 3.906015 23.817165 40 18 18
-6.100591 3.908191 23.830433 29 15 17
-6.056040 3.910199 23.842678 26 28 42
-6.013359 3.913456 23.862535 22 19 32
-5.969287 3.915853 23.877150 24 40 43
-5.927463 3.919774 23.901062 31 36 31
-5.884752 3.923168 23.921755 15 36 36
-5.841678 3.926374 23.941305 42 15 30
-5.799060 3.929941 23.963057 43 43 19
-5.753983 3.931888 23.974930 15 30 15
-5.709117 3.934014 23.987888 31 15 42
-5.662857 3.935205 23.995155 43 27 34
-5.615695 3.935786 23.998695 25 25 21
-5.568648 3.936458 24.002794 30 35 40
-5.520801 3.936571 24.003485 30 35 40
-5.473684 3.937211 24.007385 30 35 40
-5.426178 3.937581 24.009638 30 35 40
-5.379834 3.938807 24.017115 30 35 40
-5.335037 3.941198 24.031696 30 35 40
-5.290063 3.943502 24.045742 30 35 40
-5.250008 3.949548 24.082607 30 35 40
-5.210184 3.955881 24.121223 30 35 40
-5.171796 3.963432 24.167271 30 35 40
-5.135125 3.972455 24.222288 30 35 40
-5.094408 3.978490 24.259087 40 31 34
-5.056155 3.986584 24.308437 31 24 15
-5.014000 3.991728 24.339808 29 19 20
-4.971769 3.996912 24.371416 20 31 36
-4.933395 4.005330 24.422747 35 32 28
-4.892435 4.011797 24.462175 23 18 41
-4.853883 4.020388 24.514563 22 15 41
-4.811422 4.025883 24.548069 16 19 31
-4.768735 4.031302 24.581110 19 44 32
-4.729043 4.039391 24.630434 30 23 36
-4.686506 4.045194 24.665819 22 27 25
-4.648354 4.054947 24.725286 20 43 18
-4.608216 4.063158 24.775356 44 15 27
-4.568197 4.071654 24.827160 32 16 28
-4.529807 4.081804 24.889048 35 40 18
-4.486881 4.088047 24.927118 42 35 27
-4.448900 4.098987 24.993820 25 16 30
-4.409280 4.108647 25.052725 21 19 21
-4.369590 4.118464 25.112587 30 39 20
-4.331525 4.130058 25.183283 25 17 35
-4.288446 4.137089 25.226152 24 33 26
-4.248372 4.147220 25.287926 33 21 18
-4.205388 4.154721 25.333664 24 27 18
-4.161733 4.161733 25.376421 35 26 28
-4.120174 4.171040 25.433170 33 41 25
-4.075155 4.177034 25.469717 15 23 25
-4.032151 4.185270 25.519941 39 25 22
-3.986100 4.190515 25.551922 39 40 21
-3.940243 4.196103 25.585993 25 27 25
-3.897342 4.205027 25.640408 31 44 39
-3.852333 4.211884 25.682222 17 43 15
-3.811693 4.223768 25.754684 22 21 38
-3.769338 4.234050 25.817381 29 17 36
-3.727131 4.244788 25.882853 24 16 37
-3.686622 4.257789 25.962130 22 44 22
-3.641705 4.265998 26.012180 22 44 39
-3.599370 4.277512 26.082390 34 34 30
-3.554846 4.286726 26.138571 43 29 30
-7.570042 3.762356 22.664795 33 16 28
-7.531838 3.765919 22.686260 36 42 35
-7.491392 3.768397 22.701189 44 41 25
-7.455587 3.773255 22.730450 39 15 43
-7.418803 3.777673 22.757065 36 27 27
-7.383016 3.782656 22.787086 38 34 39
-7.349652 3.788951 22.825006 40 39 20
-7.312252 3.793231 22.850788 18 33 39
-7.278239 3.799332 22.887543 29 27 29
-7.241104 3.803871 22.914886 41 38 16
-7.203122 3.808020 22.939878 24 25 23
-7.167160 3.813297 22.971668 20 24 21
-7.127259 3.816532 22.991158 15 20 22
-7.088876 3.820628 23.015831 35 41 40
-7.047134 3.822955 23.029850 41 41 15
-7.005346 3.825288 23.043901 24 21 25
-6.966759 3.829411 23.068739 18 36 31
-6.926537 3.832684 23.088457 30 35 40
-6.890013 3.838061 23.120848 30 35 40
-6.851313 3.842290 23.146328 30 35 40
-6.813359 3.846999 23.174690 30 35 40
-6.778219 3.853371 23.213079 30 35 40
-6.739674 3.857882 23.240255 26 35 32
-6.705667 3.865072 23.283567 16 36 24
-6.669279 3.870980 23.319157 30 37 39
-6.632576 3.876787 23.354139 38 18 42
-6.597735 3.883773 23.396225 21 29 31
-6.558083 3.888006 23.421724 40 35 35
-6.521158 3.893929 23.457401 25 16 15
-6.481098 3.898052 23.482241 21 22 36
-6.440688 3.902023 23.506161 19 38 17
-6.402841 3.907616 23.539858 24 39 34
-6.361966 3.911431 23.562838 16 16 42
-6.325002 3.917725 23.600754 21 35 26
-6.286706 3.923283 23.634233 18 36 22
-6.247626 3.928432 23.665251 36 42 15
-6.208804 3.933822 23.697725 23 25 29
-6.165567 3.936477 23.713718 18 20 33
-6.123470 3.939907 23.734381 30 30 33
-6.079265 3.942023 23.747129 38 29 20
-6.034724 3.943953 23.758755 39 35 16
-5.992036 3.947135 23.777920 26 43 22
-5.948025 3.949488 23.792099 41 19 25
-5.906242 3.953372 23.815493 32 19 19
-5.863622 3.956753 23.835861 25 35 29
-5.820668 3.959963 23.855198 27 28 34
-5.778163 3.963533 23.876707 24 15 40
-5.733236 3.965489 23.888485 17 17 17
-5.688497 3.967607 23.901249 37 22 28
-5.642387 3.968797 23.908419 23 39 15
-5.595339 3.969343 23.911705 16 41 15
-5.548346 3.969937 23.915283 42 34 31
-5.500555 3.969966 23.915455 30 35 40
-5.453344 3.970417 23.918177 30 35 40
-5.405743 3.970590 23.919216 30 35 40
-5.359277 3.971607 23.925344 30 35 40
-5.314335 3.973782 23.938444 30 35 40
-5.269351 3.975965 23.951595 30 35 40
-5.229167 3.981843 23.987003 30 35 40
-5.189262 3.988044 24.024363 30 35 40
-5.150812 3.995490 24.069214 30 35 40
-5.114039 4.004389 24.122826 120 120 120
-5.073351 4.010363 24.158813 24 19 18
-5.035102 4.018399 24.207220 20 34 25
-4.993025 4.023505 24.237984 25 36 32
-4.950935 4.028702 24.269287 19 44 33
-4.912717 4.037183 24.320381 32 39 27
-4.871978 4.043742 24.359892 33 24 22
-4.833659 4.052461 24.412418 39 22 37
-4.791407 4.058028 24.445953 41 26 35
-4.748963 4.063545 24.479189 41 21 19
-4.709560 4.071807 24.528957 38 42 28
-4.667313 4.077758 24.564806 18 21 20
-4.629508 4.087757 24.625042 43 29 18
-4.589681 4.096167 24.675705 15 15 23
-4.549988 4.104880 24.728193 19 25 22
-4.511979 4.115322 24.791094 29 20 15
-4.469386 4.121767 24.829924 22 40 17
-4.431796 4.133023 24.897732 43 21 16
-4.392512 4.142937 24.957453 17 19 36
-4.353152 4.153007 25.018114 28 31 30
-4.315467 4.164927 25.089922 21 16 21
-4.272702 4.172168 25.133539 30 29 29
-4.232977 4.182584 25.196289 21 26 17
-4.190284 4.190284 25.242674 40 34 18
-4.146902 4.197474 25.285990 40 37 17
-4.105651 4.207025 25.343525 44 33 19
-4.060894 4.213177 25.380587 37 44 32
-4.018173 4.221625 25.431477 28 24 25
-3.972366 4.227004 25.463882 43 23 25
-3.926749 4.232729 25.498369 34 42 18
-3.884139 4.241889 25.553547 30 43 39
-3.839397 4.248932 25.595978 35 36 17
-3.799033 4.261077 25.669140 19 16 24
-3.756899 4.271542 25.732182 34 30 39
-3.714910 4.282466 25.797987 19 44 16
-3.674744 4.295828 25.878481 28 17 42
-3.630179 4.304355 25.929848 24 20 27
-3.587805 4.315765 25.998587 26 27 17
-7.500748 3.795559 22.592613 15 40 41
-7.459696 3.797664 22.605141 17 17 40
-7.423072 3.802061 22.631317 31 39 20
-7.385740 3.806148 22.655643 34 41 17
-7.349620 3.810914 22.684013 23 37 39
-7.316038 3.817063 22.720613 40 34 36
-7.278802 3.821371 22.746256 15 17 35
-7.245019 3.827557 22.783077 23 43 27
-7.208144 3.832178 22.810583 27 33 42
-7.170522 3.836457 22.836056 34 34 44
-7.134999 3.841922 22.868586 24 20 40
-7.095518 3.845313 22.888769 43 28 32
-7.057576 3.849587 22.914209 31 44 25
-7.016198 3.852030 22.928751 16 37 25
-6.974690 3.854434 22.943060 22 33 29
-6.936308 3.858608 22.967907 20 26 20
-6.896199 3.861872 22.987331 40 23 26
-6.859875 3.867312 23.019714 20 31 22
-6.821476 3.871648 23.045527 30 35 40
-6.783843 3.876482 23.074297 17 41 33
-6.748977 3.882973 23.112934 26 44 29
-6.710639 3.887542 23.140133 17 18 42
-6.676821 3.894812 23.183405 16 42 43
-6.640579 3.900760 23.218807 32 44 26
-6.604041 3.906616 23.253666 31 30 39
-6.569464 3.913723 23.295973 22 36 21
-6.530122 3.918073 23.321863 30 19 35
-6.493388 3.924062 23.357510 36 21 37
-6.453385 3.928147 23.381828 26 35 36
-6.412991 3.932053 23.405075 21 38 32
-6.375215 3.937633 23.438290 27 21 22
-6.334492 3.941462 23.461081 40 44 22
-6.297757 3.947847 23.499092 30 36 28
-6.259785 3.953549 23.533028 38 15 27
-6.221025 3.958834 23.564489 20 22 43
-6.182433 3.964308 23.597073 40 20 42
-6.139350 3.966965 23.612885 16 37 21
-6.097305 3.970338 23.632963 22 43 33
-6.053130 3.972367 23.645041 29 17 18
-6.008586 3.974183 23.655849 42 34 22
-5.965862 3.977242 23.674057 44 26 15
-5.921900 3.979517 23.687601 27 26 33
-5.880128 3.983313 23.710196 27 37 20
-5.837590 3.986647 23.730040 40 43 16
-5.794745 3.989825 23.748957 21 30 33
-5.752326 3.993350 23.769943 16 35 39
-5.707544 3.995281 23.781433 31 44 15
-5.662901 3.997342 23.793701 19 20 25
-5.616937 3.998497 23.800579 44 24 29
-5.569985 3.998964 23.803356 38 18 21
-5.522990 3.999406 23.805990 24 34 15
-5.475222 3.999292 23.805311 39 31 35
-5.427806 3.999436 23.806166 30 35 40
-5.380006 3.999296 23.805334 30 35 40
-5.333307 3.999981 23.809408 30 35 40
-5.288097 4.001803 23.820255 30 35 40
-5.243062 4.003793 23.832100 30 35 40
-5.202643 4.009376 23.865335 30 35 40
-5.162568 4.015331 23.900778 30 35 40
-5.123988 4.022570 23.943869 120 120 120
-5.087075 4.031267 23.995638 120 120 120
-5.046458 4.037166 24.030750 17 20 41
-5.008164 4.045055 24.077709 28 27 23
-4.966035 4.049971 24.106968 18 16 43
-4.923999 4.055058 24.137251 34 38 36
-4.885994 4.063599 24.188087 43 37 37
-4.845646 4.070342 24.228228 16 38 40
-4.807602 4.079177 24.280817 32 43 20
-4.765469 4.084688 24.313620 20 38 26
-4.723138 4.090140 24.346071 34 24 29
-4.683953 4.098459 24.395588 30 26 39
-4.642019 4.104522 24.431679 37 25 21
-4.604551 4.114705 24.492294 19 20 23
-4.565031 4.123253 24.543175 32 38 38
-4.525676 4.132139 24.596067 25 20 33
-4.488067 4.142831 24.659708 40 18 38
-4.445863 4.149472 24.699238 39 23 42
-4.408716 4.161035 24.768068 39 40 16
-4.369816 4.171188 24.828503 34 28 35
-4.330853 4.181513 24.889957 42 30 37
-4.293639 4.193787 24.963018 41 44 22
-4.251297 4.201281 25.007627 19 24 32
-4.212041 4.212041 25.071672 42 39 31
-4.169729 4.219967 25.118849 43 22 29
-4.126733 4.227385 25.163006 31 38 44
-4.085961 4.237292 25.221979 28 32 41
-4.041631 4.243712 25.260191 44 25 19
-3.999421 4.252548 25.312788 26 27 21
-3.954048 4.258206 25.346464 23 42 23
-3.908861 4.264212 25.382215 41 15 20
-3.866750 4.273776 25.439144 27 30 29
-3.822418 4.281109 25.482790 22 15 15
-3.782483 4.293630 25.557320 42 36 23
-3.740718 4.304388 25.621357 38 15 31
-3.698997 4.315496 25.687479 39 20 26
-3.659097 4.329072 25.768288 18 43 36
-3.614739 4.337687 25.819567 31 24 27
-7.439045 3.832235 22.542561 32 26 27
-7.401970 3.836387 22.566982 21 27 21
-7.364369 3.840315 22.590088 30 31 26
-7.328076 3.844978 22.617517 16 41 33
-7.294364 3.851062 22.653303 21 43 30
-7.257201 3.855388 22.678753 18 38 44
-7.223530 3.861635 22.715502 15 17 24
-7.186799 3.866316 22.743036 17 32 21
-7.149382 3.870684 22.768732 31 43 36
-7.114091 3.876267 22.801573 39 41 35
-7.074835 3.879748 22.822048 39 43 15
-7.037166 3.884150 22.847942 25 19 26
-6.996039 3.886688 22.862873 31 17 33
-6.954763 3.889177 22.877510 25 20 27
-6.916580 3.893439 22.902584 28 36 24
-6.876610 3.896746 22.922033 30 26 44
-6.840517 3.902308 22.954754 26 17 44
-6.802408 3.906789 22.981110 26 31 34
-6.765064 3.911772 23.010422 39 22 22
-6.730437 3.918405 23.049442 20 39 15
-6.692249 3.923042 23.076719 29 21 38
-6.658556 3.930398 23.119987 36 20 29
-6.622398 3.936391 23.155239 26 42 21
-6.585961 3.942300 23.190002 42 28 34
-6.551570 3.949528 23.232517 34 42 26
-6.512457 3.953992 23.258774 30 16 39
-6.475883 3.960073 23.294544 27 28 31
-6.435928 3.964159 23.318581 36 22 31
-6.395570 3.968055 23.341497 39 39 17
-6.357893 3.973683 23.374607 23 16 25
-6.317326 3.977576 23.397505 24 34 40
-6.280814 3.984099 23.435875 36 35 41
-6.243104 3.989953 23.470314 32 32 23
-6.204587 3.995378 23.502224 41 25 34
-6.166162 4.000945 23.534969 37 29 32
-6.123166 4.003608 23.550638 27 35 31
-6.081126 4.006944 23.570257 23 43 43
-6.036940 4.008905 23.581797 24 35 16
-5.992352 4.010629 23.591938 19 42 40
-5.949566 4.013596 23.609388 20 27 27
-5.905605 4.015812 23.622421 27 26 42
-5.863795 4.019537 23.644335 18 27 44
-5.821269 4.022828 23.663694 24 29 32
-5.778462 4.025977 23.682220 28 35 42
-5.736051 4.029457 23.702688 20 18 16
-5.691334 4.031362 23.713892 35 37 34
-5.646717 4.033369 23.725700 29 28 23
-5.600825 4.034492 23.732307 37 44 43
-5.553913 4.034894 23.734671 25 25 24
-5.506875 4.035210 23.736532 20 22 35
-5.459093 4.034982 23.735186 44 16 27
-5.411483 4.034878 23.734575 30 34 36
-5.363500 4.034491 23.732300 41 42 41
-5.316591 4.034913 23.734781 36 40 30
-5.271155 4.036470 23.743942 30 35 40
-5.226059 4.038318 23.754814 37 31 25
-5.185445 4.043695 23.786444 35 23 21
-5.145209 4.049470 23.820414 120 120 120
-5.106514 4.056576 23.862213 120 120 120
-5.069526 4.065186 23.912857 120 120 120
-5.028998 4.071094 23.947609 22 23 17
-4.990658 4.078903 23.993549 33 25 30
-4.948396 4.083628 24.021341 25 39 42
-4.906315 4.088596 24.050564 19 43 21
-4.868511 4.097262 24.101540 24 17 21
-4.828561 4.104277 24.142803 44 43 38
-4.790753 4.113273 24.195723 40 42 29
-4.748626 4.118707 24.227686 15 16 15
-4.706252 4.124035 24.259029 34 38 19
-4.667130 4.132355 24.307970 31 23 36
-4.625368 4.138487 24.344040 29 27 31
-4.588049 4.148768 24.404516 36 39 15
-4.548659 4.157376 24.455154 15 36 18
-4.509462 4.166351 24.507946 39 37 18
-4.472045 4.177185 24.571674 15 19 40
-4.430062 4.183948 24.611458 27 41 30
-4.393146 4.195702 24.680597 43 19 38
-4.354441 4.205995 24.741144 16 36 30
-4.315690 4.216478 24.802814 44 38 30
-4.278735 4.228982 24.876366 26 26 40
-4.236648 4.236648 24.921457 16 43 22
-4.197668 4.247640 24.986116 23 23 19
-4.155561 4.255695 25.033501 39 42 37
-4.112808 4.263277 25.078098 16 34 23
-4.072372 4.273477 25.138100 33 44 43
-4.028374 4.280147 25.177336 33 37 19
-3.986592 4.289372 25.231598 19 25 23
-3.941594 4.295327 25.266630 42 21 36
-3.896785 4.301646 25.303801 32 43 31
-3.855111 4.311637 25.362572 28 19 32
-3.811117 4.319265 25.407444 33 38 44
-3.771544 4.332178 25.483402 16 33 15
-3.730113 4.343283 25.548721 18 28 44
-3.688582 4.354576 25.615150 31 18 22
-3.648760 4.368234 25.695492 30 43 42
-7.333867 3.869402 22.496525 36 37 16
-7.296924 3.873676 22.521370 39 34 18
-7.262472 3.879333 22.554260 22 42 21
-7.224995 3.883435 22.578110 41 21 31
-7.191048 3.889497 22.613358 16 43 22
-7.154350 3.894140 22.640347 41 21 30
-7.117119 3.898549 22.665985 28 32 44
-7.081884 3.904116 22.698347 25 40 28
-7.042736 3.907583 22.718504 20 39 23
-7.005242 3.912018 22.744293 20 16 16
-6.964372 3.914614 22.759384 30 22 42
-6.923413 3.917194 22.774384 21 41 19
-6.885528 3.921559 22.799763 21 25 32
-6.845826 3.924940 22.819420 32 30 29
-6.810126 3.930677 22.852772 24 22 27
-6.772481 3.935361 22.880005 40 31 34
-6.735559 3.940531 22.910065 37 33 39
-6.701252 3.947313 22.949493 44 15 29
-6.663235 3.951988 22.976673 43 43 25
-6.629667 3.959384 23.019676 25 25 18
-6.593559 3.965357 23.054401 44 26 23
-6.557253 3.971294 23.088921 44 26 25
-6.523254 3.978722 23.132105 17 40 16
-6.484652 3.983429 23.159472 23 21 41
-6.448507 3.989724 23.196070 30 16 18
-6.408750 3.993859 23.220108 35 21 44
-6.368527 3.997761 23.242798 29 30 28
-6.331073 4.003473 23.276005 19 15 40
-6.290745 4.007437 23.299055 18 34 15
-6.254583 4.014135 23.337996 32 42 16
-6.217297 4.020207 23.373297 42 36 28
-6.179165 4.025820 23.405930 33 31 21
-6.141026 4.031513 23.439030 38 29 44
-6.098185 4.034184 23.454559 17 29 23
-6.056183 4.037455 23.473577 43 27 38
-6.012007 4.039317 23.484402 39 20 21
-5.967381 4.040904 23.493626 36 16 22
-5.924546 4.043737 23.510101 39 20 39
-5.880632 4.045875 23.522530 35 29 27
-5.838828 4.049510 23.543661 31 42 43
-5.796367 4.052745 23.562469 16 34 22
-5.753665 4.055862 23.580593 44 42 31
-5.711356 4.059311 23.600643 38 25 23
-5.666808 4.061213 23.611702 30 24 26
-5.622332 4.063198 23.623245 40 34 25
-5.576619 4.064316 23.629742 44 41 25
-5.529841 4.064669 23.631798 17 40 16
-5.482851 4.064873 23.632980 22 27 30
-5.435123 4.064527 23.630968 42 18 36
-5.387348 4.064140 23.628719 28 44 15
-5.339179 4.063446 23.624687 16 36 20
-5.292059 4.063545 23.625261 31 39 40
-5.246406 4.064783 23.632462 18 39 16
-5.201294 4.066466 23.642246 33 42 42
-5.160545 4.071623 23.672224 19 24 41
-5.120275 4.077256 23.704975 120 120 120
-5.081533 4.084223 23.745481 120 120 120
-5.044376 4.092607 23.794228 120 120 120
-5.003792 4.098344 23.827583 44 27 33
-4.965311 4.105930 23.871689 25 26 26
-4.922997 4.110463 23.898043 43 43 36
-4.880965 4.115323 23.926298 24 28 24
-4.843249 4.123954 23.976479 44 36 41
-4.803532 4.131038 24.017662 31 29 29
-4.766042 4.140198 24.070921 32 40 18
-4.724337 4.145846 24.103758 31 34 34
-4.682326 4.151340 24.135700 34 17 23
-4.643356 4.159673 24.184147 17 24 16
-4.601622 4.165678 24.219061 36 26 16
-4.564235 4.175789 24.277845 36 19 28
-4.524850 4.184270 24.327152 28 15 20
-4.485674 4.193130 24.378662 43 41 15
-4.448269 4.203859 24.441040 21 29 16
-4.406426 4.210585 24.480146 40 41 32
-4.369569 4.222280 24.548138 33 26 15
-4.330941 4.232510 24.607618 32 25 39
-4.292295 4.242958 24.668362 20 30 21
-4.255453 4.255453 24.741003 18 42 24
-4.213573 4.263144 24.785721 19 16 40
-4.174788 4.274187 24.849926 26 35 25
-4.132866 4.282247 24.896786 35 26 26
-4.090385 4.289916 24.941372 19 30 24
-4.050345 4.300366 25.002131 38 32 30
-4.006801 4.307311 25.042507 28 27 43
-3.965604 4.316986 25.098757 35 39 17
-3.921129 4.323296 25.135441 36 23 18
-3.876872 4.330013 25.174492 43 40 29
-3.835838 4.340553 25.235773 31 32 43
-3.792368 4.348582 25.282455 37 31 30
-3.753345 4.361995 25.360437 22 30 22
-3.712503 4.373633 25.428101 17 34 31
-7.273795 3.906297 22.449986 38 36 29
-7.238384 3.911425 22.479452 29 43 18
-7.200385 3.915209 22.501202 43 29 42
-7.165953 3.920993 22.534443 43 43 31
-7.129172 3.925557 22.560671 25 44 20
-7.092025 3.929976 22.586067 17 28 36
-7.056658 3.935444 22.617495 30 21 43
-7.017449 3.938826 22.636932 37 44 28
-6.979944 3.943215 22.662155 22 17 15
-6.939196 3.945818 22.677113 20 34 16
-6.898461 3.948461 22.692307 23 38 38
-6.860806 3.952915 22.717901 15 40 19
-6.821343 3.956379 22.737810 16 26 41
-6.785976 3.962281 22.771732 20 17 34
-6.748701 3.967142 22.799665 22 15 41
-6.712109 3.972472 22.830301 41 44 43
-6.678021 3.979369 22.869934 36 23 28
-6.640103 3.984062 22.896908 24 44 20
-6.606598 3.991486 22.939575 43 37 25
-6.570481 3.997426 22.973711 29 33 23
-6.534299 4.003409 23.008097 36 38 39
-6.500768 4.011112 23.052368 38 43 18
-6.462779 4.016155 23.081352 20 41 18
-6.427158 4.022754 23.119274 39 20 20
-6.387616 4.026975 23.143536 41 25 44
-6.347506 4.030898 23.166080 44 32 17
-6.310245 4.036701 23.199429 43 35 27
-6.270091 4.040725 23.222559 17 20 22
-6.234255 4.047613 23.262144 29 36 41
-6.197386 4.053929 23.298443 39 25 41
-6.159654 4.059772 23.332022 18 18 44
-6.121822 4.065638 23.365734 21 34 18
-6.079147 4.068352 23.381334 24 41 19
-6.037207 4.071605 23.400028 39 33 40
-5.993050 4.073401 23.410351 25 24 43
-5.948390 4.074882 23.418859 28 17 16
-5.905516 4.077618 23.434586 23 21 33
-5.861631 4.079695 23.446526 26 39 24
-5.819814 4.083257 23.466991 30 36 37
-5.777368 4.086431 23.485237 20 34 41
-5.734725 4.089517 23.502972 16 23 41
-5.692520 4.092969 23.522808 26 26 39
-5.648146 4.094906 23.533943 31 44 43
-5.603835 4.096922 23.545527 35 40 31
-5.558294 4.098064 23.552092 19 34 30
-5.511644 4.098402 23.554035 16 37 23
-5.464728 4.098546 23.554861 28 27 41
-5.417063 4.098126 23.552448 32 31 23
-5.369200 4.097548 23.549124 23 44 30
-5.320917 4.096636 23.543882 15 41 34
-5.273670 4.096512 23.543171 24 42 16
-5.227896 4.097540 23.549082 40 15 39
-5.182806 4.099129 23.558210 18 27 32
-5.142040 4.104197 23.587339 31 32 15
-5.101867 4.109837 23.619755 120 120 120
-5.063179 4.116791 23.659716 120 120 120
-5.025869 4.125006 23.706930 120 120 120
-4.985132 4.130538 23.738724 43 36 21
-4.946508 4.137944 23.781290 26 21 34
-4.904264 4.142437 23.807108 23 28 26
-4.862348 4.147296 23.835037 34 29 23
-4.824570 4.155818 23.884010 35 34 36
-4.784806 4.162781 23.924028 31 43 18
-4.747579 4.172115 23.977673 15 15 20
-4.706556 4.178269 24.013042 33 28 37
-4.665163 4.184219 24.047234 40 29 25
-4.626312 4.192595 24.095373 44 36 37
-4.584357 4.198306 24.128193 30 24 31
-4.546642 4.208062 24.184267 39 43 42
-4.507116 4.216335 24.231808 19 34 17
-4.467820 4.225004 24.281630 23 40 31
-4.430237 4.235501 24.341961 31 44 38
-4.388367 4.242088 24.379816 33 22 37
-4.351360 4.253576 24.445841 30 19 39
-4.312643 4.263635 24.503651 24 34 25
-4.273932 4.273932 24.562828 44 44 38
-4.236986 4.286254 24.633642 15 21 15
-4.195141 4.293850 24.677299 25 44 15
-4.156362 4.304803 24.740250 26 41 37
-4.114493 4.312781 24.786100 20 38 19
-4.072162 4.320465 24.830257 39 35 27
-4.032355 4.331048 24.891079 24 41 24
-3.989135 4.338184 24.932093 17 41 37
-3.948354 4.348187 24.989582 35 41 24
-3.904261 4.354753 25.027317 25 21 17
-3.860433 4.361788 25.067745 25 32 42
-3.819907 4.372788 25.130964 24 23 37
-3.776872 4.381171 25.179146 44 30 17
-3.738376 4.395118 25.259300 41 19 27
-7.176733 3.947203 22.427292 42 22 22
-7.141612 3.952590 22.457899 29 41 37
-7.104635 3.957012 22.483023 21 32 42
-7.067476 3.961388 22.507887 17 39 21
-7.031823 3.966669 22.537893 31 29 36
-6.992435 3.969899 22.556242 23 33 39
-6.954799 3.974171 22.580517 35 22 16
-6.914111 3.976743 22.595133 44 34 20
-6.873574 3.979437 22.610439 19 29 26
-6.836149 3.983981 22.636255 19 27 29
-6.796962 3.987551 22.656540 35 27 31
-6.761950 3.993635 22.691107 19 20 38
-6.725041 3.998673 22.719732 31 32 35
-6.688756 4.004153 22.750870 28 33 17
-6.654862 4.011150 22.790625 27 15 26
-6.617017 4.015845 22.817299 40 25 23
-6.583523 4.023264 22.859453 38 33 17
-6.547361 4.029145 22.892872 15 16 25
-6.511250 4.035141 22.926937 43 33 32
-6.478063 4.043047 22.971855 22 20 40
-6.440567 4.048357 23.002026 18 38 44
-6.405436 4.055240 23.041136 38 29 36
-6.366184 4.059596 23.065884 27 18 43
-6.326296 4.063606 23.088673 36 29 19
-6.289291 4.069541 23.122393 18 36 37
-6.249334 4.073640 23.145681 40 35 36
-6.213763 4.080680 23.185682 41 26 41
-6.177193 4.087165 23.222528 16 27 25
-6.139733 4.093155 23.256563 35 32 28
-6.102107 4.099125 23.290485 18 36 25
-6.059555 4.101853 23.305981 26 23 33
-6.017668 4.105076 23.324293 44 35 24
-5.973537 4.106806 23.334127 41 36 19
-5.928896 4.108212 23.342112 33 31 42
-5.886058 4.110898 23.357374 21 22 35
-5.842277 4.112963 23.369108 15 27 44
-5.800570 4.116533 23.389395 35 18 44
-5.758254 4.119727 23.407537 19 18 29
-5.715775 4.122854 23.425308 20 40 30
-5.673753 4.126366 23.445261 37 24 21
-5.629582 4.128360 23.456593 41 39 20
-5.585492 4.130448 23.468454 36 36 22
-5.540169 4.131652 23.475294 28 35 42
-5.493716 4.132026 23.477421 25 33 15
-5.446974 4.132188 23.478338 32 22 21
-5.399443 4.131748 23.475840 26 26 39
-5.351614 4.131070 23.471991 17 38 24
-5.303315 4.130015 23.465994 25 36 31
-5.256031 4.129739 23.464426 20 36 43
-5.210248 4.130647 23.469584 38 19 35
-5.165237 4.132189 23.478348 30 41 33
-5.124551 4.137252 23.507113 32 17 28
-5.084572 4.142985 23.539686 120 120 120
-5.045992 4.149975 23.579401 120 120 120
-5.008491 4.157992 23.624956 120 120 120
-4.967497 4.163236 23.654749 26 38 15
-4.928675 4.170417 23.695553 40 25 26
-4.886547 4.174914 23.721102 20 15 37
-4.844777 4.179807 23.748905 17 42 34
-4.806832 4.188130 23.796196 16 41 36
-4.766858 4.194835 23.834291 22 19 39
-4.729799 4.204266 23.887875 17 24 20
-4.689482 4.210964 23.925930 23 24 37
-4.648783 4.217452 23.962797 33 22 23
-4.610119 4.225942 24.011034 32 30 29
-4.567996 4.231407 24.042084 27 35 23
-4.529951 4.240805 24.095482 28 36 34
-4.490226 4.248816 24.141003 40 34 44
-4.450711 4.257202 24.188646 35 23 27
