ply
format ascii 1.0
element vertex 1256
property float x
property float y
property float z
property uchar red
property uchar green
property uchar blue
end_header
-6.590766 2.313315 21.823729 31 20 40
-6.550701 2.314581 21.835669 25 38 30
-6.512075 2.316376 21.852602 27 19 32
-6.471913 2.317645 21.864573 33 24 22
-6.431570 2.318865 21.876089 34 25 15
-6.392727 2.320648 21.892902 24 24 22
-6.352364 2.321899 21.904705 39 23 19
-6.313505 2.323721 21.921892 33 27 34
-6.273186 2.325027 21.934217 36 42 23
-6.232890 2.326360 21.946796 31 17 22
-6.194148 2.328297 21.965065 30 35 40
-6.153901 2.329691 21.978218 30 35 40
-6.114726 2.331514 21.995419 30 35 40
-6.074283 2.332877 22.008270 30 35 40
-6.032786 2.333852 22.017467 30 35 40
-5.991025 2.334738 22.025826 30 35 40
-5.947502 2.334945 22.027786 30 35 40
-5.903896 2.335123 22.029461 30 35 40
-5.860218 2.335275 22.030895 30 35 40
-5.815854 2.335154 22.029751 29 23 28
-5.770825 2.334761 22.026049 31 18 40
-5.725522 2.334251 22.021240 26 41 36
-5.679694 2.333518 22.014318 29 22 36
-5.633979 2.332820 22.007732 42 20 16
-5.588870 2.332363 22.003424 26 41 26
-5.544613 2.332258 22.002432 31 23 33
-5.501297 2.332550 22.005188 19 25 26
-5.458611 2.333116 22.010527 42 34 22
-5.415915 2.333687 22.015915 33 15 34
-5.373167 2.334245 22.021175 37 28 16
-5.330387 2.334798 22.026392 26 26 43
-5.286961 2.335075 22.029005 34 40 19
-5.242392 2.334847 22.026857 28 23 21
-5.197000 2.334246 22.021185 22 19 25
-5.150948 2.333335 22.012598 34 38 21
-5.104491 2.332224 22.002115 22 41 20
-5.058635 2.331371 21.994064 22 29 35
-5.013940 2.331042 21.990967 16 35 39
-4.970402 2.331251 21.992931 24 16 37
-4.928345 2.332163 22.001539 22 26 19
-4.886675 2.333277 22.012051 29 18 36
-4.844626 2.334229 22.021027 34 28 37
-4.807242 2.337467 22.051571 20 16 35
-4.770236 2.340949 22.084425 120 120 120
-4.735399 2.345571 22.128033 120 120 120
-4.703162 2.351581 22.184727 120 120 120
-4.667588 2.356021 22.226610 24 36 17
-4.635923 2.362538 22.288094 22 15 29
-4.600297 2.367143 22.331539 31 33 44
-4.565085 2.372054 22.377869 23 31 22
-4.534234 2.379350 22.446701 22 44 36
-4.499563 2.384769 22.497816 15 20 24
-4.468854 2.392417 22.569969 30 35 40
-4.434578 2.398292 22.625397 30 35 40
-4.398490 2.403299 22.672630 30 35 40
-4.363061 2.408773 22.724277 30 35 40
-4.322339 2.411410 22.749153 30 35 40
-4.283519 2.415176 22.784678 30 35 40
-4.242891 2.417992 22.811241 30 35 40
-4.201546 2.420456 22.834488 41 31 30
-4.161209 2.423561 22.863785 19 28 33
-4.118561 2.425375 22.880894 34 35 38
-4.078183 2.428581 22.911142 32 37 41
-4.037110 2.431441 22.938124 33 21 23
-3.995955 2.434318 22.965260 21 16 16
-3.955461 2.437668 22.996866 18 37 43
-3.912659 2.439658 23.015640 20 37 34
-3.871137 2.442503 23.042480 28 41 25
-3.828229 2.444532 23.061623 34 24 44
-3.785157 2.446504 23.080223 43 27 23
-3.743276 2.449304 23.106642 29 44 42
-3.699987 2.451241 23.124916 15 43 43
-3.657851 2.454001 23.150955 18 32 43
-3.614324 2.455887 23.168743 43 35 28
-3.570849 2.457857 23.187334 31 31 21
-3.528556 2.460703 23.214184 40 39 23
-3.485009 2.462740 23.233395 17 25 44
-3.443836 2.466531 23.269161 22 40 42
-3.402043 2.469976 23.301664 16 15 17
-3.360407 2.473633 23.336161 39 28 15
-3.319626 2.478031 23.377649 34 20 33
-3.276564 2.480827 23.404028 34 31 27
-3.234434 2.484420 23.437929 39 24 40
-3.191221 2.487275 23.464857 36 44 22
-3.146423 2.488961 23.480766 34 26 24
-3.100347 2.489673 23.487480 15 39 40
-3.052325 2.488819 23.479424 22 30 30
-3.004409 2.488026 23.471943 39 19 43
-2.956792 2.487460 23.466600 31 40 23
-7.486986 2.271333 21.030859 16 44 21
-7.447188 2.272023 21.037254 17 37 35
-7.409627 2.273408 21.050076 28 23 31
-7.370765 2.274408 21.059330 27 17 29
-7.332024 2.275456 21.069035 29 20 18
-7.290705 2.275711 21.071402 33 37 35
-7.249912 2.276135 21.075325 23 17 39
-7.212132 2.277515 21.088106 42 15 27
-7.174400 2.278927 21.101175 25 28 26
-7.140380 2.281541 21.125383 41 31 16
-7.104843 2.283699 21.145365 43 41 32
-7.070804 2.286368 21.170071 35 43 42
-7.039497 2.289957 21.203304 37 41 27
-7.005086 2.292574 21.227533 39 20 35
-6.977532 2.297480 21.272964 18 34 20
-6.948427 2.301933 21.314192 27 39 30
-6.920205 2.306735 21.358658 37 35 24
-6.894692 2.312505 21.412086 32 35 29
-6.862764 2.316183 21.446138 44 35 40
-6.835497 2.321490 21.495274 29 28 24
-6.804143 2.325466 21.532097 25 36 31
-6.771754 2.329138 21.566095 25 16 38
-6.742364 2.333895 21.610140 21 28 20
-6.707705 2.336878 21.637758 18 42 28
-6.675290 2.340686 21.673019 28 26 37
-6.639205 2.343249 21.696747 39 18 15
-6.601467 2.345258 21.715353 40 27 22
-6.565208 2.347823 21.739100 32 23 38
-6.525654 2.349235 21.752180 21 28 33
-6.487512 2.351179 21.770174 42 30 23
-6.447601 2.352503 21.782436 37 32 30
-6.407429 2.353750 21.793978 42 16 36
-6.368855 2.355604 21.811146 34 36 36
-6.328736 2.356909 21.823227 29 25 43
-6.290044 2.358767 21.840431 23 19 35
-6.249786 2.360059 21.852400 16 25 23
-6.209528 2.361370 21.864536 35 28 23
-6.170872 2.363313 21.882524 30 35 40
-6.130766 2.364724 21.895594 30 35 40
-6.091831 2.366611 21.913061 30 35 40
-6.051668 2.368044 21.926334 30 35 40
-6.010524 2.369112 21.936218 30 35 40
-5.969149 2.370103 21.945400 30 35 40
-5.925947 2.370379 21.947950 30 35 40
-5.882842 2.370698 21.950905 30 35 40
-5.839685 2.371000 21.953705 30 35 40
-5.795827 2.371020 21.953890 19 25 42
-5.751242 2.370741 21.951303 18 31 17
-5.706191 2.370264 21.946888 28 38 29
-5.660801 2.369638 21.941090 40 43 16
-5.615561 2.369065 21.935785 33 18 16
-5.570963 2.368756 21.932926 24 26 43
-5.527265 2.368828 21.933590 36 38 21
-5.484343 2.369236 21.937372 21 40 17
-5.442153 2.369970 21.944164 35 20 35
-5.399873 2.370676 21.950703 32 44 20
-5.357479 2.371343 21.956882 38 21 35
-5.315056 2.372008 21.963039 19 43 40
-5.271855 2.372335 21.966064 17 27 43
-5.227483 2.372135 21.964214 18 29 24
-5.182246 2.371536 21.958668 32 41 35
-5.136265 2.370584 21.949852 20 27 38
-5.089813 2.369396 21.938848 18 15 40
-5.043941 2.368459 21.930178 42 34 15
-4.999122 2.368005 21.925974 44 39 40
-4.955479 2.368105 21.926897 41 26 25
-4.913327 2.368925 21.934494 23 42 30
-4.871563 2.369950 21.943979 37 23 43
-4.829549 2.370870 21.952496 17 39 31
-4.792200 2.374118 21.982571 26 29 26
-4.755283 2.377642 22.015200 120 120 120
-4.720589 2.382353 22.058826 120 120 120
-4.688514 2.388488 22.115633 120 120 120
-4.653133 2.393040 22.157774 36 25 24
-4.621643 2.399699 22.219437 30 22 39
-4.586172 2.404401 22.262972 20 20 34
-4.551075 2.409393 22.309191 31 27 26
-4.520291 2.416789 22.377676 42 19 39
-4.485675 2.422264 22.428373 19 19 25
-4.454937 2.429966 22.499681 25 30 23
-4.420604 2.435843 22.554102 30 35 40
-4.384503 2.440857 22.600529 30 35 40
-4.349185 2.446416 22.652004 30 35 40
-4.308697 2.449154 22.677353 30 35 40
-4.270120 2.453048 22.713404 30 35 40
-4.229688 2.455948 22.740257 36 30 24
-4.188542 2.458492 22.763817 42 35 42
-4.148442 2.461713 22.793638 23 23 24
-4.106009 2.463605 22.811161 15 33 20
-4.065852 2.466922 22.841867 16 23 43
-4.024978 2.469873 22.869196 40 34 28
-3.983967 2.472807 22.896360 32 34 25
-3.943545 2.476179 22.927588 22 39 42
-3.900776 2.478140 22.945742 17 36 33
-3.859258 2.480951 22.971771 20 39 31
-3.816428 2.482977 22.990532 19 21 21
-3.773394 2.484918 23.008503 44 16 18
-3.731436 2.487624 23.033556 36 28 31
-3.688084 2.489457 23.050524 26 32 22
-3.645798 2.492064 23.074669 40 38 40
-3.602216 2.493842 23.091125 36 30 22
-3.558677 2.495695 23.108290 40 24 29
-3.516228 2.498373 23.133080 27 21 17
-3.472616 2.500283 23.150770 21 17 16
-3.431309 2.503928 23.184521 38 16 17
-3.389479 2.507286 23.215609 34 29 29
-3.347839 2.510879 23.248884 22 26 39
-3.306931 2.515130 23.288244 30 44 16
-3.263806 2.517793 23.312902 18 27 17
-3.222056 2.521609 23.348234 41 16 20
-3.179664 2.525027 23.379881 32 41 32
-3.135705 2.527285 23.400784 43 28 42
-3.090060 2.528231 23.409542 41 22 38
-3.042069 2.527257 23.400532 43 28 15
-2.994181 2.526341 23.392042 22 40 33
-2.946657 2.525706 23.386168 30 17 37
-2.899846 2.525672 23.385853 28 37 40
-7.467357 2.307329 20.975721 31 22 21
-7.428093 2.308165 20.983315 31 16 23
-7.390750 2.309609 20.996449 34 29 38
-7.351951 2.310613 21.005573 36 26 29
-7.313173 2.311635 21.014864 43 23 24
-7.271767 2.311834 21.016668 18 30 22
-7.230931 2.312216 21.020147 21 24 18
-7.193282 2.313629 21.032990 25 38 24
-7.155815 2.315117 21.046515 37 38 43
-7.121860 2.317765 21.070593 37 33 28
-7.086217 2.319892 21.089931 19 27 23
-7.051952 2.322499 21.113628 28 31 28
-7.020363 2.326024 21.145672 23 20 37
-6.985780 2.328593 21.169031 42 32 40
-6.958001 2.333476 21.213417 38 22 25
-6.928838 2.337952 21.254105 32 21 23
-6.900556 2.342782 21.298014 33 27 19
-6.874763 2.348521 21.350195 27 44 21
-6.842604 2.352145 21.383139 20 21 25
-6.815196 2.357458 21.431433 34 26 27
-6.783930 2.361495 21.468132 32 35 41
-6.751806 2.365282 21.502565 36 25 31
-6.722721 2.370190 21.547182 19 22 42
-6.688390 2.373300 21.575451 26 36 22
-6.656400 2.377286 21.611689 18 32 42
-6.620636 2.379967 21.636065 26 16 16
-6.583267 2.382103 21.655483 18 40 21
-6.547536 2.384864 21.680584 23 15 21
-6.508439 2.386428 21.694796 32 30 23
-6.470790 2.388547 21.714060 21 22 24
-6.431200 2.389973 21.727028 24 18 17
-6.391295 2.391301 21.739100 20 35 40
-6.353112 2.393296 21.757233 36 32 22
-6.313313 2.394705 21.770046 18 36 38
-6.274843 2.396641 21.787649 43 32 43
-6.234643 2.397940 21.799452 30 37 15
-6.194368 2.399227 21.811153 43 39 19
-6.155726 2.401170 21.828815 34 27 33
-6.115677 2.402587 21.841703 30 35 40
-6.076884 2.404522 21.859295 30 35 40
-6.036920 2.406019 21.872898 30 35 40
-5.996038 2.407169 21.883350 30 35 40
-5.954942 2.408248 21.893167 30 35 40
-5.911971 2.408581 21.896191 30 35 40
-5.869274 2.409030 21.900274 30 35 40
-5.826581 2.409488 21.904440 20 21 17
-5.783146 2.409644 21.905855 19 21 42
-5.738847 2.409440 21.903997 39 18 42
-5.693875 2.408947 21.899519 24 41 44
-5.648686 2.408355 21.894133 25 17 16
-5.603722 2.407849 21.889538 37 29 26
-5.559436 2.407630 21.887545 34 17 34
-5.516071 2.407809 21.889172 26 19 23
-5.473393 2.408293 21.893572 32 31 39
-5.431523 2.409143 21.901302 40 15 15
-5.389515 2.409946 21.908598 43 15 31
-5.347369 2.410699 21.915445 20 30 41
-5.305218 2.411463 21.922390 38 25 44
-5.262205 2.411844 21.925856 20 27 30
-5.218026 2.411693 21.924480 33 20 36
-5.172956 2.411123 21.919304 29 36 42
-5.127075 2.410163 21.910576 41 32 37
-5.080682 2.408944 21.899492 43 40 32
-5.034824 2.407959 21.890539 33 28 21
-4.989914 2.407415 21.885590 21 32 18
-4.946170 2.407428 21.885710 35 43 39
-4.903887 2.408159 21.892351 39 21 37
-4.861968 2.409083 21.900759 25 36 30
-4.819883 2.409942 21.908560 18 24 19
-4.782413 2.413144 21.937675 41 21 32
-4.745428 2.416653 21.969572 120 120 120
-4.710698 2.421387 22.012608 120 120 120
-4.678578 2.427564 22.068766 120 120 120
-4.643225 2.432166 22.110598 40 36 44
-4.611734 2.438898 22.171797 44 18 28
-4.576290 2.443650 22.214998 15 29 37
-4.541216 2.448695 22.260864 16 39 34
-4.510413 2.456165 22.328775 31 37 37
-4.475808 2.461694 22.379040 21 25 42
-4.445024 2.469458 22.449617 37 31 28
-4.410647 2.475363 22.503302 24 15 16
-4.374544 2.480412 22.549196 20 44 37
-4.339284 2.486048 22.600439 30 35 40
-4.298936 2.488857 22.625977 27 43 34
-4.260534 2.492866 22.662416 31 26 39
-4.220254 2.495849 22.689535 38 44 22
-4.179285 2.498485 22.713503 22 20 38
-4.139387 2.501828 22.743887 43 41 44
-4.097131 2.503802 22.761839 29 22 39
-4.057158 2.507232 22.793020 22 22 41
-4.016440 2.510275 22.820681 29 41 18
-3.975543 2.513274 22.847950 21 42 19
-3.935203 2.516700 22.879087 31 35 25
-3.892489 2.518669 22.896992 22 21 34
-3.851011 2.521495 22.922682 23 27 43
-3.808256 2.523543 22.941301 33 36 30
-3.765266 2.525483 22.958941 43 20 40
-3.723282 2.528154 22.983219 19 26 20
-3.679901 2.529932 22.999382 28 24 28
-3.637537 2.532462 23.022385 24 15 42
-3.593935 2.534185 23.038042 44 37 15
-3.550367 2.535977 23.054333 29 37 22
-3.507835 2.538565 23.077864 33 37 35
-3.464193 2.540408 23.094622 31 19 24
-3.422796 2.543970 23.126999 34 43 29
-3.380928 2.547274 23.157040 32 38 32
-3.339264 2.550827 23.189333 44 25 25
-3.298243 2.554977 23.227064 29 24 27
-3.255059 2.557546 23.250420 31 37 29
-3.213512 2.561495 23.286322 31 18 26
-3.171603 2.565268 23.320614 39 35 41
-3.128159 2.567892 23.344473 37 37 40
-3.082791 2.568992 23.354475 40 19 30
-3.034847 2.567947 23.344975 43 15 26
-2.987032 2.566981 23.336191 41 27 23
-2.939621 2.566336 23.330326 43 37 26
-2.892942 2.566320 23.330179 43 28 41
-7.437122 2.339769 20.890791 26 30 16
-7.398605 2.340802 20.900015 29 27 43
-7.361669 2.342349 20.913834 16 23 39
-7.323071 2.343383 20.923061 33 40 28
-7.284445 2.344419 20.932314 40 22 31
-7.243127 2.344596 20.933893 21 28 21
-7.202386 2.344963 20.937170 21 32 30
-7.164984 2.346427 20.950245 37 32 22
-7.127836 2.347993 20.964224 23 37 20
-7.093913 2.350646 20.987907 24 20 41
-7.058074 2.352691 21.006172 21 20 25
-7.023483 2.355180 21.028393 18 23 16
-6.991542 2.358592 21.058861 15 20 31
-6.956800 2.361096 21.081211 20 19 24
-6.928800 2.365932 21.124392 15 16 27
-6.899626 2.370423 21.164495 21 39 15
-6.871317 2.375270 21.207769 43 32 19
-6.845230 2.380950 21.258478 36 32 33
-6.812819 2.384487 21.290060 16 28 19
-6.785304 2.389793 21.337435 22 22 18
-6.754214 2.393899 21.374096 24 36 34
-6.722465 2.397822 21.409124 16 19 39
-6.693768 2.402891 21.454384 18 15 35
-6.659814 2.406126 21.483271 20 29 40
-6.628337 2.410304 21.520575 44 41 19
-6.592972 2.413114 21.545660 26 17 28
-6.556098 2.415405 21.566113 25 15 18
-6.521124 2.418430 21.593126 37 36 34
-6.482710 2.420212 21.609032 40 18 32
-6.445780 2.422575 21.630133 32 18 37
-6.406653 2.424139 21.644098 42 42 30
-6.367053 2.425544 21.656643 28 33 16
-6.329187 2.427633 21.675297 29 40 34
-6.289558 2.429071 21.688131 25 33 44
-6.251250 2.431042 21.705729 38 23 38
-6.211193 2.432355 21.717459 28 25 40
-6.171052 2.433654 21.729055 29 24 31
-6.132545 2.435621 21.746613 32 42 44
-6.092640 2.437056 21.759430 41 15 44
-6.054049 2.439041 21.777153 33 25 16
-6.014288 2.440581 21.790899 39 24 19
-5.973676 2.441795 21.801737 30 35 40
-5.932934 2.442973 21.812258 19 41 23
-5.890297 2.443383 21.815916 29 40 26
-5.848128 2.443994 21.821373 40 38 30
-5.805931 2.444602 21.826807 35 22 44
-5.763056 2.444933 21.829758 24 37 20
-5.719418 2.444942 21.829840 40 28 29
-5.674955 2.444596 21.826752 18 17 30
-5.630402 2.444205 21.823263 42 24 44
-5.585914 2.443837 21.819977 33 26 25
-5.542077 2.443750 21.819201 28 26 39
-5.499258 2.444114 21.822451 41 31 23
-5.456974 2.444724 21.827894 21 34 39
-5.415647 2.445776 21.837286 40 21 31
-5.374105 2.446747 21.845957 30 42 31
-5.332419 2.447668 21.854176 31 17 27
-5.290792 2.448631 21.862776 23 17 36
-5.248136 2.449130 21.867231 18 28 38
-5.204397 2.449128 21.867214 43 25 15
-5.159693 2.448668 21.863108 23 16 31
-5.114091 2.447770 21.855091 34 28 36
-5.067944 2.446594 21.844585 27 23 26
-5.022206 2.445596 21.835678 27 25 41
-4.977260 2.444970 21.830086 21 21 26
-4.933424 2.444883 21.829309 44 29 34
-4.890954 2.445477 21.834618 28 36 23
-4.848799 2.446241 21.841438 17 30 44
-4.806576 2.446984 21.848072 20 43 30
-4.768819 2.450036 21.875319 29 41 20
-4.731621 2.453433 21.905653 120 120 120
-4.696678 2.458074 21.947092 120 120 120
-4.664271 2.464143 22.001280 120 120 120
-4.628787 2.468686 22.041843 17 34 39
-4.597040 2.475329 22.101154 27 44 35
-4.561442 2.480007 22.142921 29 32 21
-4.526223 2.484985 22.187368 21 30 31
-4.495183 2.492379 22.253380 41 29 21
-4.460472 2.497864 22.302361 35 32 31
-4.429463 2.505555 22.371027 40 17 15
-4.394901 2.511372 22.422964 40 33 17
-4.358711 2.516369 22.467585 21 29 34
-4.323454 2.522015 22.517990 22 16 39
-4.283288 2.524886 22.543623 44 37 42
-4.245110 2.529002 22.580374 17 38 30
-4.205048 2.532072 22.607786 17 39 21
-4.164337 2.534814 22.632269 29 36 22
-4.124730 2.538295 22.663351 16 34 36
-4.082738 2.540370 22.681879 27 34 36
-4.043063 2.543950 22.713839 16 34 34
-4.002610 2.547115 22.742102 42 27 36
-3.961962 2.550229 22.769897 22 16 42
-3.921875 2.553779 22.801600 16 36 39
-3.879368 2.555819 22.819813 23 26 23
-3.838104 2.558736 22.845858 32 25 36
-3.795564 2.560863 22.864845 23 42 40
-3.752746 2.562851 22.882599 34 33 30
-3.710896 2.565558 22.906767 43 15 33
-3.667618 2.567332 22.922611 17 29 23
-3.625331 2.569855 22.945135 34 19 30
-3.581847 2.571582 22.960558 20 26 34
-3.538371 2.573361 22.976437 40 37 31
-3.495874 2.575907 22.999170 43 21 31
-3.452279 2.577702 23.015192 16 27 33
-3.410870 2.581199 23.046419 30 16 19
-3.369034 2.584465 23.075579 30 43 29
-3.327392 2.587971 23.106888 40 40 41
-3.286307 2.592017 23.143005 21 23 16
-3.243101 2.594481 23.165009 36 34 35
-3.201699 2.598481 23.200720 44 33 33
-3.160127 2.602458 23.236231 16 17 43
-3.117104 2.605340 23.261969 24 36 39
-3.072123 2.606650 23.273657 42 25 30
-3.024467 2.605695 23.265133 44 39 34
-2.976929 2.604813 23.257261 30 36 15
-2.929702 2.604179 23.251600 18 41 32
-2.883184 2.604166 23.251486 26 34 33
-7.413480 2.373979 20.824381 40 25 39
-7.375526 2.375169 20.834820 19 38 15
-7.338942 2.376817 20.849268 31 24 29
-7.300564 2.377898 20.858755 15 30 41
-7.262192 2.378994 20.868368 37 21 29
-7.221080 2.379200 20.870173 26 36 22
-7.180526 2.379593 20.873621 20 36 16
-7.143395 2.381132 20.887119 25 27 17
-7.106501 2.382768 20.901472 43 38 36
-7.072619 2.385439 20.924908 28 21 15
-7.036654 2.387436 20.942423 34 30 40
-7.001842 2.389850 20.963600 41 28 24
-6.969730 2.393220 20.993162 31 34 30
-6.934950 2.395710 21.014999 33 23 31
-6.906880 2.400562 21.057562 25 38 18
-6.877742 2.405100 21.097368 34 40 40
-6.849457 2.409994 21.140299 30 30 43
-6.823204 2.415668 21.190073 25 44 36
-6.790638 2.419165 21.220745 21 25 30
-6.763079 2.424500 21.267544 27 25 15
-6.732146 2.428685 21.304258 40 17 35
-6.700668 2.432727 21.339706 33 35 27
-6.672204 2.437921 21.385269 24 31 32
-6.638458 2.441239 21.414381 16 23 37
-6.607274 2.445549 21.452188 18 44 34
-6.572159 2.448451 21.477644 36 42 20
-6.535627 2.450860 21.498774 25 39 32
-6.501193 2.454093 21.527130 39 19 42
-6.463300 2.456054 21.544334 28 36 28
-6.426893 2.458610 21.566753 32 33 41
-6.388125 2.460291 21.581503 17 24 16
-6.348703 2.461742 21.594227 15 27 31
-6.310820 2.463813 21.612396 37 26 36
-6.271038 2.465167 21.624269 27 42 19
-6.232670 2.467099 21.641216 31 35 39
-6.192761 2.468443 21.653011 18 37 16
-6.152847 2.469805 21.664953 23 30 29
-6.114528 2.471830 21.682722 37 30 28
-6.074788 2.473307 21.695671 30 35 40
-6.036347 2.475337 21.713480 44 39 19
-5.996680 2.476890 21.727102 15 27 27
-5.956208 2.478130 21.737986 26 38 44
-5.915683 2.479367 21.748835 37 25 25
-5.873297 2.479836 21.752951 23 36 25
-5.831474 2.480552 21.759230 18 44 19
-5.789504 2.481216 21.765051 30 35 44
-5.747005 2.481661 21.768957 28 20 41
-5.704104 2.481939 21.771391 16 29 21
-5.660377 2.481858 21.770681 36 19 25
-5.616576 2.481743 21.769674 42 26 42
-5.572469 2.481490 21.767456 32 29 17
-5.528916 2.481482 21.767385 33 30 26
-5.486530 2.482002 21.771946 25 39 19
-5.444579 2.482728 21.778316 35 37 16
-5.403732 2.483974 21.789244 40 33 18
-5.362584 2.485100 21.799122 15 16 31
-5.321308 2.486185 21.808638 15 17 26
-5.280185 2.487360 21.818947 37 22 34
-5.237901 2.488003 21.824587 31 24 21
-5.194628 2.488183 21.826168 38 15 17
-5.150312 2.487862 21.823355 30 35 40
-5.104997 2.487050 21.816227 37 27 27
-5.059077 2.485926 21.806368 35 17 22
-5.013415 2.484910 21.797455 23 33 30
-4.968433 2.484216 21.791372 31 22 36
-4.924542 2.484061 21.790007 28 39 22
-4.881926 2.484552 21.794313 34 25 43
-4.839563 2.485181 21.799833 44 37 34
-4.797198 2.485821 21.805447 17 19 31
-4.759132 2.488720 21.830881 21 43 25
-4.721691 2.492004 21.859680 120 120 120
-4.686477 2.496535 21.899427 120 120 120
-4.653702 2.502462 21.951424 120 120 120
-4.618004 2.506916 21.990494 21 22 30
-4.585901 2.513426 22.047600 34 39 31
-4.550065 2.517997 22.087696 43 39 21
-4.514628 2.522881 22.130531 24 44 33
-4.483269 2.530162 22.194401 42 18 31
-4.448400 2.535588 22.242002 32 32 24
-4.417117 2.543189 22.308674 32 18 18
-4.382340 2.548912 22.358875 19 26 43
-4.346040 2.553859 22.402269 16 30 19
-4.310752 2.559509 22.451832 17 26 36
-4.270737 2.562442 22.477566 22 27 23
-4.232733 2.566657 22.514538 44 32 44
-4.192840 2.569805 22.542150 23 24 15
-4.152334 2.572641 22.567030 29 19 17
-4.112959 2.576249 22.598677 27 28 44
-4.071183 2.578416 22.617685 32 22 26
-4.031791 2.582158 22.650509 26 17 15
-3.991584 2.585458 22.679453 36 16 22
-3.951198 2.588716 22.708035 23 42 21
-3.911429 2.592458 22.740864 27 36 31
-3.869182 2.594628 22.759893 33 21 33
-3.828215 2.597718 22.786997 18 19 39
-3.785921 2.599970 22.806753 15 17 32
-3.743319 2.602063 22.825117 44 22 27
-3.701691 2.604894 22.849943 32 42 18
-3.658577 2.606736 22.866108 20 18 27
-3.616471 2.609352 22.889055 42 35 32
-3.573157 2.611153 22.904854 27 21 27
-3.529820 2.612984 22.920908 17 19 25
-3.487424 2.615568 22.943581 23 19 30
-3.443900 2.617364 22.959335 17 42 35
-3.402533 2.620870 22.990088 31 21 27
-3.360758 2.624153 23.018888 23 15 25
-3.319155 2.627664 23.049688 19 36 19
-3.278066 2.631687 23.084974 27 33 32
-3.234880 2.634116 23.106283 36 31 23
-3.193473 2.638086 23.141106 31 21 23
-3.151879 2.642016 23.175579 36 36 31
-3.108956 2.644933 23.201164 23 33 39
-3.064293 2.646435 23.214338 36 18 19
-3.017061 2.645731 23.208162 17 31 43
-2.969877 2.645047 23.202164 29 27 18
-2.922802 2.644440 23.196840 23 39 43
-2.876367 2.644402 23.196510 37 17 44
-7.390013 2.407982 20.758465 34 42 39
-7.352563 2.409315 20.769953 36 24 37
-7.316372 2.411077 20.785149 15 43 36
-7.278271 2.412227 20.795059 38 35 24
-7.240228 2.413409 20.805252 22 29 33
-7.199407 2.413674 20.807535 35 32 43
-7.159091 2.414112 20.811312 23 39 28
-7.122166 2.415705 20.825047 26 39 24
-7.085398 2.417371 20.839405 43 43 32
-7.051421 2.420014 20.862192 35 25 19
-7.015246 2.421930 20.878710 38 19 23
-6.980172 2.424251 20.898718 25 31 22
-6.947850 2.427562 20.927258 27 24 27
-6.913045 2.430040 20.948622 15 41 44
-6.884934 2.434916 20.990652 22 34 28
-6.855859 2.439508 21.030241 36 30 18
-6.827638 2.444463 21.072958 40 17 40
-6.801321 2.450165 21.122116 25 40 32
-6.768698 2.453653 21.152182 19 30 29
-6.741176 2.459045 21.198668 27 23 39
-6.710440 2.463326 21.235569 17 34 23
-6.679229 2.467486 21.271429 34 36 38
-6.650974 2.472798 21.317225 36 24 34
-6.617396 2.476187 21.346437 29 34 41
-6.586452 2.480612 21.384584 29 29 34
-6.551547 2.483593 21.410284 44 31 43
-6.515326 2.486111 21.431993 17 21 40
-6.481426 2.489554 21.461676 24 27 38
-6.444068 2.491706 21.480227 24 38 33
-6.408171 2.494456 21.503931 28 22 28
-6.369736 2.496248 21.519377 18 27 31
-6.330455 2.497731 21.532160 30 43 41
-6.292557 2.499783 21.549852 20 42 42
-6.252632 2.501053 21.560799 37 15 44
-6.214236 2.502956 21.577209 31 30 35
-6.174515 2.504349 21.589212 31 34 26
-6.134858 2.505787 21.601612 37 15 27
-6.096744 2.507881 21.619661 30 35 40
-6.057168 2.509398 21.632742 30 35 40
-6.018847 2.511461 21.650530 30 35 40
-5.979234 2.513011 21.663891 41 18 20
-5.938839 2.514253 21.674595 42 22 25
-5.898497 2.515536 21.685652 29 23 23
-5.856353 2.516063 21.690197 44 27 18
-5.814834 2.516869 21.697144 27 36 41
-5.773039 2.517566 21.703156 37 22 29
-5.730868 2.518109 21.707834 33 36 34
-5.688681 2.518653 21.712523 29 38 33
-5.645707 2.518854 21.714258 15 19 20
-5.602701 2.519044 21.715895 44 42 36
-5.559038 2.518939 21.714991 42 42 22
-5.515816 2.519034 21.715813 38 15 33
-5.473889 2.519727 21.721781 44 44 44
-5.432253 2.520565 21.729012 39 29 29
-5.391874 2.522006 21.741428 15 23 18
-5.351146 2.523304 21.752625 16 27 33
-5.310291 2.524565 21.763489 37 31 25
-5.269671 2.525958 21.775499 23 29 34
-5.227734 2.526738 21.782227 20 26 18
-5.184934 2.527111 21.785439 30 35 40
-5.141016 2.526940 21.783966 30 35 40
-5.096054 2.526249 21.778009 30 35 40
-5.050529 2.525264 21.769520 21 17 25
-5.005114 2.524318 21.761364 38 42 21
-4.960266 2.523644 21.755554 15 33 39
-4.916382 2.523453 21.753902 16 36 20
-4.873643 2.523851 21.757334 25 34 26
-4.831107 2.524362 21.761745 17 24 42
-4.788601 2.524899 21.766367 30 43 35
-4.750198 2.527628 21.789898 30 29 20
-4.712474 2.530773 21.817011 120 120 120
-4.676917 2.535151 21.854752 120 120 120
-4.643673 2.540877 21.904116 120 120 120
-4.607680 2.545194 21.941332 20 28 39
-4.575097 2.551496 21.995659 16 36 24
-4.538926 2.555900 22.033623 39 42 26
-4.503173 2.560628 22.074377 29 41 17
-4.471396 2.567732 22.135622 42 23 15
-4.436309 2.573059 22.181547 41 27 37
-4.404681 2.580520 22.245863 18 44 24
-4.369639 2.586113 22.294077 29 32 32
-4.333181 2.590974 22.335985 43 17 37
-4.297784 2.596578 22.384293 36 44 43
-4.257855 2.599533 22.409765 44 34 42
-4.219965 2.603808 22.446623 35 16 42
-4.180217 2.607017 22.474283 39 20 24
-4.139897 2.609935 22.499439 34 22 44
-4.100712 2.613640 22.531384 33 27 21
-4.059120 2.615878 22.550669 29 33 33
-4.019959 2.619749 22.584040 28 36 35
-3.979973 2.623164 22.613482 35 19 33
-3.939840 2.626560 22.642761 36 41 24
-3.900386 2.630493 22.676662 15 20 20
-3.858416 2.632801 22.696564 24 18 17
-3.817775 2.636083 22.724854 30 20 26
-3.775734 2.638465 22.745384 42 29 34
-3.733378 2.640682 22.764502 41 21 28
-3.692039 2.643682 22.790361 19 16 27
-3.649157 2.645639 22.807232 35 33 20
-3.607337 2.648425 22.831249 42 31 18
-3.564282 2.650363 22.847960 24 26 21
-3.521180 2.652317 22.864805 19 44 38
-3.479007 2.655032 22.888203 33 31 23
-3.435633 2.656890 22.904221 44 39 18
-3.394412 2.660485 22.935219 29 44 18
-3.352770 2.663844 22.964176 28 35 29
-3.311264 2.667407 22.994890 34 35 41
-3.270247 2.671469 23.029905 33 32 36
-3.227126 2.673905 23.050901 15 41 40
-3.185656 2.677798 23.084463 37 28 31
-3.143885 2.681549 23.116800 21 24 18
-3.100889 2.684352 23.140963 21 31 38
-3.056461 2.685981 23.155005 43 39 33
-3.009652 2.685536 23.151171 35 32 34
-2.962834 2.685069 23.147142 43 33 19
-2.915918 2.684496 23.142204 33 15 36
-2.869580 2.684446 23.141773 32 39 34
-7.360622 2.439757 20.675903 30 28 36
-7.323758 2.441253 20.688581 29 22 23
-7.288087 2.443165 20.704792 40 34 35
-7.250344 2.444402 20.715267 40 38 33
-7.212694 2.445684 20.726131 17 29 19
-7.172216 2.446016 20.728949 21 27 18
-7.132116 2.446482 20.732895 16 36 37
-7.095306 2.448088 20.746510 39 31 32
-7.058554 2.449734 20.760454 18 26 43
-7.024283 2.452264 20.781902 22 28 44
-6.987717 2.454020 20.796776 22 19 18
-6.952193 2.456164 20.814949 27 15 15
-6.919434 2.459317 20.841669 23 33 17
-6.884474 2.461721 20.862041 29 18 26
-6.856180 2.466553 20.902988 18 24 25
-6.827096 2.471157 20.942011 17 25 21
-6.798941 2.476158 20.984386 39 40 42
-6.772557 2.481869 21.032785 35 28 15
-6.739924 2.485347 21.062263 29 29 32
-6.712506 2.490804 21.108509 33 41 31
-6.682032 2.495189 21.145672 43 44 43
-6.651178 2.499487 21.182096 25 18 24
-6.623262 2.504952 21.228405 22 17 19
-6.589967 2.508439 21.257957 42 36 40
-6.559416 2.513023 21.296806 42 36 32
-6.524836 2.516113 21.322992 15 24 40
-6.489049 2.518776 21.345556 33 35 30
-6.455869 2.522492 21.377048 28 26 21
-6.419205 2.524887 21.397348 24 41 27
-6.383936 2.527867 21.422604 27 26 41
-6.345808 2.529748 21.438540 22 15 41
-6.306676 2.531251 21.451279 34 26 41
-6.268986 2.533358 21.469131 24 22 40
-6.229220 2.534648 21.480068 35 20 37
-6.191011 2.536595 21.496567 27 32 17
-6.151509 2.538035 21.508772 31 29 40
-6.112060 2.539518 21.521339 30 35 40
-6.074132 2.541658 21.539476 30 35 40
-6.034702 2.543196 21.552505 30 35 40
-5.996504 2.545279 21.570160 30 35 40
-5.956965 2.546819 21.583208 30 35 40
-5.916695 2.548066 21.593779 21 21 26
-5.876604 2.549409 21.605164 39 44 28
-5.834769 2.550010 21.610256 38 36 42
-5.793659 2.550939 21.618130 24 20 20
-5.752179 2.551719 21.624735 44 33 24
-5.710429 2.552389 21.630411 28 36 37
-5.668860 2.553151 21.636869 33 41 30
-5.626454 2.553545 21.640209 24 30 38
-5.584231 2.554028 21.644304 27 28 18
-5.541222 2.554157 21.645399 38 43 31
-5.498609 2.554472 21.648067 42 33 15
-5.457295 2.555400 21.655931 23 19 41
-5.416011 2.556357 21.664045 35 21 34
-5.376191 2.558026 21.678188 32 19 34
-5.336010 2.559549 21.691097 34 33 28
-5.295673 2.561022 21.703579 29 41 27
-5.255553 2.562625 21.717159 37 41 29
-5.213901 2.563501 21.724586 30 35 40
-5.171528 2.564035 21.729111 30 35 40
-5.127970 2.563985 21.728685 30 35 40
-5.083424 2.563436 21.724033 30 35 40
-5.038553 2.562712 21.717901 30 35 40
-4.993718 2.561995 21.711819 42 34 27
-4.949217 2.561437 21.707092 33 29 35
-4.905325 2.561188 21.704979 44 30 40
-4.862360 2.561422 21.706966 21 16 39
-4.819644 2.561793 21.710110 19 42 19
-4.777042 2.562231 21.713825 25 18 34
-4.738310 2.564773 21.735367 24 15 36
-4.700296 2.567754 21.760628 120 120 120
-4.664375 2.571945 21.796144 120 120 120
-4.630637 2.577430 21.842627 120 120 120
-4.594334 2.581578 21.877779 44 16 44
-4.561231 2.587622 21.928997 43 43 35
-4.524701 2.591819 21.964567 29 24 37
-4.488608 2.596352 22.002979 27 26 25
-4.456375 2.603229 22.061260 18 38 16
-4.421064 2.608428 22.105322 15 42 40
-4.389044 2.615693 22.166889 43 24 25
-4.353711 2.621112 22.212812 21 25 32
-4.317065 2.625844 22.252914 22 18 39
-4.281511 2.631345 22.299538 23 20 29
-4.241650 2.634288 22.324476 26 37 34
-4.203856 2.638591 22.360937 31 39 33
-4.164270 2.641849 22.388548 42 22 30
-4.124156 2.644839 22.413889 18 25 39
-4.085145 2.648610 22.445850 32 30 18
-4.043723 2.650885 22.465126 40 26 41
-4.004757 2.654839 22.498632 19 30 22
-3.964967 2.658330 22.528219 22 31 35
-3.925055 2.661819 22.557787 42 15 20
-3.885858 2.665879 22.592197 26 26 38
-3.844135 2.668282 22.612558 42 20 30
-3.803766 2.671693 22.641464 29 32 15
-3.761954 2.674160 22.662376 34 40 29
-3.719834 2.676466 22.681917 44 42 36
-3.678777 2.679603 22.708498 29 40 35
-3.636154 2.681663 22.725962 44 36 32
-3.594666 2.684624 22.751049 26 21 35
-3.551938 2.686723 22.768835 32 27 38
-3.509162 2.688839 22.786768 41 32 43
-3.467312 2.691729 22.811260 15 25 15
-3.424175 2.693684 22.827833 39 41 17
-3.383195 2.697412 22.859425 33 37 24
-3.341766 2.700879 22.888805 41 21 42
-3.300419 2.704510 22.919579 36 31 26
-3.259528 2.708622 22.954426 23 20 33
-3.216503 2.711052 22.975019 25 25 18
-3.175047 2.714896 23.007589 41 37 27
-3.133239 2.718546 23.038523 34 43 34
-3.090264 2.721277 23.061672 40 31 29
-3.046007 2.722946 23.075811 40 27 42
-2.999496 2.722619 23.073046 27 19 38
-2.952961 2.722261 23.070005 28 28 32
-2.906235 2.721712 23.065353 18 20 22
-2.860071 2.721680 23.065088 26 19 42
-7.341951 2.474815 20.623457 37 39 24
-7.305411 2.476411 20.636755 39 40 40
-7.270103 2.478444 20.653702 32 36 36
-7.232633 2.479760 20.664667 19 18 22
-7.195252 2.481121 20.676010 41 42 15
-7.155023 2.481511 20.679256 24 31 41
-7.115032 2.481988 20.683233 18 36 26
-7.078193 2.483576 20.696470 35 34 24
-7.041331 2.485176 20.709797 19 41 31
-7.006705 2.487588 20.729897 19 18 25
-6.969785 2.489209 20.743408 31 39 28
-6.933884 2.491216 20.760132 38 26 44
-6.900729 2.494240 20.785330 31 28 27
-6.865604 2.496583 20.804861 26 39 25
-6.837128 2.501388 20.844902 42 23 39
-6.808001 2.506013 20.883440 20 19 29
-6.779893 2.511072 20.925596 42 26 24
-6.753506 2.516835 20.973621 19 21 27
-6.720944 2.520354 21.002949 17 30 43
-6.693662 2.525910 21.049252 37 28 31
-6.663380 2.530398 21.086647 36 16 18
-6.632772 2.534817 21.123478 40 39 40
-6.605103 2.540424 21.170200 22 26 40
-6.572017 2.544007 21.200056 38 27 41
-6.541751 2.548734 21.239452 34 23 33
-6.507393 2.551919 21.265991 20 19 41
-6.471898 2.554697 21.289139 44 36 36
-6.439207 2.558625 21.321877 22 42 28
-6.403012 2.561205 21.343374 15 18 17
-6.368129 2.564347 21.369560 36 16 21
-6.330112 2.566262 21.385513 40 17 41
-6.291042 2.567772 21.398104 30 29 33
-6.253600 2.569973 21.416439 42 15 25
-6.214119 2.571360 21.427998 15 16 33
-6.176168 2.573403 21.445026 33 16 15
-6.136810 2.574885 21.457376 25 30 30
-6.097449 2.576387 21.469891 17 16 19
-6.059602 2.578554 21.487951 30 35 40
-6.020242 2.580104 21.500864 30 35 40
-5.982088 2.582196 21.518303 30 35 40
-5.942582 2.583731 21.531094 42 30 25
-5.902382 2.584985 21.541540 31 21 19
-5.862446 2.586373 21.553110 16 23 39
-5.820802 2.587023 21.558527 28 16 32
-5.779954 2.588039 21.566994 31 31 22
-5.738709 2.588891 21.574095 28 25 32
-5.697203 2.589638 21.580315 15 22 28
-5.655877 2.590478 21.587317 26 25 43
-5.613644 2.590912 21.590937 15 23 41
-5.571820 2.591544 21.596201 20 21 43
-5.529317 2.591867 21.598894 41 34 44
-5.487216 2.592386 21.603214 43 22 25
-5.446326 2.593489 21.612406 19 27 20
-5.405240 2.594515 21.620960 36 33 29
-5.365759 2.596335 21.636126 17 31 29
-5.325955 2.598027 21.650225 27 26 38
-5.285954 2.599650 21.663748 20 31 19
-5.246086 2.601365 21.678043 42 42 28
-5.204519 2.602260 21.685497 17 16 43
-5.162329 2.602855 21.690456 30 35 40
-5.118931 2.602846 21.690386 30 35 40
-5.074664 2.602392 21.686598 30 35 40
-5.030372 2.601917 21.682640 38 39 15
-4.986132 2.601460 21.678837 33 28 44
-4.942019 2.601063 21.675522 35 17 42
-4.898129 2.600776 21.673136 40 26 43
-4.854982 2.600883 21.674026 35 30 42
-4.812176 2.601176 21.676468 29 39 30
-4.769548 2.601572 21.679766 35 32 23
-4.730648 2.604026 21.700220 33 41 23
-4.692466 2.606925 21.724379 120 120 120
-4.656320 2.611021 21.758505 120 120 120
-4.622270 2.616379 21.803160 120 120 120
-4.585769 2.620440 21.836996 42 24 19
-4.552329 2.626344 21.886196 19 21 22
-4.515555 2.630420 21.920170 39 23 31
-4.479236 2.634845 21.957041 29 36 30
-4.446706 2.641608 22.013397 32 27 30
-4.411252 2.646751 22.056261 21 34 36
-4.378977 2.653925 22.116045 23 37 39
-4.343461 2.659262 22.160513 23 29 33
-4.306683 2.663928 22.199398 23 40 24
-4.270983 2.669365 22.244705 23 42 43
-4.231122 2.672288 22.269064 32 36 32
-4.193339 2.676599 22.304993 26 38 30
-4.153839 2.679896 22.332466 33 20 38
-4.113836 2.682936 22.357803 32 18 37
-4.074887 2.686739 22.389490 25 37 39
-4.033526 2.689017 22.408476 44 41 20
-3.994610 2.692996 22.441631 37 44 23
-3.954891 2.696517 22.470972 26 24 33
-3.915066 2.700046 22.500380 41 32 19
-3.875959 2.704157 22.534643 15 38 35
-3.834348 2.706599 22.554989 16 43 44
-3.794091 2.710065 22.583874 31 21 30
-3.752380 2.712564 22.604700 32 40 43
-3.710390 2.714919 22.624327 38 44 40
-3.669496 2.718145 22.651207 44 28 36
-3.627041 2.720281 22.669004 17 19 38
-3.585804 2.723396 22.694963 24 30 20
-3.543325 2.725635 22.713623 29 23 31
-3.500812 2.727906 22.732548 15 34 27
-3.459243 2.730981 22.758177 23 29 24
-3.416318 2.733055 22.775455 24 38 39
-3.375566 2.736945 22.807878 17 23 15
-3.334330 2.740545 22.837877 25 44 37
-3.293131 2.744276 22.868965 43 39 21
-3.252374 2.748485 22.904039 29 19 18
-3.209436 2.750945 22.924545 31 23 20
-3.168016 2.754797 22.956638 37 44 25
-3.126214 2.758424 22.986864 21 33 25
-3.083239 2.761109 23.009243 34 35 27
-3.038996 2.762724 23.022699 15 21 26
-2.992547 2.762351 23.019590 32 39 22
-2.946101 2.761969 23.016411 16 15 26
-2.899493 2.761422 23.011852 40 19 21
-2.853476 2.761428 23.011904 34 18 41
-7.314097 2.506517 20.545218 22 33 34
-7.277857 2.508188 20.558918 18 41 18
-7.242971 2.510348 20.576622 37 28 24
-7.205820 2.511743 20.588057 29 25 16
-7.168732 2.513176 20.599804 44 28 32
-7.128768 2.513612 20.603376 39 23 42
-7.088867 2.514075 20.607170 25 42 22
-7.051901 2.515590 20.619593 28 43 37
-7.014837 2.517089 20.631874 30 35 31
-6.979774 2.519327 20.650219 34 39 43
-6.942483 2.520783 20.662153 44 15 15
-6.906250 2.522642 20.677395 41 32 26
-6.872761 2.525532 20.701086 36 19 17
-6.837561 2.527826 20.719883 34 27 36
-6.809050 2.532634 20.759298 35 22 26
-6.780038 2.537315 20.797663 17 38 17
-6.752145 2.542474 20.839954 28 37 37
-6.725935 2.548336 20.887997 23 43 33
-6.693557 2.551918 20.917364 39 21 36
-6.666484 2.557582 20.963785 37 28 38
-6.636424 2.562164 21.001343 24 44 32
-6.606028 2.566673 21.038307 22 39 42
-6.578542 2.572379 21.085072 23 31 41
-6.545598 2.576010 21.114834 34 22 42
-6.515553 2.580836 21.154392 42 19 42
-6.481395 2.584086 21.181030 39 36 25
-6.446242 2.586979 21.204742 18 37 35
-6.414142 2.591144 21.238882 21 15 22
-6.378563 2.593949 21.261875 22 31 39
-6.344342 2.597348 21.289740 27 41 33
-6.306726 2.599394 21.306505 35 38 44
-6.268022 2.601016 21.319803 30 38 33
-6.231143 2.603423 21.339531 41 41 37
-6.192145 2.604971 21.352224 34 22 26
-6.154650 2.607178 21.370314 28 39 21
-6.115555 2.608733 21.383060 16 24 41
-6.076353 2.610265 21.395611 17 40 41
-6.038689 2.612483 21.413792 18 28 42
-5.999453 2.614047 21.426617 30 35 40
-5.961423 2.616164 21.443968 27 40 15
-5.922014 2.617702 21.456573 19 32 27
-5.881959 2.618974 21.467003 30 43 39
-5.842270 2.620430 21.478935 34 41 21
-5.800915 2.621154 21.484871 16 28 22
-5.760446 2.622293 21.494202 16 39 30
-5.719536 2.623246 21.502016 27 24 23
-5.678368 2.624094 21.508968 40 29 37
-5.637365 2.625033 21.516661 23 35 21
-5.595345 2.625508 21.520557 27 19 27
-5.553988 2.626305 21.527086 36 30 32
-5.512053 2.626838 21.531456 26 23 23
-5.470539 2.627582 21.537556 43 41 16
-5.430152 2.628883 21.548223 38 24 16
-5.389338 2.629997 21.557350 27 42 38
-5.350212 2.631959 21.573435 34 42 34
-5.310729 2.633776 21.588327 25 40 20
-5.271020 2.635510 21.602543 40 23 37
-5.231455 2.637345 21.617582 29 29 39
-5.190096 2.638299 21.625399 17 25 18
-5.148262 2.639025 21.631351 40 18 21
-5.105192 2.639125 21.632170 30 35 40
-5.061373 2.638836 21.629801 21 17 36
-5.017760 2.638650 21.628277 24 27 37
-4.974122 2.638447 21.626617 21 21 42
-4.930717 2.638366 21.625954 25 24 26
-4.887375 2.638317 21.625551 26 17 22
-4.844577 2.638564 21.627577 22 17 33
-4.801963 2.638917 21.630465 30 25 28
-4.759294 2.639245 21.633156 21 40 43
-4.720176 2.641566 21.652184 28 33 38
-4.681818 2.644360 21.675081 120 120 120
-4.645388 2.648305 21.707418 120 120 120
-4.610922 2.653455 21.749632 120 120 120
-4.574129 2.657351 21.781565 25 36 34
-4.540162 2.662980 21.827702 15 19 26
-4.502990 2.666820 21.859177 37 29 26
-4.466272 2.671006 21.893490 39 17 23
-4.433232 2.677497 21.946693 28 40 44
-4.397517 2.682485 21.987583 15 37 18
-4.364803 2.689424 22.044460 43 30 38
-4.328985 2.694572 22.086658 15 37 42
-4.291950 2.699061 22.123453 21 42 16
-4.255865 2.704248 22.165966 40 20 22
-4.215812 2.706995 22.188482 40 40 39
-4.177873 2.711173 22.222729 16 28 42
-4.138447 2.714465 22.249716 30 22 24
-4.098600 2.717550 22.274998 42 44 19
-4.059687 2.721329 22.305975 29 17 15
-4.018383 2.723571 22.324352 36 28 43
-3.979494 2.727519 22.356710 44 26 42
-3.939850 2.731032 22.385511 21 17 30
-3.900119 2.734566 22.414476 33 28 19
-3.861084 2.738676 22.448160 30 22 32
-3.819586 2.741115 22.468155 41 26 20
-3.779458 2.744606 22.496771 26 21 43
-3.737893 2.747126 22.517426 20 36 30
-3.696103 2.749540 22.537214 27 38 22
-3.655455 2.752874 22.564539 30 24 18
-3.613263 2.755113 22.582895 29 39 40
-3.572398 2.758434 22.610117 36 20 18
-3.530285 2.760864 22.630032 44 31 28
-3.488159 2.763346 22.650381 37 41 42
-3.447013 2.766681 22.677717 24 25 40
-3.404421 2.768929 22.696138 32 20 28
-3.364017 2.773041 22.729843 20 27 35
-3.323059 2.776803 22.760679 25 32 15
-3.282076 2.780648 22.792194 18 33 42
-3.241523 2.784970 22.827623 32 18 40
-3.198733 2.787467 22.848091 18 15 22
-3.157385 2.791311 22.879599 17 43 39
-3.115631 2.794904 22.909050 35 35 34
-3.072668 2.797504 22.930359 22 35 15
-3.028398 2.798974 22.942411 33 39 26
-2.981970 2.798465 22.938234 32 29 18
-2.935614 2.798007 22.934483 34 39 17
-2.889196 2.797475 22.930126 31 23 43
-2.843430 2.797568 22.930883 17 38 19
-7.292403 2.540050 20.484278 25 21 17
-7.256282 2.541748 20.497971 43 28 38
-7.221637 2.543986 20.516014 22 38 34
-7.184677 2.545428 20.527649 20 27 29
-7.147711 2.546886 20.539400 20 16 22
-7.107844 2.547320 20.542902 33 41 19
-7.067911 2.547735 20.546253 28 25 28
-7.030759 2.549164 20.557775 18 28 33
-6.993496 2.550569 20.569107 18 19 35
-6.958123 2.552684 20.586163 31 43 29
-6.920611 2.554035 20.597055 25 17 34
-6.884242 2.555826 20.611502 44 39 35
-6.850655 2.558678 20.634502 38 33 33
-6.815541 2.560991 20.653154 35 21 38
-6.787212 2.565897 20.692719 42 23 26
-6.758462 2.570703 20.731478 26 24 42
-6.730888 2.576019 20.774345 19 37 23
-6.704996 2.582048 20.822968 43 35 20
-6.672870 2.585737 20.852718 35 44 31
-6.646056 2.591544 20.899546 24 27 24
-6.616207 2.596233 20.937363 24 28 18
-6.585961 2.600825 20.974398 20 19 24
-6.558561 2.606608 21.021029 21 32 35
-6.525652 2.610261 21.050491 39 19 36
-6.495683 2.615145 21.089880 15 33 40
-6.461628 2.618438 21.116432 39 26 39
-6.426695 2.621415 21.140444 25 18 20
-6.395012 2.625766 21.175535 41 36 44
-6.359885 2.628752 21.199615 25 40 41
-6.326265 2.632406 21.229078 28 15 38
-6.289116 2.634630 21.247013 25 15 37
-6.250881 2.636426 21.261501 26 24 41
-6.214589 2.639072 21.282841 21 27 24
-6.176033 2.640787 21.296667 29 32 28
-6.138984 2.643174 21.315918 23 36 38
-6.100163 2.644826 21.329243 38 25 25
-6.061143 2.646415 21.342054 27 30 22
-6.023682 2.648711 21.360573 40 25 39
-5.984575 2.650312 21.373484 19 34 22
-5.946684 2.652478 21.390951 25 44 21
-5.907381 2.654041 21.403555 40 28 42
-5.867458 2.655346 21.414082 15 17 18
-5.827980 2.656873 21.426395 30 24 21
-5.786848 2.657663 21.432770 33 19 17
-5.746653 2.658899 21.442736 36 33 26
-5.705986 2.659933 21.451077 34 31 43
-5.665045 2.660855 21.458506 43 38 16
-5.624243 2.661856 21.466578 44 19 39
-5.582344 2.662349 21.470552 37 21 43
-5.541239 2.663231 21.477671 23 28 26
-5.499629 2.663883 21.482925 31 35 36
-5.458437 2.664749 21.489908 17 21 28
-5.418350 2.666172 21.501389 35 30 36
-5.377721 2.667350 21.510883 26 17 17
-5.338724 2.669362 21.527111 34 31 42
-5.299258 2.671171 21.541700 29 41 27
-5.259581 2.672902 21.555658 31 20 31
-5.220152 2.674789 21.570875 18 30 32
-5.178980 2.675806 21.579084 36 17 16
-5.137471 2.676666 21.586014 20 44 16
-5.094710 2.676882 21.587755 31 31 17
-5.051253 2.676732 21.586550 32 39 18
-5.008015 2.676698 21.586273 35 44 18
-4.964633 2.676585 21.585361 34 34 40
-4.921906 2.676826 21.587309 41 31 42
-4.879503 2.677249 21.590721 31 44 23
-4.837489 2.677896 21.595932 17 25 36
-4.795187 2.678392 21.599939 25 25 18
-4.752323 2.678582 21.601469 43 17 32
-4.712951 2.680761 21.619043 27 17 38
-4.674493 2.683505 21.641171 120 120 120
-4.637905 2.687384 21.672451 120 120 120
-4.603155 2.692411 21.712994 120 120 120
-4.566141 2.696198 21.743530 15 31 32
-4.531763 2.701628 21.787323 41 29 41
-4.494259 2.705282 21.816793 24 30 29
-4.457199 2.709278 21.849012 30 35 16
-4.423719 2.715551 21.899601 30 41 41
-4.387751 2.720406 21.938755 43 22 41
-4.354676 2.727171 21.993313 43 29 17
-4.318683 2.732228 22.034096 41 27 35
-4.281463 2.736605 22.069399 36 22 34
-4.244965 2.741540 22.109192 29 39 16
-4.204590 2.744048 22.129423 31 34 34
-4.166380 2.748038 22.161596 22 22 41
-4.126966 2.751311 22.187990 22 22 22
-4.087223 2.754433 22.213171 32 16 33
-4.048293 2.758178 22.243368 24 30 23
-4.006991 2.760372 22.261063 40 40 31
-3.968069 2.764273 22.292524 31 29 17
-3.928440 2.767765 22.320683 31 36 31
-3.888736 2.771283 22.349058 34 38 23
-3.849691 2.775358 22.381922 36 19 16
-3.808232 2.777769 22.401365 15 31 25
-3.768150 2.781253 22.429462 38 30 41
-3.726662 2.783772 22.449774 20 23 20
-3.685008 2.786225 22.469559 20 18 26
-3.644527 2.789638 22.497080 21 24 41
-3.602534 2.791964 22.515841 42 43 42
-3.561948 2.795453 22.543974 21 35 39
-3.520111 2.798037 22.564814 33 18 37
-3.478284 2.800696 22.586260 40 43 38
-3.437467 2.804249 22.614912 23 38 22
-3.395132 2.806643 22.634214 42 41 35
-3.354998 2.810944 22.668907 40 18 34
-3.314253 2.814845 22.700365 34 24 33
-3.273431 2.818788 22.732161 20 40 38
-3.233021 2.823201 22.767752 39 25 44
-3.190326 2.825717 22.788042 29 15 33
-3.149056 2.829586 22.819244 31 38 15
-3.107416 2.833233 22.848650 33 33 16
-3.064514 2.835819 22.869507 25 42 34
-3.020174 2.837134 22.880110 42 36 37
-2.973654 2.836408 22.874262 16 40 42
-2.927289 2.835812 22.869448 41 21 20
-2.881019 2.835288 22.865227 15 43 27
-2.835480 2.835480 22.866772 41 36 30
-7.236051 2.575543 20.440821 25 44 29
-7.201581 2.577839 20.459036 21 28 18
-7.164776 2.579319 20.470789 25 41 22
-7.127916 2.580797 20.482517 15 28 27
-7.088151 2.581234 20.485985 19 30 40
-7.048211 2.581612 20.488985 16 16 43
-7.010898 2.582963 20.499702 18 39 25
-6.973451 2.584279 20.510149 36 18 22
-6.937864 2.586304 20.526226 33 22 35
-6.900282 2.587606 20.536552 38 36 29
-6.863930 2.589387 20.550688 38 35 41
-6.830377 2.592251 20.573423 39 44 41
-6.795380 2.594600 20.592062 25 27 41
-6.767255 2.599616 20.631874 17 22 26
-6.738756 2.604550 20.671030 39 26 20
-6.711454 2.610010 20.714363 33 29 39
-6.685835 2.616196 20.763464 43 23 21
-6.653920 2.619981 20.793501 25 18 40
-6.627222 2.625880 20.840321 42 31 16
-6.597421 2.630617 20.877914 30 27 32
-6.567120 2.635214 20.914394 17 44 27
-6.539589 2.640988 20.960220 33 29 41
-6.506581 2.644610 20.988972 15 15 42
-6.476526 2.649488 21.027681 22 25 27
-6.442456 2.652776 21.053778 43 22 39
-6.407655 2.655804 21.077812 41 34 35
-6.376228 2.660280 21.113337 31 17 24
-6.341432 2.663401 21.138105 44 31 33
-6.308366 2.667296 21.169014 38 18 42
-6.271755 2.669733 21.188360 30 38 29
-6.234088 2.671752 21.204382 36 36 20
-6.198414 2.674658 21.227446 18 33 30
-6.160269 2.676531 21.242306 26 21 44
-6.123617 2.679083 21.262560 22 39 44
-6.085026 2.680816 21.276314 37 33 23
-6.046138 2.682441 21.289217 25 41 34
-6.008842 2.684802 21.307949 31 42 41
-5.969855 2.686435 21.320910 22 34 31
-5.932098 2.688649 21.338484 42 29 44
-5.892919 2.690246 21.351156 23 31 29
-5.853142 2.691591 21.361834 26 20 22
-5.813871 2.693190 21.374525 21 22 28
-5.772950 2.694044 21.381298 27 18 25
-5.733019 2.695375 21.391863 28 15 16
-5.692591 2.696491 21.400719 32 23 34
-5.651872 2.697484 21.408606 43 28 40
-5.611268 2.698549 21.417053 27 36 39
-5.569483 2.699057 21.421089 33 34 15
-5.528569 2.699999 21.428562 28 32 40
-5.487177 2.700720 21.434284 36 30 18
-5.446206 2.701661 21.441757 24 30 42
-5.406358 2.703179 21.453802 18 33 29
-5.365905 2.704416 21.463619 43 24 43
-5.327026 2.706473 21.479944 35 17 28
-5.287563 2.708264 21.494158 22 32 24
-5.247914 2.709988 21.507843 24 39 36
-5.208647 2.711940 21.523336 28 34 44
-5.167710 2.713048 21.532124 21 35 40
-5.126565 2.714064 21.540188 17 27 37
-5.084144 2.714416 21.542982 20 32 29
-5.041047 2.714410 21.542936 28 24 43
-4.998120 2.714496 21.543621 24 28 19
-4.954902 2.714425 21.543053 36 31 36
-4.912814 2.714976 21.547430 24 36 15
-4.871345 2.715883 21.554625 34 15 28
-4.830208 2.716992 21.563429 33 24 37
-4.788437 2.717762 21.569536 42 20 26
-4.745622 2.717947 21.571009 44 26 37
-4.706210 2.720103 21.588121 38 27 29
-4.667719 2.722836 21.609810 120 120 120
-4.630972 2.726647 21.640057 120 120 120
-4.595969 2.731566 21.679098 120 120 120
-4.558746 2.735247 21.708313 18 43 20
-4.523952 2.740471 21.749767 21 21 41
-4.486107 2.743929 21.777218 18 41 25
-4.448687 2.747718 21.807289 26 24 41
-4.414765 2.753765 21.855274 40 24 15
-4.378556 2.758491 21.892782 28 25 32
-4.345071 2.765045 21.944801 39 32 22
-4.308800 2.769943 21.983673 43 42 29
-4.271288 2.774135 22.016947 20 21 28
-4.234308 2.778764 22.053686 23 26 19
-4.193610 2.781025 22.071630 28 34 28
-4.155119 2.784814 22.101698 16 43 22
-4.115708 2.788060 22.127460 34 43 25
-4.076066 2.791219 22.152533 21 17 36
-4.037109 2.794921 22.181915 27 32 37
-3.995815 2.797071 22.198973 37 35 25
-3.956865 2.800927 22.229576 34 21 28
-3.917265 2.804406 22.257187 32 27 44
-3.877600 2.807917 22.285057 15 26 30
-3.838545 2.811957 22.317122 21 40 41
-3.797117 2.814334 22.335985 37 31 24
-3.757097 2.817822 22.363670 36 36 38
-3.715722 2.820368 22.383869 41 28 25
-3.674241 2.822892 22.403906 15 34 30
-3.633962 2.826415 22.431864 32 43 24
-3.592174 2.828837 22.451088 41 31 28
-3.551867 2.832502 22.480171 30 22 31
-3.510291 2.835235 22.501865 39 22 28
-3.468739 2.838059 22.524281 31 35 33
-3.428249 2.841838 22.554268 32 33 39
-3.386181 2.844392 22.574539 39 24 29
-3.346316 2.848891 22.610245 36 37 30
-3.305769 2.852924 22.642250 27 19 32
-3.265104 2.856966 22.674335 31 31 28
-3.224866 2.861501 22.710327 44 19 32
-3.182313 2.864081 22.730804 40 38 27
-3.141120 2.867979 22.761742 33 40 44
-3.099528 2.871622 22.790649 38 23 30
-3.056623 2.874138 22.810621 43 38 21
-3.012219 2.875300 22.819843 32 28 35
-2.965660 2.874409 22.812767 37 31 43
-2.919330 2.873715 22.807262 36 40 24
