ply
format ascii 1.0
element vertex 1256
property float x
property float y
property float z
property uchar red
property uchar green
property uchar blue
end_header
-5.818182 2.676364 19.393940 17 17 16
-5.787024 2.679897 19.419544 19 37 20
-5.754439 2.682813 19.440672 32 38 32
-5.722037 2.685854 19.462711 26 44 38
-5.691223 2.689687 19.490488 32 39 41
-5.657500 2.692189 19.508619 29 19 37
-5.626227 2.695900 19.535509 31 44 18
-5.593056 2.698747 19.556139 31 32 31
-5.559502 2.701448 19.575712 37 24 41
-5.527343 2.704870 19.600506 19 20 20
-5.492469 2.707002 19.615959 37 25 18
-5.459339 2.710031 19.637909 33 42 29
-5.424526 2.712263 19.654081 44 33 17
-5.389260 2.714299 19.668831 24 15 30
-5.355063 2.716907 19.687733 31 23 28
-5.318825 2.718511 19.699352 34 37 40
-5.284006 2.720869 19.716442 18 35 39
-5.248382 2.722845 19.730761 31 40 20
-5.211939 2.724422 19.742191 38 42 35
-5.175327 2.725936 19.753157 39 32 25
-5.136831 2.726472 19.757042 26 41 38
-5.097928 2.726799 19.759411 39 28 25
-5.058168 2.726669 19.758471 28 33 33
-5.018086 2.726362 19.756245 19 44 28
-4.978593 2.726373 19.756323 32 43 34
-4.939342 2.726517 19.757368 25 22 42
-4.900325 2.726794 19.759377 24 44 15
-4.861418 2.727137 19.761862 20 26 29
-4.822288 2.727359 19.763474 30 35 40
-4.782794 2.727379 19.763613 20 40 38
-4.742955 2.727199 19.762314 19 25 21
-4.702317 2.726553 19.757633 27 16 30
-4.661529 2.725809 19.752241 28 31 31
-4.620451 2.724881 19.745516 23 17 22
-4.579060 2.723751 19.737328 20 24 20
-4.538258 2.722955 19.731558 34 15 34
-4.497645 2.722259 19.726515 25 27 42
-4.457632 2.721917 19.724033 39 33 38
-4.418375 2.722035 19.724888 31 33 39
-4.379313 2.722276 19.726637 33 39 44
-4.340462 2.722654 19.729374 21 27 39
-4.303774 2.724407 19.742083 34 27 36
-4.267447 2.726424 19.756699 120 120 120
-4.232189 2.729169 19.776585 120 120 120
-4.198116 2.732736 19.802433 120 120 120
-4.162569 2.735402 19.821756 19 35 23
-4.128173 2.738884 19.846985 19 34 37
-4.091648 2.741007 19.862370 22 36 18
-4.055091 2.743150 19.877895 26 37 33
-4.020477 2.746663 19.903353 42 41 22
-3.984594 2.749370 19.922970 19 28 21
-3.950178 2.753154 19.950392 43 44 38
-3.913935 2.755730 19.969055 32 30 38
-3.877674 2.758345 19.988008 19 16 23
-3.842946 2.762117 20.015343 24 34 26
-3.806604 2.764796 20.034756 16 37 38
-3.772313 2.769039 20.065496 29 38 35
-3.736640 2.772346 20.089464 24 31 29
-3.701114 2.775836 20.114752 22 34 28
-3.666921 2.780412 20.147915 25 24 29
-3.630647 2.783496 20.170263 35 34 25
-3.597063 2.788735 20.208221 17 28 38
-3.562447 2.793282 20.241175 19 32 28
-3.527684 2.797818 20.274046 37 24 38
-3.493737 2.803114 20.312422 26 35 27
-3.456984 2.806258 20.335199 35 37 34
-3.421567 2.810573 20.366472 41 40 39
-3.384498 2.813619 20.388544 36 15 41
-3.346955 2.816340 20.408264 24 27 23
-3.310549 2.820098 20.435490 43 35 31
-3.272517 2.822546 20.453230 44 18 33
-3.235044 2.825545 20.474964 21 37 23
-3.196008 2.827238 20.487228 25 32 41
-3.156763 2.828788 20.498461 19 29 42
-3.118562 2.831326 20.516857 26 35 34
-3.079548 2.833185 20.530323 28 19 42
-3.042433 2.836864 20.556982 34 37 29
-3.005009 2.840351 20.582256 41 41 20
-2.967739 2.844083 20.609299 28 44 27
-2.930802 2.848245 20.639454 25 36 44
-2.892005 2.850691 20.657181 43 15 41
-2.854903 2.854903 20.687702 26 24 39
-2.816982 2.858408 20.713100 36 18 26
-2.779232 2.862194 20.740534 35 29 18
-2.742555 2.867217 20.776936 41 26 19
-2.704271 2.870688 20.802086 28 32 40
-2.667413 2.875804 20.839161 18 19 17
-2.629519 2.879949 20.869198 38 32 17
-2.590975 2.883504 20.894957 34 15 26
-2.552477 2.887228 20.921940 22 19 35
-2.512112 2.888929 20.934265 22 32 17
-2.472113 2.891115 20.950108 16 27 34
-6.745477 2.637896 18.842113 33 31 35
-6.710024 2.638773 18.848381 38 23 39
-6.675271 2.639938 18.856697 44 39 20
-6.641433 2.641479 18.867706 42 24 40
-6.606563 2.642625 18.875895 39 37 17
-6.573334 2.644445 18.888891 30 38 39
-6.539017 2.645845 18.898893 37 20 24
-6.504946 2.647362 18.909727 20 31 43
-6.472009 2.649360 18.924002 18 32 17
-6.437474 2.650724 18.933746 16 32 30
-6.405667 2.653235 18.951677 40 31 16
-6.372845 2.655352 18.966801 20 43 19
-6.340832 2.657834 18.984526 44 42 43
-6.310834 2.661195 19.008537 38 18 30
-6.278549 2.663627 19.025906 21 33 34
-6.249668 2.667541 19.053865 33 31 26
-6.218925 2.670704 19.076456 33 19 31
-6.188323 2.673967 19.099762 21 38 39
-6.159745 2.678150 19.129644 27 30 26
-6.127786 2.680906 19.149330 34 39 42
-6.098236 2.684758 19.176844 23 37 24
-6.066107 2.687516 19.196541 29 15 34
-6.033421 2.690060 19.214716 21 44 41
-6.002555 2.693454 19.238958 22 27 39
-5.968900 2.695632 19.254515 16 28 19
-5.937065 2.698666 19.276186 17 25 21
-5.903036 2.700735 19.290966 35 25 38
-5.868902 2.702784 19.305599 32 44 25
-5.836653 2.705733 19.326664 44 37 38
-5.802421 2.707797 19.341404 36 37 31
-5.771312 2.711355 19.366819 31 20 40
-5.738974 2.714380 19.388426 36 34 32
-5.706899 2.717571 19.411222 40 38 31
-5.676349 2.721537 19.439552 15 38 38
-5.642800 2.724110 19.457932 25 28 21
-5.611696 2.727908 19.485056 34 35 35
-5.578647 2.730806 19.505758 21 38 19
-5.545194 2.733546 19.525330 23 36 36
-5.513157 2.737028 19.550203 28 20 31
-5.478401 2.739200 19.565718 34 30 31
-5.445403 2.742289 19.587780 26 44 34
-5.410715 2.744565 19.604038 25 17 34
-5.375580 2.746647 19.618906 26 17 24
-5.341542 2.749323 19.638021 26 22 43
-5.305447 2.750973 19.649805 27 36 24
-5.270827 2.753417 19.667265 26 27 38
-5.235390 2.755469 19.681919 19 31 36
-5.199145 2.757122 19.693729 41 24 30
-5.162743 2.758718 19.705128 21 17 33
-5.124416 2.759301 19.709293 42 37 15
-5.085707 2.759686 19.712042 42 16 23
-5.046100 2.759586 19.711329 21 42 33
-5.006180 2.759312 19.709372 21 32 22
-4.966885 2.759381 19.709862 39 24 33
-4.927806 2.759572 19.711226 30 17 24
-4.889128 2.759992 19.714228 18 41 24
-4.850621 2.760516 19.717970 33 21 17
-4.811887 2.760919 19.720848 42 39 18
-4.772711 2.761073 19.721947 32 15 30
-4.733018 2.760927 19.720909 17 44 20
-4.692615 2.760362 19.716869 40 17 28
-4.652060 2.759697 19.712120 21 15 35
-4.611230 2.758856 19.706112 23 22 15
-4.570140 2.757843 19.698879 38 16 41
-4.529573 2.757131 19.693794 30 35 40
-4.489217 2.756537 19.689547 35 22 35
-4.449396 2.756263 19.687593 37 19 19
-4.410276 2.756423 19.688732 16 20 34
-4.371348 2.756706 19.690758 33 15 33
-4.332569 2.757090 19.693497 18 34 37
-4.295859 2.758809 19.705776 19 29 38
-4.259486 2.760778 19.719845 120 120 120
-4.224106 2.763434 19.738813 120 120 120
-4.189833 2.766871 19.763363 120 120 120
-4.154141 2.769428 19.781626 37 25 22
-4.119480 2.772727 19.805193 20 26 32
-4.082769 2.774698 19.819269 20 17 39
-4.046021 2.776681 19.833437 39 27 22
-4.011143 2.780000 19.857141 20 23 17
-3.975119 2.782583 19.875595 29 20 36
-3.940464 2.786186 19.901331 39 22 27
-3.904076 2.788625 19.918753 37 43 22
-3.867685 2.791113 19.936520 34 39 18
-3.832755 2.794717 19.962267 16 16 31
-3.796320 2.797289 19.980633 25 42 26
-3.761912 2.801424 20.010168 29 21 25
-3.726215 2.804678 20.033415 24 24 41
-3.690714 2.808152 20.058226 16 30 44
-3.656515 2.812704 20.090742 32 33 34
-3.620295 2.815785 20.112751 16 40 23
-3.586746 2.821037 20.150261 31 39 15
-3.552191 2.825607 20.182905 18 41 21
-3.517502 2.830174 20.215530 17 38 19
-3.483609 2.835496 20.253540 40 20 26
-3.446935 2.838653 20.276091 25 17 19
-3.411596 2.842996 20.307117 42 40 35
-3.374608 2.846055 20.328966 42 28 19
-3.337192 2.848822 20.348730 19 35 28
-3.300957 2.852679 20.376278 42 40 31
-3.263120 2.855230 20.394501 23 32 21
-3.225935 2.858423 20.417309 25 32 27
-3.187162 2.860274 20.430529 44 29 21
-3.148234 2.862031 20.443081 27 43 22
-3.110437 2.864876 20.463402 32 16 39
-3.071763 2.866979 20.478418 40 22 42
-3.035068 2.871010 20.507215 26 22 20
-2.997983 2.874778 20.534128 34 38 22
-2.961004 2.878754 20.562527 20 21 43
-2.924372 2.883184 20.594170 23 44 20
-2.885766 2.885766 20.612614 21 37 18
-2.848815 2.890102 20.643587 19 33 38
-2.810984 2.893660 20.668997 20 37 22
-2.773266 2.897442 20.696016 29 18 15
-2.736635 2.902492 20.732082 43 30 39
-2.698405 2.905974 20.756958 42 27 19
-2.661452 2.910963 20.792595 18 23 28
-2.623419 2.914910 20.820784 43 37 23
-2.584696 2.918205 20.844322 43 39 21
-2.545986 2.921623 20.868738 23 40 29
-2.505521 2.923108 20.879343 20 16 16
-2.465504 2.925175 20.894106 27 16 19
-6.687472 2.667475 18.785034 24 30 15
-6.652959 2.668701 18.793669 39 19 39
-6.619324 2.670295 18.804897 44 23 36
-6.584570 2.671454 18.813057 17 31 27
-6.551497 2.673312 18.826141 38 20 25
-6.517387 2.674766 18.836378 39 37 21
-6.483502 2.676329 18.847389 44 32 38
-6.450729 2.678373 18.861780 20 37 29
-6.416315 2.679755 18.871515 18 28 41
-6.384477 2.682236 18.888987 24 17 27
-6.351558 2.684289 18.903446 38 17 25
-6.319382 2.686683 18.920305 23 29 17
-6.289224 2.689969 18.943445 31 40 35
-6.256904 2.692365 18.960316 20 36 22
-6.227803 2.696183 18.987206 20 38 24
-6.196866 2.699249 19.008793 24 25 25
-6.166021 2.702392 19.030928 41 30 22
-6.137085 2.706416 19.059271 33 42 27
-6.104913 2.709055 19.077854 44 34 16
-6.075148 2.712802 19.104239 20 24 37
-6.043006 2.715528 19.123438 24 21 33
-6.010387 2.718073 19.141361 26 40 23
-5.979567 2.721469 19.165277 21 24 34
-5.946032 2.723666 19.180748 26 15 22
-5.914056 2.726610 19.201479 17 44 19
-5.879724 2.728499 19.214785 39 27 27
-5.845283 2.730363 19.227905 33 28 41
-5.812846 2.733192 19.247833 28 44 40
-5.778674 2.735239 19.262245 41 26 37
-5.747696 2.738835 19.287569 19 25 21
-5.715588 2.741937 19.309418 30 43 38
-5.683800 2.745237 19.332653 31 42 38
-5.653498 2.749304 19.361296 34 37 43
-5.620152 2.751936 19.379833 23 15 28
-5.589252 2.755812 19.407124 32 33 30
-5.556379 2.758762 19.427898 23 27 22
-5.523091 2.761545 19.447502 43 34 19
-5.491244 2.765095 19.472498 40 41 18
-5.456672 2.767312 19.488113 20 25 26
-5.423864 2.770463 19.510303 41 17 23
-5.389354 2.772783 19.526644 36 30 26
-5.354395 2.774905 19.541588 25 26 33
-5.320529 2.777629 19.560768 23 21 32
-5.284597 2.779307 19.572582 24 37 21
-5.250177 2.781810 19.590212 24 31 43
-5.214956 2.783924 19.605097 44 33 20
-5.178938 2.785641 19.617189 36 25 42
-5.142777 2.787307 19.628922 40 24 35
-5.104654 2.787927 19.633286 33 20 17
-5.066183 2.788364 19.636368 34 38 30
-5.026774 2.788289 19.635836 20 21 18
-4.987079 2.788052 19.634169 36 27 16
-4.948054 2.788189 19.635134 42 32 26
-4.909223 2.788438 19.636890 16 38 31
-4.870960 2.789017 19.640966 22 36 32
-4.832895 2.789720 19.645916 21 24 31
-4.794634 2.790320 19.650139 38 40 28
-4.755937 2.790674 19.652634 25 30 40
-4.716568 2.790636 19.652369 21 30 15
-4.676602 2.790242 19.649590 38 20 16
-4.636430 2.789717 19.645891 15 38 26
-4.595978 2.789012 19.640930 30 35 40
-4.555341 2.788183 19.635092 30 35 40
-4.515119 2.787595 19.630951 30 35 40
-4.475138 2.787147 19.627796 30 35 40
-4.435609 2.786976 19.626589 30 35 40
-4.396700 2.787194 19.628124 41 19 34
-4.357978 2.787535 19.630529 37 43 32
-4.319328 2.787930 19.633310 40 36 41
-4.282634 2.789606 19.645111 35 29 19
-4.246252 2.791517 19.658573 120 120 120
-4.210759 2.794055 19.676443 120 120 120
-4.176255 2.797303 19.699316 120 120 120
-4.140388 2.799691 19.716133 36 25 35
-4.105424 2.802741 19.737616 19 32 24
-4.068559 2.804541 19.750288 18 37 31
-4.031641 2.806338 19.762947 21 18 18
-3.996450 2.809386 19.784407 41 42 26
-3.960235 2.811767 19.801174 32 32 38
-3.925245 2.815075 19.824471 25 17 38
-3.888658 2.817293 19.840090 18 16 28
-3.852093 2.819573 19.856148 40 42 35
-3.816889 2.822907 19.879629 19 41 17
-3.780343 2.825309 19.896540 36 25 20
-3.745788 2.829266 19.924406 37 15 15
-3.710092 2.832436 19.946732 29 31 33
-3.674652 2.835873 19.970934 41 16 26
-3.640448 2.840350 20.002462 27 34 25
-3.604297 2.843390 20.023870 44 18 19
-3.570794 2.848611 20.060638 31 35 23
-3.536329 2.853175 20.092781 41 27 34
-3.501760 2.857758 20.125059 16 15 23
-3.467975 2.863096 20.162647 29 26 33
-3.431449 2.866269 20.184996 29 43 21
-3.396287 2.870671 20.215992 32 27 25
-3.359477 2.873770 20.237814 18 18 16
-3.322301 2.876626 20.257933 43 41 37
-3.286388 2.880661 20.286343 41 40 35
-3.248879 2.883380 20.305494 16 29 19
-3.212160 2.886878 20.330128 42 19 22
-3.173805 2.888976 20.344904 17 42 44
-3.135346 2.891033 20.359386 22 35 15
-3.098129 2.894304 20.382425 26 19 28
-3.059929 2.896733 20.399527 18 33 40
-3.023808 2.901221 20.431135 26 41 38
-2.987179 2.905338 20.460129 16 24 40
-2.950590 2.909610 20.490211 20 36 23
-2.914374 2.914374 20.523762 38 20 32
-2.876039 2.917125 20.543135 44 32 29
-2.839303 2.921602 20.574659 43 36 20
-2.801594 2.925194 20.599957 32 16 24
-2.763924 2.928934 20.626297 44 24 15
-2.727384 2.934004 20.662003 30 40 19
-2.689276 2.937516 20.686735 24 24 38
-2.652112 2.942187 20.719624 37 27 24
-2.613682 2.945578 20.743505 41 20 29
-2.574540 2.948263 20.762419 28 17 23
-2.535534 2.951196 20.783068 36 41 34
-2.495071 2.952501 20.792261 32 22 37
-6.671085 2.698417 18.739004 31 35 29
-6.636743 2.699692 18.747862 39 42 36
-6.603194 2.701307 18.759073 44 42 31
-6.568445 2.702446 18.766987 43 28 27
-6.535414 2.704309 18.779926 42 41 30
-6.501427 2.705796 18.790253 31 41 43
-6.467678 2.707400 18.801390 34 33 43
-6.435028 2.709485 18.815870 29 44 24
-6.400723 2.710895 18.825657 23 40 17
-6.368866 2.713363 18.842800 37 43 32
-6.335864 2.715370 18.856739 42 23 44
-6.303564 2.717704 18.872946 18 31 20
-6.273311 2.720954 18.895515 25 44 16
-6.240995 2.723343 18.912107 24 20 36
-6.211753 2.727111 18.938272 17 43 27
-6.180670 2.730112 18.959110 25 40 16
-6.149630 2.733169 18.980339 43 30 40
-6.120380 2.737064 19.007391 43 17 17
-6.088003 2.739601 19.025009 25 26 43
-6.058011 2.743250 19.050350 20 33 43
-6.025812 2.745940 19.069025 43 31 17
-5.993202 2.748475 19.086632 28 21 27
-5.962395 2.751874 19.110239 17 35 16
-5.928965 2.754100 19.125692 29 18 44
-5.896677 2.756888 19.145054 43 26 41
-5.861726 2.758459 19.155968 36 43 25
-5.826706 2.760019 19.166796 42 18 40
-5.794040 2.762721 19.185564 15 28 35
-5.760073 2.764835 19.200243 32 34 20
-5.729264 2.768503 19.225718 18 38 29
-5.697243 2.771632 19.247444 44 19 44
-5.665552 2.774964 19.270584 32 27 32
-5.635359 2.779081 19.299173 21 32 35
-5.602136 2.781750 19.317711 30 40 43
-5.571374 2.785687 19.345047 30 29 42
-5.538635 2.788684 19.365858 21 42 42
-5.505496 2.791519 19.385550 36 19 17
-5.473813 2.795139 19.410685 16 29 40
-5.439398 2.797405 19.426422 35 17 41
-5.406757 2.800622 19.448765 42 24 39
-5.372401 2.802992 19.465219 33 44 37
-5.337574 2.805148 19.480198 30 30 21
-5.303825 2.807907 19.499357 39 15 42
-5.267988 2.809594 19.511068 24 30 19
-5.233679 2.812126 19.528652 19 19 19
-5.198597 2.814278 19.543596 23 44 28
-5.162726 2.816032 19.555779 30 41 34
-5.126706 2.817732 19.567581 15 36 36
-5.088717 2.818366 19.571989 22 23 39
-5.050395 2.818825 19.575174 28 44 16
-5.011126 2.818759 19.574713 18 26 28
-4.971589 2.818539 19.573185 24 22 27
-4.932756 2.818717 19.574427 27 26 44
-4.894107 2.819006 19.576429 23 41 32
-4.856113 2.819679 19.581102 42 15 22
-4.818297 2.820466 19.586573 15 43 22
-4.780337 2.821183 19.591547 16 34 40
-4.742038 2.821709 19.595200 23 42 40
-4.703019 2.821811 19.595913 30 41 18
-4.663483 2.821603 19.594465 40 22 41
-4.623637 2.821202 19.591682 30 35 40
-4.583488 2.820608 19.587557 30 35 40
-4.543206 2.819921 19.582785 30 35 40
-4.503240 2.819420 19.579306 30 35 40
-4.463527 2.819070 19.576874 30 35 40
-4.424190 2.818953 19.576063 30 35 40
-4.385424 2.819201 19.577785 30 35 40
-4.346849 2.819578 19.580402 15 44 25
-4.308309 2.819984 19.583223 19 18 26
-4.271648 2.821639 19.594715 18 16 29
-4.235287 2.823525 19.607811 120 120 120
-4.199743 2.825996 19.624969 120 120 120
-4.165095 2.829121 19.646673 120 120 120
-4.129107 2.831388 19.662415 19 34 42
-4.093981 2.834294 19.682600 15 38 18
-4.057093 2.836026 19.694628 17 15 36
-4.020127 2.837737 19.706507 36 18 38
-3.984727 2.840598 19.726372 41 22 24
-3.948349 2.842811 19.741745 21 23 22
-3.913093 2.845886 19.763098 37 38 23
-3.876353 2.847933 19.777309 20 43 22
-3.839660 2.850057 19.792061 41 25 25
-3.804250 2.853188 19.813803 33 24 39
-3.767623 2.855461 19.829594 22 39 35
-3.732965 2.859292 19.856197 29 36 19
-3.697274 2.862406 19.877817 39 40 16
-3.661882 2.865821 19.901533 42 15 27
-3.627677 2.870250 19.932291 19 43 42
-3.591577 2.873261 19.953203 39 36 28
-3.558112 2.878472 19.989391 18 41 41
-3.523723 2.883046 20.021151 27 19 27
-3.489264 2.887667 20.053242 20 15 33
-3.455588 2.893051 20.090630 29 23 27
-3.419203 2.896266 20.112957 36 31 41
-3.384218 2.900759 20.144157 43 41 29
-3.347585 2.903929 20.166172 16 17 42
-3.310640 2.906903 20.186829 25 23 17
-3.275017 2.911126 20.216156 24 31 34
-3.237790 2.914011 20.236187 43 15 23
-3.201458 2.917784 20.262392 37 40 32
-3.163444 2.920102 20.278486 26 30 23
-3.125355 2.922410 20.294516 24 19 38
-3.088584 2.926027 20.319633 43 20 20
-3.050737 2.928708 20.338247 16 38 35
-3.015033 2.933546 20.371845 17 40 21
-2.978735 2.937930 20.402292 25 22 38
-2.942423 2.942423 20.433496 32 32 20
-2.906507 2.947444 20.468361 27 41 41
-2.868374 2.950327 20.488382 23 25 16
-2.831786 2.954907 20.520187 23 16 22
-2.794147 2.958508 20.545197 19 38 31
-2.756510 2.962220 20.570971 20 42 38
-2.720106 2.967389 20.606865 32 21 37
-2.682181 2.971032 20.632164 40 35 15
-2.644838 2.975442 20.662794 27 37 38
-2.605941 2.978218 20.682068 20 16 19
-2.566331 2.980255 20.696215 38 23 41
-2.527108 2.982816 20.714001 22 21 32
-2.486763 2.984116 20.723028 38 36 40
-6.620804 2.730614 18.702835 18 43 44
-6.587373 2.732262 18.714127 36 34 39
-6.552701 2.733413 18.722004 16 18 16
-6.519740 2.735293 18.734886 37 43 23
-6.485834 2.736797 18.745184 24 43 36
-6.452166 2.738419 18.756296 31 42 21
-6.419602 2.740532 18.770765 38 25 30
-6.385397 2.741965 18.780581 22 17 32
-6.353543 2.744430 18.797464 22 43 35
-6.320483 2.746401 18.810963 25 28 29
-6.288093 2.748687 18.826626 30 37 21
-6.257774 2.751913 18.848717 41 34 27
-6.225463 2.754296 18.865040 43 37 37
-6.196122 2.758030 18.890617 28 33 27
-6.164945 2.760988 18.910875 20 37 15
-6.133775 2.763985 18.931404 18 15 44
-6.104308 2.767792 18.957478 37 17 25
-6.071796 2.770257 18.974363 21 16 28
-6.041672 2.773850 18.998970 40 16 34
-6.009511 2.776546 19.017441 27 30 19
-5.976957 2.779095 19.034895 18 43 28
-5.946138 2.782488 19.058136 22 44 39
-5.912725 2.784703 19.073307 27 27 21
-5.880072 2.787307 19.091143 38 34 29
-5.844512 2.788558 19.099712 31 36 26
-5.808954 2.789826 19.108400 42 22 18
-5.776120 2.792429 19.126225 40 41 44
-5.742413 2.794641 19.141376 27 30 33
-5.711765 2.798381 19.166996 25 43 40
-5.679760 2.801503 19.188379 38 22 16
-5.648064 2.804821 19.211102 38 20 16
-5.617894 2.808947 19.239365 33 35 25
-5.584753 2.811634 19.257769 17 37 25
-5.554085 2.815612 19.285017 19 32 18
-5.521460 2.818648 19.305805 35 40 19
-5.488459 2.821532 19.325562 30 41 22
-5.456911 2.825209 19.350750 19 15 24
-5.422631 2.827515 19.366539 17 30 25
-5.390108 2.830776 19.388878 27 37 35
-5.355868 2.833177 19.405319 22 37 33
-5.321134 2.835349 19.420197 32 34 38
-5.287434 2.838108 19.439095 22 22 16
-5.251649 2.839781 19.450552 38 18 37
-5.217380 2.842304 19.467836 36 25 17
-5.182366 2.844457 19.482580 24 32 33
-5.146582 2.846216 19.494629 34 29 26
-5.110641 2.847915 19.506264 26 41 34
-5.072755 2.848547 19.510595 42 34 18
-5.034540 2.849003 19.513721 15 20 25
-4.995391 2.848934 19.513245 31 30 31
-4.955994 2.848721 19.511786 16 23 35
-4.917320 2.848923 19.513174 27 38 35
-4.878835 2.849239 19.515339 37 30 24
-4.841039 2.849967 19.520319 41 17 17
-4.803377 2.850785 19.525925 37 26 33
-4.765632 2.851567 19.531281 18 38 24
-4.727671 2.852231 19.535831 28 33 36
-4.688989 2.852468 19.537455 23 19 22
-4.649850 2.852429 19.537184 18 22 37
-4.610308 2.852139 19.535202 30 35 40
-4.570437 2.851640 19.531780 30 35 40
-4.530490 2.851084 19.527975 30 35 40
-4.490776 2.850666 19.525112 30 35 40
-4.451342 2.850420 19.523428 30 35 40
-4.412230 2.850379 19.523144 30 35 40
-4.373643 2.850678 19.525194 30 35 40
-4.335246 2.851108 19.528135 33 27 38
-4.296823 2.851528 19.531015 21 32 36
-4.260234 2.853184 19.542356 19 42 15
-4.223941 2.855071 19.555283 120 120 120
-4.188403 2.857509 19.571978 120 120 120
-4.153664 2.860542 19.592756 120 120 120
-4.117591 2.862706 19.607578 24 35 43
-4.082352 2.865497 19.626690 19 33 33
-4.045480 2.867185 19.638254 38 18 32
-4.008516 2.868840 19.649590 34 28 27
-3.972989 2.871567 19.668264 33 42 27
-3.936509 2.873652 19.682547 15 33 19
-3.901054 2.876535 19.702291 43 23 22
-3.864195 2.878431 19.715281 34 41 25
-3.827395 2.880411 19.728842 27 22 41
-3.791829 2.883370 19.749107 24 17 15
-3.755154 2.885540 19.763969 23 41 19
-3.720443 2.889280 19.789591 16 32 33
-3.684802 2.892371 19.810762 17 30 18
-3.649487 2.895789 19.834169 23 19 26
-3.615285 2.900174 19.864204 17 44 29
-3.579220 2.903145 19.884554 43 41 30
-3.545774 2.908331 19.920076 24 21 17
-3.511444 2.912903 19.951387 15 36 39
-3.477079 2.917549 19.983213 35 18 24
-3.443507 2.922977 20.020390 29 39 26
-3.407265 2.926239 20.042734 40 29 40
-3.372471 2.930838 20.074234 22 19 35
-3.336027 2.934096 20.096550 18 43 43
-3.299326 2.937205 20.117840 16 27 22
-3.264010 2.941638 20.148209 23 38 33
-3.227068 2.944699 20.169174 37 28 35
-3.191116 2.948753 20.196938 31 21 31
-3.153429 2.951286 20.214287 19 21 41
-3.115678 2.953825 20.231676 23 17 27
-3.079308 2.957756 20.258604 27 34 25
-3.041772 2.960658 20.278479 23 34 44
-3.006424 2.965797 20.313677 16 29 40
-2.970401 2.970401 20.345211 16 15 16
-2.934322 2.975077 20.377239 36 17 38
-2.898667 2.980320 20.413149 30 25 30
-2.860721 2.983323 20.433722 25 37 43
-2.824276 2.988003 20.465771 21 27 37
-2.786727 2.991634 20.490641 44 32 38
-2.749126 2.995316 20.515863 41 44 35
-2.712792 3.000512 20.551453 43 28 22
-2.674964 3.004190 20.576647 43 42 39
-2.637364 3.008243 20.604404 15 31 42
-2.597977 3.010354 20.618866 32 27 17
-2.557909 3.011731 20.628296 27 24 41
-2.518497 3.013939 20.643415 23 15 27
-6.599432 2.759085 18.642464 39 35 23
-6.566306 2.760833 18.654280 19 35 26
-6.531926 2.762072 18.662645 38 32 42
-6.499198 2.764027 18.675856 34 34 37
-6.465391 2.765543 18.686100 26 15 15
-6.431773 2.767158 18.697016 29 21 19
-6.399336 2.769303 18.711510 32 18 42
-6.365284 2.770771 18.721424 24 28 15
-6.333478 2.773239 18.738102 17 28 32
-6.300404 2.775178 18.751204 29 37 16
-6.267949 2.777414 18.766314 17 37 18
-6.237546 2.780593 18.787790 32 36 30
-6.205225 2.782949 18.803711 29 37 29
-6.175763 2.786625 18.828547 31 20 16
-6.144501 2.789528 18.848162 19 35 43
-6.113235 2.792465 18.868010 39 30 20
-6.083615 2.796196 18.893215 18 24 37
-6.051044 2.798608 18.909512 38 16 24
-6.020924 2.802191 18.933723 41 23 30
-5.988958 2.804955 18.952398 42 38 21
-5.956579 2.807560 18.969997 17 35 37
-5.925722 2.810919 18.992699 25 42 34
-5.892203 2.813052 19.007107 39 21 40
-5.859272 2.815494 19.023611 27 36 22
-5.823428 2.816560 19.030809 24 26 25
-5.787674 2.817683 19.038401 25 38 36
-5.754820 2.820243 19.055695 37 19 37
-5.721336 2.822526 19.071121 31 17 29
-5.690817 2.826312 19.096701 28 36 29
-5.658850 2.829425 19.117737 22 32 30
-5.627169 2.832725 19.140032 17 23 19
-5.597028 2.836850 19.167904 29 30 36
-5.563967 2.839542 19.186094 32 30 22
-5.533382 2.843543 19.213131 16 39 22
-5.500882 2.846610 19.233852 30 44 24
-5.468012 2.849528 19.253565 17 22 28
-5.436578 2.853239 19.278645 33 35 44
-5.402416 2.855563 19.294342 30 24 42
-5.369968 2.858832 19.316433 27 40 34
-5.335804 2.861228 19.332623 18 42 30
-5.301123 2.863380 19.347164 19 30 25
-5.267432 2.866103 19.365561 37 21 21
-5.231685 2.867739 19.376612 32 16 33
-5.197431 2.870223 19.393398 15 41 23
-5.162476 2.872355 19.407804 31 16 30
-5.126777 2.874102 19.419609 31 36 36
-5.090911 2.875782 19.430960 29 28 27
-5.053142 2.876404 19.435162 25 18 41
-5.015068 2.876861 19.438250 35 35 44
-4.976082 2.876797 19.437819 31 44 23
-4.936879 2.876607 19.436533 36 36 21
-4.898417 2.876848 19.438162 35 17 15
-4.860140 2.877203 19.440561 29 38 27
-4.822587 2.877996 19.445917 27 33 22
-4.785123 2.878855 19.451721 31 21 23
-4.747616 2.879701 19.457441 16 39 29
-4.709976 2.880481 19.462711 42 21 16
-4.671603 2.880822 19.465014 21 39 34
-4.632858 2.880937 19.465792 30 35 40
-4.593641 2.880758 19.464579 30 35 40
-4.554110 2.880377 19.462009 30 35 40
-4.514576 2.879988 19.459377 30 35 40
-4.475191 2.879688 19.457354 30 35 40
-4.436179 2.879625 19.456926 30 35 40
-4.397448 2.879745 19.457733 30 35 40
-4.359182 2.880174 19.460636 30 35 40
-4.321070 2.880713 19.464277 30 35 40
-4.282807 2.881161 19.467304 16 41 17
-4.246329 2.882829 19.478575 27 32 28
-4.210148 2.884731 19.491425 120 120 120
-4.174628 2.887126 19.507608 120 120 120
-4.139801 2.890049 19.527361 120 120 120
-4.103632 2.892084 19.541105 15 41 42
-4.068230 2.894702 19.558798 30 37 43
-4.031310 2.896281 19.569468 43 26 15
-3.994298 2.897824 19.579893 21 41 39
-3.958636 2.900387 19.597206 25 15 19
-3.922097 2.902352 19.610483 20 17 30
-3.886449 2.905022 19.628529 31 28 42
-3.849444 2.906723 19.640020 33 41 35
-3.812507 2.908510 19.652096 35 30 21
-3.776753 2.911247 19.670588 25 22 16
-3.740027 2.913285 19.684355 24 43 43
-3.705265 2.916910 19.708855 32 36 17
-3.669708 2.919983 19.729612 41 18 17
-3.634504 2.923406 19.752741 38 31 43
-3.600310 2.927724 19.781921 29 22 34
-3.564265 2.930618 19.801472 24 16 29
-3.530811 2.935731 19.836018 17 42 35
-3.496526 2.940260 19.866625 29 25 19
-3.462248 2.944901 19.897980 38 42 15
-3.428768 2.950335 19.934696 17 43 18
-3.392677 2.953625 19.956924 18 23 38
-3.358083 2.958311 19.988588 18 44 43
-3.321844 2.961644 20.011108 29 23 31
-3.285412 2.964884 20.033001 20 44 29
-3.250440 2.969538 20.064445 43 44 41
-3.213834 2.972797 20.086464 44 42 27
-3.178319 2.977160 20.115944 26 35 22
-3.141007 2.979930 20.134663 26 27 35
-3.103650 2.982729 20.153574 27 25 32
-3.067759 2.987028 20.182623 22 18 33
-3.030605 2.990197 20.204033 42 28 27
-2.995692 2.995692 20.241161 24 36 42
-2.960002 3.000550 20.273989 38 15 27
-2.924210 3.005438 20.307016 20 34 20
-2.888882 3.010947 20.344238 42 37 23
-2.851182 3.014106 20.365583 42 21 23
-2.814938 3.018919 20.398100 40 31 30
-2.777556 3.022634 20.423204 34 19 28
-2.740000 3.026269 20.447763 43 34 32
-2.703605 3.031314 20.481853 21 27 44
-2.665697 3.034794 20.505363 32 33 44
-2.627724 3.038306 20.529093 36 18 42
-2.587896 3.039751 20.538858 28 16 29
-2.547439 3.040492 20.543865 33 16 43
-2.507791 3.042238 20.555662 20 16 24
-6.552362 2.792200 18.614666 20 30 20
-6.518301 2.793558 18.623718 42 26 27
-6.485808 2.795607 18.637379 15 27 18
-6.452041 2.797128 18.647518 30 26 41
-6.418404 2.798723 18.658152 38 43 29
-6.386042 2.800896 18.672638 15 32 33
-6.352107 2.802400 18.682669 40 37 29
-6.320371 2.804899 18.699324 20 34 43
-6.287326 2.806842 18.712280 34 22 19
-6.254865 2.809071 18.727140 40 21 21
-6.224424 2.812240 18.748264 29 28 16
-6.192084 2.814584 18.763891 27 17 39
-6.162572 2.818249 18.788328 32 34 26
-6.131285 2.821143 18.807623 16 43 40
-6.100027 2.824087 18.827244 31 39 19
-6.070408 2.827830 18.852198 22 28 37
-6.037883 2.830258 18.868383 28 38 28
-6.007893 2.833912 18.892746 29 44 25
-5.976172 2.836791 18.911938 21 22 31
-5.943982 2.839482 18.929880 20 34 18
-5.913077 2.842826 18.952171 43 25 36
-5.879379 2.844861 18.965738 20 35 24
-5.846342 2.847245 18.981630 34 21 36
-5.810577 2.848322 18.988815 28 42 41
-5.774972 2.849493 18.996618 35 30 16
-5.742231 2.852101 19.014009 42 41 26
-5.708858 2.854429 19.029528 21 43 32
-5.678387 2.858248 19.054989 36 19 40
-5.646421 2.861362 19.075747 21 26 15
-5.614718 2.864652 19.097681 35 22 44
-5.584557 2.868779 19.125195 34 41 19
-5.551520 2.871476 19.143173 31 32 44
-5.520950 2.875495 19.169966 38 42 37
-5.488506 2.878587 19.190580 29 26 33
-5.455698 2.881531 19.210205 22 29 39
-5.424291 2.885261 19.235075 20 27 37
-5.390168 2.887590 19.250599 35 32 17
-5.357704 2.890848 19.272318 21 42 33
-5.323535 2.893226 19.288172 25 40 25
-5.288833 2.895347 19.302311 23 15 36
-5.255093 2.898029 19.320196 35 37 41
-5.219334 2.899630 19.330868 18 26 24
-5.185038 2.902073 19.347157 18 19 40
-5.150076 2.904178 19.361187 20 42 44
-5.114392 2.905905 19.372698 44 35 42
-5.078535 2.907558 19.383722 35 22 35
-5.040820 2.908165 19.387770 23 18 27
-5.002821 2.908617 19.390779 44 28 24
-4.963935 2.908556 19.390371 30 37 36
-4.924859 2.908381 19.389210 16 19 44
-4.886529 2.908648 19.390987 29 29 29
-4.848379 2.909027 19.393517 29 36 28
-4.810948 2.909848 19.398985 42 20 26
-4.773574 2.910716 19.404772 18 18 43
-4.736161 2.911575 19.410498 31 20 29
-4.698649 2.912386 19.415907 42 32 29
-4.660410 2.912756 19.418373 42 27 38
-4.621849 2.912930 19.419533 41 42 44
-4.582798 2.912795 19.418636 30 35 40
-4.543469 2.912480 19.416533 30 35 40
-4.504189 2.912191 19.414610 30 35 40
-4.465020 2.911970 19.413132 30 35 40
-4.426327 2.912057 19.413713 30 35 40
-4.387907 2.912328 19.415520 30 35 40
-4.349919 2.912892 19.419281 30 35 40
-4.312038 2.913539 19.423595 25 15 41
-4.273889 2.914015 19.426767 43 20 34
-4.237511 2.915718 19.438122 34 41 18
-4.201434 2.917663 19.451084 120 120 120
-4.165960 2.920066 19.467104 120 120 120
-4.131112 2.922956 19.486376 120 120 120
-4.094903 2.924931 19.499538 34 20 44
-4.059407 2.927457 19.516380 27 32 26
-4.022439 2.928961 19.526403 34 35 15
-3.985387 2.930431 19.536209 44 30 31
-3.949681 2.932932 19.552877 34 28 17
-3.913165 2.934873 19.565823 34 29 33
-3.877449 2.937461 19.583075 25 39 27
-3.840364 2.939054 19.593695 17 35 32
-3.803339 2.940726 19.604839 25 22 24
-3.767485 2.943348 19.622320 16 20 18
-3.730744 2.945324 19.635496 20 16 29
-3.695979 2.948919 19.659462 37 15 38
-3.660505 2.952020 19.680134 41 29 38
-3.625388 2.955479 19.703196 38 25 20
-3.591197 2.959778 19.731852 38 24 21
-3.555147 2.962622 19.750814 16 33 28
-3.521660 2.967691 19.784607 31 43 37
-3.487381 2.972199 19.814663 36 31 21
-3.453134 2.976840 19.845598 40 21 41
-3.419691 2.982288 19.881922 24 27 16
-3.383684 2.985604 19.904024 27 31 36
-3.349198 2.990355 19.935703 35 20 34
-3.313078 2.993746 19.958303 28 28 34
-3.276806 2.997079 19.980524 30 42 37
-3.242043 3.001892 20.012613 25 33 41
-3.205641 3.005289 20.035257 38 18 16
-3.170385 3.009859 20.065727 32 28 36
-3.133290 3.012779 20.085194 28 25 35
-3.096158 3.015738 20.104923 16 24 15
-3.060544 3.020274 20.135159 29 23 42
-3.023615 3.023615 20.157434 20 37 34
-2.988952 3.029343 20.195621 40 40 18
-2.953448 3.034365 20.229097 18 31 18
-2.917820 3.039396 20.262640 24 29 42
-2.882689 3.045094 20.300627 44 35 28
-2.845145 3.048370 20.322468 34 25 20
-2.809036 3.053300 20.355333 19 37 24
-2.771801 3.057133 20.380890 24 24 39
-2.734275 3.060756 20.405039 15 39 41
-2.697733 3.065606 20.437374 36 41 17
-2.659629 3.068802 20.458681 24 37 33
-2.621354 3.071900 20.479332 34 15 35
-2.581324 3.073004 20.486696 23 18 37
-2.540719 3.073450 20.489668 22 15 35
-6.496699 2.821424 18.561998 38 18 15
-6.464645 2.823638 18.576567 27 39 26
-6.431083 2.825216 18.586946 38 33 31
-6.397491 2.826799 18.597359 33 15 18
-6.365115 2.828940 18.611448 33 17 42
-6.331123 2.830384 18.620949 25 42 23
-6.299348 2.832843 18.637123 33 15 41
-6.266397 2.834798 18.649990 34 41 18
-6.234024 2.837041 18.664743 35 24 22
-6.203540 2.840175 18.685362 41 32 27
-6.171149 2.842469 18.700451 20 18 18
-6.141599 2.846107 18.724388 29 17 19
-6.110361 2.849003 18.743439 32 43 38
-6.079240 2.851989 18.763086 20 27 40
-6.049818 2.855815 18.788256 31 27 17
-6.017534 2.858329 18.804794 16 42 15
-5.987900 2.862141 18.829874 33 28 31
-5.956597 2.865198 18.849989 23 25 20
-5.924719 2.868017 18.868532 32 18 31
-5.893823 2.871349 18.890457 41 37 40
-5.859935 2.873258 18.903015 18 38 40
-5.826848 2.875587 18.918339 37 17 17
-5.791317 2.876733 18.925873 21 25 26
-5.756000 2.878000 18.934210 37 44 44
-5.723443 2.880673 18.951797 15 17 23
-5.690175 2.883022 18.967251 32 30 32
-5.659708 2.886831 18.992310 36 17 29
-5.627702 2.889901 19.012506 28 33 18
-5.595932 2.893135 19.033783 34 22 40
-5.565720 2.897224 19.060684 24 27 38
-5.532720 2.899908 19.078344 40 39 16
-5.502190 2.903934 19.104826 24 43 16
-5.469848 2.907052 19.125341 26 17 38
-5.437153 2.910026 19.144905 16 43 18
-5.405823 2.913777 19.169584 35 18 22
-5.371780 2.916109 19.184929 31 24 38
-5.339349 2.919357 19.206293 26 30 44
-5.305223 2.921717 19.221823 26 35 25
-5.270545 2.923806 19.235567 26 20 22
-5.236787 2.926440 19.252893 41 30 16
-5.201051 2.927999 19.263153 28 37 36
-5.166734 2.930386 19.278858 44 31 35
-5.131790 2.932451 19.292442 43 40 43
-5.096146 2.934145 19.303585 25 19 39
-5.060322 2.935759 19.314207 42 34 33
-5.022698 2.936347 19.318069 26 38 37
-4.984818 2.936792 19.320999 27 31 16
-4.946089 2.936740 19.320660 23 25 39
-4.907200 2.936592 19.319685 25 28 43
-4.869056 2.936891 19.321651 38 22 34
-4.831079 2.937296 19.324316 42 16 35
-4.793805 2.938138 19.329857 30 30 30
-4.756547 2.939005 19.335558 24 27 35
-4.719250 2.939860 19.341187 15 32 20
-4.681893 2.940693 19.346666 26 21 38
-4.643828 2.941091 19.349281 16 21 31
-4.605476 2.941312 19.350739 29 23 39
-4.566617 2.941211 19.350073 30 35 40
-4.527514 2.940949 19.348349 30 35 40
-4.488514 2.940751 19.347044 30 35 40
-4.449604 2.940608 19.346106 30 35 40
-4.411262 2.940841 19.347639 30 35 40
-4.373190 2.941260 19.350397 30 35 40
-4.335509 2.941953 19.354952 30 35 40
-4.297874 2.942688 19.359791 41 41 25
-4.259851 2.943170 19.362959 27 40 21
-4.223575 2.944878 19.374199 30 43 36
-4.187625 2.946847 19.387154 120 120 120
-4.152209 2.949232 19.402845 120 120 120
-4.117317 2.952039 19.421309 120 120 120
-4.081055 2.953907 19.433596 23 42 31
-4.045406 2.956258 19.449068 19 32 27
-4.008301 2.957582 19.457773 15 41 42
-3.971179 2.958918 19.466564 16 37 31
-3.935518 2.961380 19.482761 21 16 23
-3.899203 2.963394 19.496016 16 23 19
-3.863597 2.965993 19.513115 30 17 25
-3.826536 2.967518 19.523144 35 37 28
-3.789520 2.969109 19.533609 25 26 41
-3.753703 2.971682 19.550537 27 38 27
-3.717062 2.973649 19.563482 34 23 18
-3.682432 2.977285 19.587402 38 31 39
-3.647167 2.980480 19.608423 41 22 38
-3.612237 2.984022 19.631725 34 17 24
-3.578134 2.988332 19.660078 31 17 40
-3.542124 2.991127 19.678465 40 38 15
-3.508632 2.996136 19.711418 40 37 36
-3.474378 3.000599 19.740784 20 22 35
-3.440178 3.005213 19.771135 17 28 23
-3.406791 3.010653 19.806925 23 39 18
-3.370903 3.013983 19.828838 16 19 19
-3.336578 3.018809 19.860584 43 26 43
-3.300650 3.022282 19.883434 15 22 43
-3.264608 3.025734 19.906147 27 36 24
-3.230103 3.030714 19.938910 24 25 26
-3.193939 3.034242 19.962120 24 43 21
-3.158944 3.038984 19.993317 44 24 20
-3.122069 3.042016 20.013262 36 36 27
-3.085149 3.045082 20.033434 24 40 19
-3.049783 3.049783 20.064363 38 26 43
-3.013070 3.053244 20.087132 21 25 34
-2.978612 3.059115 20.125753 21 22 38
-2.943257 3.064213 20.159294 25 30 22
-2.907765 3.069307 20.192810 35 42 40
-2.872814 3.075125 20.231083 16 21 21
-2.835458 3.078497 20.253273 43 38 30
-2.799524 3.083534 20.286406 17 18 39
-2.762524 3.087527 20.312675 30 35 30
-2.725071 3.091125 20.336349 40 15 44
-2.688279 3.095594 20.365749 27 40 28
-2.649834 3.098267 20.383337 42 28 36
-2.611169 3.100763 20.399759 25 36 30
-2.570991 3.101513 20.404692 41 16 20
-6.448296 2.853556 18.529587 44 35 35
-6.414906 2.855190 18.540192 42 33 34
-6.381274 2.856733 18.550215 22 24 43
-6.348728 2.858784 18.563532 39 19 20
-6.314516 2.860105 18.572107 18 41 20
-6.282586 2.862480 18.587534 28 37 41
-6.249726 2.864458 18.600376 20 23 43
-6.217491 2.866748 18.615244 20 23 38
-6.186979 2.869864 18.635479 31 41 16
-6.154529 2.872113 18.650087 31 17 21
-6.124995 2.875760 18.673765 22 24 40
-6.093861 2.878695 18.692825 21 18 34
-6.062955 2.881775 18.712824 22 15 25
-6.033836 2.885748 18.738623 44 19 16
-6.001856 2.888393 18.755800 24 16 31
-5.972621 2.892402 18.781828 17 19 42
-5.941721 2.895649 18.802914 31 21 19
-5.910118 2.898593 18.822033 36 25 32
-5.879261 2.901943 18.843784 28 25 31
-5.845215 2.903752 18.855532 35 44 44
-5.812111 2.906056 18.870491 36 34 40
-5.776804 2.907280 18.878445 31 28 35
-5.741747 2.908648 18.887325 43 32 36
-5.709324 2.911377 18.905046 32 26 43
-5.676100 2.913731 18.920334 15 28 38
-5.645596 2.917523 18.944952 18 33 41
-5.613531 2.920553 18.964632 40 16 35
-5.581696 2.923746 18.985361 39 38 29
-5.551435 2.927812 19.011765 24 32 19
-5.518472 2.930499 19.029215 24 25 15
-5.487990 2.934550 19.055521 34 17 39
-5.455737 2.937705 19.076004 33 33 34
-5.423155 2.940725 19.095615 38 25 31
-5.391911 2.944519 19.120253 36 31 35
-5.357963 2.946880 19.135582 21 15 18
-5.325608 2.950157 19.156862 36 26 37
-5.291566 2.952540 19.172340 22 15 27
-5.256955 2.954639 19.185968 34 40 15
-5.223237 2.957274 19.203075 38 25 39
-5.187541 2.958820 19.213114 18 29 28
-5.153244 2.961192 19.228521 38 31 38
-5.118341 2.963250 19.241882 42 37 27
-5.082746 2.964935 19.252825 27 39 29
-5.046965 2.966537 19.263226 20 29 35
-5.009413 2.967114 19.266972 33 30 16
-4.971625 2.967559 19.269863 35 16 42
-4.933013 2.967516 19.269583 34 39 23
-4.894255 2.967383 19.268721 21 15 33
-4.856242 2.967704 19.270803 29 17 28
-4.818387 2.968126 19.273546 19 40 28
-4.781208 2.968976 19.279064 35 30 18
-4.744018 2.969832 19.284626 43 38 22
-4.706787 2.970677 19.290110 21 29 23
-4.669520 2.971513 19.295538 35 26 40
-4.631564 2.971920 19.298183 40 42 27
-4.593330 2.972155 19.299706 16 38 38
-4.554578 2.972055 19.299059 24 39 36
-4.515599 2.971805 19.297432 30 35 40
-4.476753 2.971638 19.296349 30 35 40
-4.438003 2.971533 19.295666 30 35 40
-4.399847 2.971826 19.297573 30 35 40
-4.361973 2.972318 19.300764 30 35 40
-4.324456 2.973063 19.305605 33 39 40
-4.286937 2.973821 19.310526 33 41 30
-4.248982 2.974287 19.313555 30 18 42
-4.212741 2.975973 19.324501 37 37 44
-4.176857 2.977944 19.337301 120 120 120
-4.141459 2.980302 19.352613 120 120 120
-4.106502 2.983025 19.370293 120 120 120
-4.070188 2.984804 19.381847 22 44 20
-4.034376 2.986990 19.396038 19 24 24
-3.997085 2.988112 19.403324 39 26 42
-3.959880 2.989321 19.411175 20 17 18
-3.924345 2.991827 19.427448 17 43 25
-3.888334 2.994017 19.441671 31 38 36
-3.852963 2.996749 19.459408 23 19 28
-3.815963 2.998257 19.469200 35 31 42
-3.778994 2.999820 19.479351 16 35 31
-3.743307 3.002444 19.496391 40 34 25
-3.706831 3.004484 19.509638 38 37 41
-3.672416 3.008256 19.534128 32 34 28
-3.637376 3.011591 19.555784 28 15 17
-3.602641 3.015254 19.579569 31 16 23
-3.568663 3.019638 19.608036 18 23 27
-3.532709 3.022429 19.626160 41 33 26
-3.499238 3.027430 19.658638 34 28 25
-3.465011 3.031885 19.687563 40 25 28
-3.430843 3.036493 19.717489 19 26 42
-3.397492 3.041941 19.752863 36 18 32
-3.361675 3.045282 19.774561 17 23 16
-3.327458 3.050169 19.806295 40 31 33
-3.291669 3.053717 19.829330 21 36 26
-3.255786 3.057263 19.852354 22 29 40
-3.221431 3.062348 19.885378 15 36 40
-3.185400 3.065948 19.908751 22 40 22
-3.150518 3.070758 19.939985 34 42 31
-3.113732 3.073813 19.959824 35 16 42
-3.076884 3.076884 19.979765 22 33 42
-3.041591 3.081612 20.010466 19 34 16
-3.004963 3.085095 20.033087 39 39 39
-2.970548 3.090976 20.071270 26 32 23
-2.935219 3.096053 20.104240 39 35 21
-2.899767 3.101140 20.137270 31 37 21
-2.864885 3.106988 20.175249 39 29 43
-2.827642 3.110406 20.197443 26 30 40
-2.791832 3.115522 20.230665 23 24 39
-2.755041 3.119679 20.257654 29 40 24
-2.717671 3.123294 20.281128 41 23 16
-2.680661 3.127438 20.308037 27 15 44
-2.641905 3.129641 20.322346 19 27 25
-2.602963 3.131690 20.335648 33 41 19
-6.397982 2.884639 18.491278 22 29 36
-6.364533 2.886242 18.501549 36 30 21
-6.331886 2.888229 18.514288 31 41 32
-6.297398 2.889394 18.521759 28 21 22
-6.265302 2.891678 18.536396 20 21 40
-6.232566 2.893692 18.549305 15 31 22
-6.200510 2.896046 18.564400 34 21 32
-6.169986 2.899150 18.584295 32 19 41
-6.137474 2.901351 18.598406 41 17 30
-6.107956 2.905003 18.621817 36 39 27
-6.076935 2.907981 18.640905 31 17 34
-6.046266 2.911165 18.661314 41 37 43
-6.017505 2.915313 18.687902 27 39 43
-5.985893 2.918123 18.705915 15 22 32
-5.957094 2.922348 18.733000 23 23 35
-5.926546 2.925763 18.754892 30 43 42
-5.895197 2.928824 18.774513 16 21 37
-5.864456 2.932228 18.796333 36 40 39
-5.830376 2.933995 18.807663 29 20 39
-5.797400 2.936345 18.822727 18 18 38
-5.762421 2.937705 18.831440 34 32 34
-5.727686 2.939207 18.841072 27 40 44
-5.695423 2.942007 18.859016 37 31 15
-5.662212 2.944350 18.874041 16 21 26
-5.631631 2.948102 18.898092 38 36 27
-5.599483 2.951079 18.917171 28 24 39
-5.567556 2.954213 18.937265 24 43 32
-5.537228 2.958245 18.963110 31 23 26
-5.504287 2.960927 18.980301 26 29 44
-5.473841 2.964997 19.006392 17 43 16
-5.441679 2.968189 19.026850 34 39 24
-5.409207 2.971255 19.046505 17 28 37
-5.378051 2.975092 19.071104 42 36 19
-5.344182 2.977473 19.086363 31 25 42
-5.311891 2.980773 19.107521 18 24 25
-5.277927 2.983176 19.122923 32 34 27
-5.243377 2.985281 19.136414 31 41 40
-5.209698 2.987915 19.153301 30 39 43
-5.174059 2.989456 19.163181 37 43 15
-5.139785 2.991815 19.178303 25 15 37
-5.104916 2.993861 19.191414 22 32 19
-5.069365 2.995534 19.202141 25 17 20
-5.033626 2.997121 19.212315 19 16 32
-4.996149 2.997690 19.215960 29 30 24
-4.958458 2.998137 19.218830 44 25 16
-4.919980 2.998113 19.218672 34 44 44
-4.881361 2.998002 19.217958 20 23 40
-4.843477 2.998343 19.220148 36 16 38
-4.805737 2.998780 19.222946 43 33 25
-4.768642 2.999630 19.228395 22 19 37
-4.731514 3.000472 19.233795 36 36 26
-4.694338 3.001298 19.239090 27 18 22
-4.657146 3.002127 19.244404 43 31 30
-4.619286 3.002536 19.247025 28 25 41
-4.581134 3.002760 19.248463 33 41 21
-4.542452 3.002638 19.247679 25 40 25
-4.503552 3.002368 19.245951 32 42 19
-4.464801 3.002194 19.244833 35 36 16
-4.426169 3.002098 19.244215 30 35 40
-4.388136 3.002409 19.246212 17 30 42
-4.350392 3.002926 19.249523 21 19 33
-4.312988 3.003688 19.254412 33 44 34
-4.275539 3.004433 19.259186 32 28 35
-4.237639 3.004871 19.261993 44 23 44
-4.201431 3.006528 19.272617 28 42 42
-4.165614 3.008499 19.285252 120 120 120
-4.130257 3.010842 19.300268 120 120 120
-4.095274 3.013504 19.317331 120 120 120
-4.058946 3.015217 19.328316 26 22 41
-4.023026 3.017269 19.341469 26 22 32
-3.985587 3.018212 19.347511 33 33 25
-3.948332 3.019313 19.354568 29 43 22
-3.912945 3.021878 19.371016 39 21 30
-3.877245 3.024251 19.386223 26 35 36
-3.842195 3.027184 19.405024 40 21 43
-3.805398 3.028786 19.415297 31 36 24
-3.768622 3.030438 19.425884 25 22 39
-3.733179 3.033208 19.443640 38 33 23
-3.696911 3.035358 19.457424 22 28 18
-3.662746 3.039300 19.482691 32 31 15
-3.627946 3.042794 19.505087 16 40 26
-3.593411 3.046588 19.529408 18 34 29
-3.559586 3.051074 19.558167 44 25 17
-3.523713 3.053885 19.576185 17 21 22
-3.490289 3.058905 19.608364 16 33 28
-3.456101 3.063363 19.636940 16 24 40
-3.421969 3.067972 19.666489 41 20 40
-3.388667 3.073442 19.701553 32 26 42
-3.352931 3.076808 19.723125 22 43 17
-3.318840 3.081780 19.754997 41 32 42
-3.283215 3.085431 19.778402 17 42 41
-3.247504 3.089089 19.801851 31 19 21
-3.213286 3.094275 19.835098 18 35 39
-3.177354 3.097920 19.858463 26 40 19
-3.142530 3.102751 19.889431 22 42 23
-3.105793 3.105793 19.908928 40 27 18
-3.068964 3.108821 19.928337 42 32 35
-3.033672 3.113505 19.958366 15 37 19
-2.997073 3.116956 19.980486 36 26 18
-2.962618 3.122759 20.017689 16 20 24
-2.927249 3.127745 20.049650 30 40 22
-2.891773 3.132754 20.081758 30 26 17
-2.856898 3.138565 20.119003 44 30 43
-2.819741 3.141997 20.141005 27 39 26
-2.784022 3.147155 20.174072 38 41 19
-2.747416 3.151448 20.201591 38 43 41
-2.710123 3.155069 20.224798 20 18 40
-2.672892 3.158873 20.249186 18 44 37
-2.633837 3.160604 20.260284 24 43 40
-6.375480 2.911346 18.426243 30 17 27
-6.342778 2.913252 18.438307 33 29 38
-6.310244 2.915259 18.451006 29 26 43
-6.275405 2.916218 18.457073 43 38 25
-6.243095 2.918370 18.470695 19 43 25
-6.210542 2.920434 18.483757 28 30 27
-6.178720 2.922868 18.499163 29 22 19
-6.148230 2.925965 18.518764 18 17 35
-6.115678 2.928112 18.532356 28 39 30
-6.086166 2.931751 18.555384 36 22 34
-6.055225 2.934741 18.574310 36 27 35
-6.024758 2.937999 18.594933 26 43 25
-5.996334 2.942301 18.622156 20 26 19
-5.965109 2.945273 18.640966 19 24 38
-5.936720 2.949691 18.668932 34 25 15
-5.906474 2.953237 18.691374 44 24 25
-5.875351 2.956387 18.711309 20 16 30
-5.844795 2.959864 18.733318 19 22 44
-5.810812 2.961640 18.744556 29 33 35
-5.778079 2.964080 18.759998 37 29 23
-5.743488 2.965592 18.769567 32 40 32
-5.709106 2.967233 18.779953 28 27 43
-5.677024 2.970099 18.798092 22 39 42
-5.643836 2.972420 18.812786 18 34 16
-5.613150 2.976100 18.836073 39 17 39
-5.580888 2.978987 18.854351 44 21 34
-5.548830 2.982024 18.873571 19 31 28
-5.518383 2.985974 18.898571 24 39 22
-5.485449 2.988624 18.915340 23 29 41
-5.455024 2.992687 18.941055 21 19 20
-5.422967 2.995905 18.961422 28 40 20
-5.390628 2.999011 18.981085 19 26 29
-5.359551 3.002869 19.005499 36 32 38
-5.325764 3.005253 19.020586 23 21 34
-5.293511 3.008542 19.041405 25 28 42
-5.259589 3.010924 19.056480 44 27 44
-5.225075 3.013000 19.069618 36 36 40
-5.191419 3.015603 19.086098 43 29 40
-5.155837 3.017120 19.095694 17 32 28
-5.121579 3.019439 19.110371 39 39 20
-5.086734 3.021443 19.123058 19 20 39
-5.051226 3.023082 19.133432 23 42 17
-5.015536 3.024636 19.143269 42 32 23
-4.978160 3.025189 19.146769 31 20 27
-4.940619 3.025651 19.149687 21 42 18
-4.902336 3.025660 19.149750 39 35 25
-4.863931 3.025595 19.149336 16 16 26
-4.826241 3.025976 19.151749 36 30 29
-4.788664 3.026436 19.154657 18 17 35
-4.751712 3.027300 19.160130 15 31 20
-4.714696 3.028138 19.165430 29 23 39
-4.677631 3.028958 19.170618 27 41 40
-4.640577 3.029798 19.175940 30 40 34
-4.602876 3.030227 19.178652 23 36 34
-4.564860 3.030453 19.180084 34 32 39
-4.526287 3.030311 19.179184 19 27 31
-4.487495 3.030018 19.177328 39 35 22
-4.448876 3.029838 19.176189 26 42 32
-4.410394 3.029749 19.175627 27 30 15
-4.372529 3.030086 19.177759 43 34 22
-4.334966 3.030640 19.181265 28 24 33
-4.297724 3.031431 19.186270 44 19 30
-4.260391 3.032170 19.190952 33 31 22
-4.222579 3.032579 19.193541 36 21 41
-4.186452 3.034217 19.203907 29 15 38
-4.150761 3.036205 19.216486 120 120 120
-4.115504 3.038549 19.231325 120 120 120
-4.080559 3.041171 19.247919 120 120 120
-4.044265 3.042828 19.258406 44 15 37
-4.008303 3.044769 19.270689 42 15 20
-3.970815 3.045577 19.275803 24 25 26
-3.933562 3.046582 19.282166 18 38 37
-3.898244 3.049121 19.298237 20 35 40
-3.862716 3.051545 19.313578 39 40 44
-3.827964 3.054638 19.333153 42 31 29
-3.791531 3.056438 19.344545 40 40 25
-3.755128 3.058300 19.356329 34 40 32
-3.719989 3.061241 19.374943 23 34 16
-3.683900 3.063454 19.388948 32 39 36
-3.649959 3.067519 19.414675 44 29 28
-3.615395 3.071142 19.437607 24 15 28
-3.581060 3.075040 19.462280 26 44 16
-3.547391 3.079603 19.491159 31 22 39
-3.511619 3.082422 19.508997 38 22 36
-3.478260 3.087444 19.540787 42 44 43
-3.444128 3.091887 19.568907 15 37 16
-3.410067 3.096497 19.598083 29 39 24
-3.376866 3.102005 19.632940 41 15 17
-3.341276 3.105421 19.654562 34 17 36
-3.307400 3.110531 19.686905 40 35 32
-3.272032 3.114344 19.711039 19 19 43
-3.236583 3.118171 19.735262 43 19 17
-3.202592 3.123516 19.769087 24 23 35
-3.166821 3.127235 19.792629 27 28 22
-3.132130 3.132130 19.823608 17 24 18
-3.095503 3.135189 19.842968 15 26 26
-3.058751 3.138200 19.862022 19 23 23
-3.023519 3.142869 19.891575 19 25 19
-2.986995 3.146302 19.913301 31 42 18
-2.952535 3.152031 19.949562 43 41 43
-2.917145 3.156910 19.980442 17 34 18
-2.881658 3.161820 20.011517 24 40 32
-2.846805 3.167572 20.047924 28 35 22
-2.809752 3.171006 20.069658 22 35 27
-2.774143 3.176193 20.102488 26 31 18
-2.737755 3.180627 20.130548 20 33 38
-2.700560 3.184243 20.153435 35 37 20
-2.663100 3.187650 20.174997 36 26 30
-2.623725 3.188835 20.182497 39 24 35
-6.328296 2.943394 18.396210 26 22 36
-6.295990 2.945493 18.409328 27 38 19
-6.260876 2.946295 18.414341 21 36 29
-6.228414 2.948362 18.427261 20 28 38
-6.196004 2.950478 18.440487 34 26 23
-6.164366 2.952990 18.456184 29 40 26
-6.133929 2.956110 18.475689 18 36 44
-6.101377 2.958243 18.489021 31 19 38
-6.071868 2.961887 18.511793 40 18 32
-6.040953 2.964885 18.530531 16 37 17
-6.010571 2.968183 18.551146 17 43 22
-5.982333 2.972588 18.578672 28 32 32
-5.951340 2.975670 18.597939 20 36 29
-5.923162 2.980208 18.626297 21 23 42
