ply
format ascii 1.0
element vertex 1289
property float x
property float y
property float z
property uchar red
property uchar green
property uchar blue
end_header
7.491232 1.567932 29.035782 31 18 27
7.544648 1.566965 29.017876 42 40 25
7.596025 1.565593 28.992460 17 15 35
7.649470 1.564664 28.975266 17 25 44
7.702508 1.563667 28.956799 27 22 16
7.752915 1.562155 28.928789 28 27 28
7.805096 1.561019 28.907763 36 42 24
7.854269 1.559303 28.875988 42 21 18
7.905218 1.557963 28.851162 20 28 32
7.956284 1.556664 28.827116 22 17 36
8.005365 1.554999 28.796278 16 38 23
8.057407 1.553928 28.776453 37 25 36
8.108905 1.552769 28.754984 29 40 41
8.163155 1.552149 28.743504 18 28 37
8.218828 1.551807 28.737162 26 38 21
8.273741 1.551326 28.728268 20 17 18
8.330079 1.551118 28.724411 15 33 34
8.385324 1.550711 28.716862 18 18 20
8.441588 1.550496 28.712885 24 30 41
8.496273 1.549996 28.703625 17 41 26
8.547717 1.548915 28.683615 36 32 38
8.599247 1.547865 28.664158 39 23 28
8.645667 1.545914 28.628036 17 30 42
8.693372 1.544217 28.596619 35 36 27
8.739634 1.542288 28.560896 44 22 43
8.782962 1.539870 28.516109 37 21 36
8.830612 1.538236 28.485844 29 34 30
8.872636 1.535648 28.437935 44 26 28
8.917417 1.533569 28.399418 18 33 22
8.962044 1.531489 28.360899 25 39 43
9.004347 1.529040 28.315556 36 41 18
9.052377 1.527589 28.288679 44 16 28
9.091382 1.524642 28.234106 41 39 33
9.132791 1.522132 28.187628 19 38 41
9.169892 1.518939 28.128504 41 42 24
9.198216 1.514340 28.043341 26 35 35
9.232659 1.510799 27.977755 26 16 31
9.254437 1.505240 27.874809 36 36 40
9.282683 1.500793 27.792465 43 36 16
5.599996 1.742221 31.111092 30 38 27
5.637258 1.734541 30.973946 40 26 22
5.683264 1.729689 30.887306 26 31 39
5.731993 1.725761 30.817167 21 23 32
5.775727 1.720429 30.721954 20 26 16
5.826216 1.717201 30.664295 18 15 35
5.872130 1.712705 30.584009 25 35 44
5.922947 1.709717 30.530655 17 36 31
5.973260 1.706646 30.475815 26 44 29
6.017708 1.701978 30.392464 22 27 32
6.066199 1.698536 30.330994 19 17 34
6.106339 1.692846 30.229401 28 43 41
6.150399 1.688345 30.149015 17 31 37
6.192455 1.683386 30.060463 29 26 33
6.227921 1.676748 29.941929 22 24 28
6.270362 1.672096 29.858866 120 120 120
6.302863 1.664907 29.730488 120 120 120
6.339854 1.659027 29.625488 120 120 120
6.378042 1.653566 29.527973 18 44 28
6.412399 1.647222 29.414673 25 29 20
6.456950 1.643587 29.349771 17 25 18
6.500318 1.639720 29.280710 39 24 33
6.549830 1.637458 29.240313 16 36 44
6.604792 1.636586 29.224743 40 30 28
6.661195 1.636083 29.215767 34 40 25
6.722229 1.636717 29.227081 29 16 36
6.781574 1.636932 29.230921 44 29 27
6.839285 1.636752 29.227713 21 19 15
6.894885 1.636074 29.215612 24 30 42
6.948256 1.634884 29.194351 39 36 39
7.001716 1.633734 29.173817 34 15 33
7.050706 1.631568 29.135149 27 36 20
7.100030 1.629515 29.098482 43 17 35
7.149094 1.627436 29.061357 37 35 19
7.197419 1.625224 29.021851 16 29 24
7.250060 1.624013 29.000238 43 33 39
7.301660 1.622591 28.974840 37 29 19
7.356166 1.621832 28.961283 43 27 25
7.411149 1.621189 28.949800 18 37 35
7.463411 1.619965 28.927950 38 40 24
7.516820 1.619007 28.910847 30 25 40
7.568193 1.617629 28.886234 41 37 28
7.621500 1.616682 28.869318 23 20 22
7.674409 1.615665 28.851162 25 28 26
7.724852 1.614148 28.824076 17 32 42
7.777060 1.613020 28.803925 32 38 40
7.826449 1.611328 28.773708 20 22 32
7.877635 1.610028 28.750494 30 20 26
7.928890 1.608760 28.727861 40 21 36
7.978061 1.607091 28.698061 20 16 29
8.029958 1.605992 28.678421 16 16 15
8.081158 1.604769 28.656588 31 34 21
8.135064 1.604097 28.644592 28 16 40
8.190210 1.603678 28.637098 21 42 18
8.244356 1.603069 28.626236 29 31 33
8.299952 1.602749 28.620525 44 40 16
8.354448 1.602223 28.611124 25 37 40
8.410274 1.601957 28.606373 24 19 33
8.464647 1.601420 28.596781 23 22 37
8.515626 1.600252 28.575928 23 25 18
8.566764 1.599129 28.555880 36 37 24
8.613082 1.597128 28.520138 21 37 35
8.660974 1.595443 28.490047 34 38 40
8.707527 1.593534 28.455971 29 38 17
8.751072 1.591104 28.412573 23 25 33
8.798726 1.589447 28.382986 40 40 33
8.840682 1.586789 28.335518 32 33 43
8.885410 1.584659 28.297485 29 18 33
8.929672 1.582474 28.258457 43 40 44
8.970969 1.579793 28.210594 44 26 27
9.017781 1.578112 28.180567 29 20 43
9.056363 1.575020 28.125351 42 24 23
9.098521 1.572584 28.081854 22 25 42
9.136515 1.569463 28.026119 23 15 18
9.164958 1.564749 27.941946 27 25 29
9.198897 1.561025 27.875446 18 18 38
9.219429 1.555084 27.769365 31 28 21
9.246119 1.550247 27.682991 27 39 36
9.272543 1.545424 27.596853 44 27 33
5.513323 1.796476 30.973726 20 41 17
5.554687 1.789844 30.859371 39 23 19
5.591627 1.781947 30.723225 40 15 22
5.637836 1.777144 30.640413 29 24 23
5.687582 1.773547 30.578396 25 18 22
5.732900 1.768661 30.494148 25 31 43
5.784697 1.765855 30.445776 21 17 25
5.833059 1.762070 30.380516 17 16 43
5.886218 1.759797 30.341331 41 43 42
5.938373 1.757274 30.297819 17 20 37
5.983737 1.752812 30.220892 16 41 27
6.031578 1.749158 30.157890 22 39 38
6.072129 1.743483 30.060045 26 31 22
6.117363 1.739250 29.987076 17 34 17
6.160880 1.734617 29.907183 34 24 17
6.197882 1.728255 29.797508 27 15 17
6.241129 1.723740 29.719662 120 120 120
6.274092 1.716497 29.594772 120 120 120
6.310711 1.710379 29.489302 120 120 120
6.348174 1.704602 29.389692 28 38 31
6.382202 1.698017 29.276155 34 21 40
6.426572 1.694278 29.211693 42 40 40
6.469687 1.690279 29.142736 18 18 28
6.518994 1.687954 29.102650 15 44 17
6.573484 1.687000 29.086214 34 16 19
6.629079 1.686345 29.074909 32 28 25
6.689229 1.686849 29.083605 31 42 31
6.746704 1.686676 29.080622 20 43 40
6.802024 1.685972 29.068480 26 28 38
6.855566 1.684842 29.049007 34 18 32
6.907944 1.683449 29.024975 42 39 43
6.961666 1.682403 29.006941 41 40 31
7.011245 1.680381 28.972086 28 20 35
7.060969 1.678427 28.938398 16 35 16
7.110507 1.676461 28.904501 41 43 43
7.159353 1.674365 28.868361 21 18 29
7.212159 1.673221 28.848637 42 34 29
7.264110 1.671898 28.825834 41 25 21
7.318790 1.671220 28.814133 39 34 18
7.373899 1.670649 28.804293 42 16 31
7.426431 1.669508 28.784616 16 40 26
7.479908 1.668595 28.768877 35 34 30
7.531437 1.667265 28.745941 38 31 32
7.584702 1.666336 28.729933 40 43 37
7.637556 1.665332 28.712616 17 38 16
7.688114 1.663845 28.686991 15 24 41
7.740375 1.662747 28.668055 33 22 17
7.789895 1.661080 28.639318 36 17 37
7.841089 1.659793 28.617113 42 30 37
7.892260 1.658518 28.595144 17 37 34
7.941358 1.656830 28.566034 39 40 18
7.993064 1.655706 28.546656 29 29 21
8.043860 1.654411 28.524326 21 35 39
8.097261 1.653666 28.511484 15 19 19
8.151730 1.653148 28.502554 36 44 29
8.204996 1.652395 28.489569 21 41 30
8.259806 1.651961 28.482090 34 23 35
8.313524 1.651316 28.470972 17 34 38
8.368899 1.651007 28.465643 31 15 18
8.422888 1.650431 28.455704 32 40 30
8.473233 1.649153 28.433666 35 41 44
8.523764 1.647928 28.412546 37 39 41
8.569540 1.645806 28.375959 15 27 42
8.617140 1.644060 28.345856 26 28 18
8.663453 1.642092 28.311939 43 27 29
8.706607 1.639556 28.268204 44 21 32
8.753830 1.637813 28.238161 28 21 37
8.795223 1.635009 28.189817 41 16 18
8.839441 1.632763 28.151087 25 37 21
8.883091 1.630441 28.111048 32 26 19
8.923335 1.627526 28.060801 16 43 35
8.969105 1.625650 28.028452 36 19 30
9.007547 1.622477 27.973749 15 24 42
9.050532 1.620157 27.933741 17 21 38
9.089714 1.617188 27.882557 25 15 20
9.119158 1.612534 27.802311 39 27 19
9.153493 1.608796 27.737858 31 24 31
9.173548 1.602608 27.631168 41 40 23
9.198831 1.597402 27.541410 21 43 20
9.223521 1.592155 27.450956 38 38 33
9.242315 1.585959 27.344128 39 41 26
5.483192 1.848267 30.804447 43 21 44
5.525052 1.841684 30.694735 22 21 42
5.562972 1.833947 30.565781 38 38 32
5.609832 1.829293 30.488216 24 22 42
5.660438 1.825948 30.432463 19 25 19
5.706982 1.821377 30.356285 32 22 29
5.759586 1.818816 30.313608 24 32 42
5.809422 1.815444 30.257406 20 23 43
5.864158 1.813657 30.227617 33 42 41
5.917297 1.811418 30.190292 43 29 42
5.962492 1.806816 30.113596 19 17 24
6.009032 1.802710 30.045160 44 26 28
6.048712 1.796647 29.944120 28 40 40
6.093874 1.792316 29.871929 40 15 20
6.137696 1.787678 29.794640 17 29 27
6.175129 1.781287 29.688118 43 33 18
6.218742 1.776783 29.613056 120 120 120
6.251696 1.769348 29.489132 120 120 120
6.287624 1.762885 29.381420 120 120 120
6.324403 1.756779 29.279642 30 32 15
6.358475 1.750039 29.167315 24 16 21
6.403286 1.746351 29.105844 41 31 36
6.446764 1.742369 29.039476 29 39 23
6.496167 1.740045 29.000746 32 27 29
6.550358 1.739033 28.983887 42 36 17
6.605136 1.738194 28.969896 18 21 29
6.664219 1.738492 28.974867 35 33 25
6.720601 1.738087 28.968109 41 16 43
6.775180 1.737226 28.953760 18 34 41
6.828341 1.736019 28.933647 24 16 27
6.880615 1.734609 28.910147 17 18 19
6.934523 1.733631 28.893847 38 32 23
6.984516 1.731698 28.861637 24 34 41
7.034531 1.729803 28.830046 21 41 28
7.084380 1.727898 28.798292 23 16 18
7.133604 1.725872 28.764534 17 24 26
7.186546 1.724771 28.746183 40 22 17
7.238770 1.723517 28.725277 39 39 15
7.293601 1.722898 28.714966 21 31 42
7.348831 1.722382 28.706371 39 33 15
7.401588 1.721300 28.688326 23 39 36
7.455141 1.720417 28.673620 21 30 18
7.506781 1.719110 28.651834 33 31 38
7.560031 1.718189 28.636480 28 32 24
7.612831 1.717180 28.619665 24 16 43
7.663449 1.715697 28.594957 23 39 22
7.715699 1.714600 28.576664 39 16 17
7.765192 1.712910 28.548500 18 20 41
7.816218 1.711581 28.526342 19 17 38
7.867201 1.710261 28.504353 17 30 16
7.916320 1.708558 28.475971 23 22 25
7.968081 1.707446 28.457432 44 41 32
8.018739 1.706115 28.435244 30 44 36
8.071773 1.705304 28.421736 29 36 32
8.125715 1.704696 28.411592 23 29 17
8.178426 1.703839 28.397314 19 29 42
8.232767 1.703331 28.388853 26 24 16
8.286023 1.702607 28.376791 32 42 18
8.341146 1.702275 28.371246 43 39 36
8.394877 1.701664 28.361073 40 17 24
8.444789 1.700293 28.338217 17 26 23
8.494872 1.698974 28.316238 38 29 36
8.540106 1.696710 28.278496 21 20 32
8.587272 1.694856 28.247604 41 30 43
8.633137 1.692772 28.212866 43 31 19
8.675757 1.690083 28.168043 25 39 18
8.722548 1.688235 28.137251 29 35 17
8.763362 1.685262 28.087700 24 15 30
8.807059 1.682878 28.047958 25 39 44
8.850176 1.680413 28.006887 42 19 24
8.889658 1.677294 27.954899 39 22 15
8.934741 1.675264 27.921064 41 28 15
8.973312 1.672046 27.867430 33 39 36
9.017105 1.669834 27.830572 26 18 35
9.057528 1.667030 27.783829 39 30 38
9.088414 1.662515 27.708578 38 19 37
9.123722 1.658859 27.647642 22 17 20
9.144144 1.652556 27.542603 26 22 43
9.168842 1.647097 27.451624 30 39 44
9.192446 1.641508 27.358469 23 22 42
9.210276 1.634960 27.249338 36 42 21
5.409400 1.905584 30.735226 38 16 29
5.441423 1.895327 30.569794 31 25 34
5.483996 1.888932 30.466646 38 32 37
5.523178 1.881522 30.347130 26 35 31
5.570807 1.877120 30.276127 40 43 21
5.622365 1.874122 30.227770 18 25 44
5.670404 1.870027 30.161724 24 42 32
5.724011 1.867835 30.126375 39 43 24
5.775053 1.864861 30.078403 35 29 28
5.830534 1.863366 30.054296 32 22 43
5.883781 1.861196 30.019289 27 37 44
5.928473 1.856390 29.941782 32 24 20
5.973862 1.851897 29.869308 26 22 43
6.012588 1.845448 29.765289 30 38 33
6.057201 1.840914 29.692163 34 22 37
6.100938 1.836205 29.616205 25 24 36
6.138878 1.829858 29.513838 35 32 27
6.183217 1.825521 29.443892 120 120 120
6.216574 1.818055 29.323462 120 120 120
6.252000 1.811327 29.214954 120 120 120
6.288171 1.804938 29.111902 39 44 26
6.322319 1.798091 29.001465 24 33 16
6.367445 1.794462 28.942932 28 35 20
6.411411 1.790574 28.880228 37 28 29
6.461297 1.788395 28.845076 28 29 42
6.515492 1.787436 28.829611 18 39 42
6.569359 1.786405 28.812977 21 19 24
6.626944 1.786394 28.812799 43 16 36
6.681996 1.785706 28.801706 39 21 40
6.735896 1.784725 28.785881 43 39 32
6.788846 1.783510 28.766296 24 38 32
6.841111 1.782138 28.744165 22 27 40
6.895203 1.781261 28.730013 32 22 41
6.945728 1.779484 28.701357 29 43 26
6.996163 1.777713 28.672798 16 43 31
7.046447 1.775934 28.644094 43 28 42
7.096185 1.774046 28.613649 22 17 32
7.149289 1.773024 28.597155 42 16 28
7.201876 1.771890 28.578873 15 27 34
7.256904 1.771370 28.570490 17 26 21
7.312281 1.770943 28.563597 18 16 30
7.365313 1.769959 28.547724 21 28 15
7.418931 1.769130 28.534351 32 30 39
7.470704 1.767877 28.514137 25 39 25
7.523900 1.766977 28.499622 43 18 33
7.576618 1.765979 28.483526 33 31 42
7.627329 1.764531 28.460182 17 17 18
7.679604 1.763465 28.442976 42 41 24
7.729120 1.761785 28.415882 39 32 31
7.779951 1.760427 28.393982 34 19 39
7.830748 1.759081 28.372276 17 30 24
7.879932 1.757395 28.345079 42 16 27
7.931795 1.756326 28.327841 39 28 37
7.982317 1.754978 28.306089 40 28 24
8.034924 1.754103 28.291985 19 34 39
8.088220 1.753390 28.280491 43 32 44
8.140175 1.752399 28.264498 37 32 25
8.193836 1.751786 28.254608 16 42 21
8.246361 1.750940 28.240961 41 42 31
8.301027 1.750557 28.234787 38 43 19
8.354286 1.749884 28.223940 35 22 37
8.403429 1.748364 28.199427 32 40 44
8.452768 1.746905 28.175894 22 25 33
8.497077 1.744433 28.136017 21 31 40
8.543541 1.742433 28.103754 27 23 33
8.588641 1.740182 28.067453 22 28 33
8.630196 1.737247 28.020117 15 33 42
8.676073 1.735215 27.987333 38 15 15
8.715579 1.731942 27.934549 27 34 42
8.758103 1.729307 27.892048 20 19 24
8.800039 1.726590 27.848225 42 44 17
8.838028 1.723138 27.792542 28 20 30
8.881962 1.720880 27.756130 17 42 24
8.919921 1.717500 27.701618 26 26 30
8.963417 1.715222 27.664867 32 22 27
9.004582 1.712528 27.621418 34 15 41
9.037705 1.708347 27.553980 42 33 16
9.075518 1.705097 27.501570 43 17 42
9.097769 1.698981 27.402918 41 36 30
9.122360 1.693372 27.312454 34 36 23
9.145065 1.687482 27.217457 19 16 39
9.162536 1.680702 27.108095 23 15 33
9.194063 1.676564 27.041361 25 41 21
5.343878 1.965564 30.711943 34 21 20
5.380046 1.956380 30.568445 30 20 37
5.411862 1.945838 30.403721 25 35 41
5.454944 1.939536 30.305243 35 27 27
5.494952 1.932291 30.192041 19 33 44
5.543053 1.928018 30.125288 25 32 25
5.595149 1.925213 30.081446 39 37 26
5.644127 1.921405 30.021950 15 29 26
5.698380 1.919454 29.991472 30 25 21
5.749765 1.916588 29.946693 40 28 38
5.804906 1.915021 29.922195 25 23 38
5.857484 1.912648 29.885122 27 24 22
5.901724 1.907628 29.806684 27 22 39
5.946761 1.902964 29.733807 28 27 31
5.984988 1.896234 29.628653 38 31 23
6.028839 1.891401 29.553133 44 27 31
6.072156 1.886495 29.476486 32 23 40
6.110570 1.880175 29.377741 35 25 15
6.155804 1.876055 29.313353 120 120 120
6.189848 1.868633 29.197397 120 120 120
6.225124 1.861719 29.089363 120 120 120
6.260943 1.855094 28.985846 42 37 42
6.295096 1.848102 28.876589 23 17 25
6.340248 1.844436 28.819307 27 40 27
6.384582 1.840600 28.759378 23 32 27
6.435083 1.838595 28.728050 42 41 22
6.489604 1.837764 28.715063 41 22 29
6.543001 1.836632 28.697372 23 26 44
6.599520 1.836388 28.693563 22 18 21
6.653763 1.835521 28.680014 38 22 40
6.707425 1.834510 28.664211 27 32 21
6.760470 1.833348 28.646059 20 30 27
6.812874 1.832033 28.625523 30 38 19
6.867086 1.831223 28.612858 43 20 38
6.918017 1.829558 28.586847 22 32 35
6.968809 1.827884 28.560694 33 22 35
7.019470 1.826204 28.534431 23 17 25
7.069651 1.824426 28.506659 30 35 26
7.122918 1.823467 28.491673 27 26 41
7.175831 1.822433 28.475519 30 35 40
7.231063 1.822000 28.468752 30 20 33
7.286592 1.821648 28.463251 19 33 43
7.339883 1.820746 28.449160 30 16 36
7.393577 1.819957 28.436834 18 28 26
7.445492 1.818746 28.417910 36 40 24
7.498679 1.817862 28.404089 40 17 44
7.551376 1.816872 28.388630 23 17 21
7.602242 1.815461 28.366573 41 22 42
7.654620 1.814428 28.350445 34 28 40
7.704260 1.812767 28.324486 43 18 25
7.755055 1.811400 28.303122 25 15 24
7.805785 1.810037 28.281828 17 22 25
7.855109 1.808370 28.255789 33 43 43
7.907080 1.807333 28.239573 37 32 31
7.957593 1.805979 28.218414 31 42 22
8.010008 1.805072 28.204252 21 27 25
8.062922 1.804290 28.192034 17 28 27
8.114346 1.803188 28.174812 17 43 40
8.167465 1.802475 28.163671 29 42 31
8.219343 1.801500 28.148436 22 18 32
8.273570 1.801049 28.141394 23 38 27
8.326336 1.800289 28.129515 39 27 40
8.374714 1.798596 28.103067 44 15 34
8.423361 1.796984 28.077871 20 19 16
8.466725 1.794273 28.035513 32 19 44
8.512483 1.792102 28.001589 31 42 32
8.556765 1.789650 27.963284 33 42 19
8.597136 1.786418 27.912781 36 23 24
8.642020 1.784159 27.877483 27 26 34
8.680016 1.780516 27.820564 43 41 25
8.721249 1.777579 27.774677 25 24 16
8.761891 1.774560 27.727503 24 39 22
8.798366 1.770740 27.667816 27 38 42
8.841268 1.768254 27.628963 27 21 30
8.878094 1.764590 27.571722 43 30 18
8.920229 1.762021 27.531572 40 16 17
8.961200 1.759254 27.488342 38 24 26
8.996470 1.755409 27.428261 41 34 35
9.037411 1.752710 27.386093 16 38 15
9.062125 1.746916 27.295557 19 36 27
9.086798 1.741183 27.205982 44 24 44
9.108854 1.735020 27.109686 15 30 27
9.126583 1.728110 27.001726 36 17 15
9.158434 1.723941 26.936571 20 33 18
9.183043 1.718464 26.851002 43 24 33
5.316892 2.016752 30.556849 37 39 36
5.352395 2.007148 30.411335 27 35 40
5.384349 1.996444 30.249153 35 40 18
5.428023 1.990275 30.155682 20 35 27
5.468839 1.983205 30.048567 20 20 20
5.517326 1.979041 29.985468 37 36 41
5.569759 1.976366 29.944942 35 42 22
5.619477 1.972795 29.890835 32 22 32
5.674249 1.971055 29.864468 32 15 40
5.725371 1.968096 29.819643 21 26 23
5.779231 1.966130 29.789852 44 39 29
5.830308 1.963267 29.746469 27 39 16
5.873794 1.957931 29.665627 38 43 43
5.918771 1.953194 29.593855 16 41 44
5.956597 1.946215 29.488106 37 29 35
5.999520 1.941021 29.409410 31 40 43
6.042138 1.935831 29.330767 32 16 36
6.080641 1.929434 29.233850 40 34 32
6.126431 1.925450 29.173483 120 120 120
6.161131 1.918088 29.061939 120 120 120
6.196634 1.911112 28.956236 120 120 120
6.232547 1.904389 28.854385 43 30 22
6.266819 1.897294 28.746876 25 35 17
6.311853 1.893556 28.690243 17 43 21
6.356520 1.889776 28.632971 23 34 34
6.407737 1.887994 28.605970 22 18 34
6.462742 1.887350 28.596205 42 38 34
6.515763 1.886142 28.577909 27 26 43
6.571250 1.885663 28.570650 28 15 35
6.624843 1.884654 28.555359 15 32 33
6.678529 1.883688 28.540724 43 43 21
6.731871 1.882642 28.524876 26 28 38
6.784458 1.881404 28.506126 20 29 28
6.838676 1.880636 28.494482 26 20 16
6.889869 1.879055 28.470533 32 36 23
6.940915 1.877461 28.446373 32 17 34
6.991835 1.875858 28.422094 44 33 43
7.042295 1.874159 28.396349 30 35 40
7.095604 1.873240 28.382418 30 35 40
7.148676 1.872272 28.367762 30 35 40
7.203980 1.871900 28.362127 30 35 40
7.259549 1.871603 28.357615 30 35 40
7.312938 1.870752 28.344723 39 29 40
7.366608 1.869985 28.333107 25 16 15
7.418527 1.868789 28.314989 20 27 29
7.471605 1.867901 28.301533 27 15 32
7.524199 1.866906 28.286461 25 15 35
7.575100 1.865510 28.265297 37 33 26
7.627493 1.864498 28.249973 41 34 18
7.677178 1.862845 28.224920 36 20 41
7.727869 1.861457 28.203901 37 22 26
7.778509 1.860078 28.183002 24 15 42
7.827910 1.858425 28.157949 38 19 18
7.879954 1.857418 28.142693 17 44 29
7.930427 1.856057 28.122082 25 33 19
7.982647 1.855122 28.107912 44 20 27
8.035203 1.854278 28.095116 24 31 33
8.086170 1.853081 28.076979 42 26 35
8.138816 1.852282 28.064882 43 15 38
8.190147 1.851198 28.048449 37 26 42
8.243991 1.850692 28.040787 25 43 42
8.296338 1.849859 28.028168 23 42 21
8.344086 1.848019 28.000290 21 40 34
8.392160 1.846275 27.973867 40 37 37
8.434796 1.843366 27.929787 25 38 25
8.480043 1.841062 27.894878 15 37 26
8.523702 1.838445 27.855234 24 25 17
8.563104 1.834951 27.802286 44 27 19
8.607108 1.832481 27.764864 38 37 38
8.643756 1.828487 27.704348 35 42 21
8.683770 1.825251 27.655317 15 35 24
8.723168 1.821927 27.604961 16 23 41
8.758263 1.817753 27.541708 15 30 33
8.800248 1.815051 27.500776 22 17 33
8.835815 1.811068 27.440418 26 39 30
8.876243 1.808124 27.395813 28 40 19
8.916589 1.805199 27.351500 44 44 25
8.953424 1.801604 27.297024 15 28 42
8.997062 1.799412 27.263824 34 42 42
9.024462 1.794020 27.182114 42 32 29
9.050069 1.788337 27.096014 20 38 35
9.072556 1.782109 27.001654 37 41 37
9.091292 1.775223 26.897312 31 23 35
9.123724 1.771076 26.834482 20 18 41
9.149151 1.765626 26.751904 33 20 24
5.281431 2.064007 30.353050 36 43 32
5.316281 2.054018 30.206144 37 20 17
5.348449 2.043228 30.047468 30 25 24
5.392772 2.037270 29.959846 34 40 18
5.434521 2.030480 29.860006 21 21 29
5.483425 2.026483 29.801222 41 21 15
5.536287 2.024019 29.764984 17 22 44
5.587098 2.020865 29.718605 16 44 39
5.642754 2.019512 29.698704 19 25 21
5.693656 2.016503 29.654461 21 31 22
5.745854 2.014011 29.617802 25 44 23
5.794877 2.010468 29.565701 34 34 20
5.837250 2.004712 29.481060 44 28 34
5.882001 1.999880 29.410006 15 17 28
5.919371 1.992659 29.303816 21 16 27
5.961522 1.987174 29.223146 18 17 42
6.003490 1.981734 29.143154 41 43 43
6.041635 1.975150 29.046324 39 37 35
6.087317 1.971131 28.987223 120 120 120
6.122376 1.963781 28.879133 120 120 120
6.158390 1.956872 28.777525 120 120 120
6.194827 1.950223 28.679756 31 19 37
6.229388 1.943112 28.575176 32 22 39
6.274207 1.939300 28.519123 41 39 40
6.319175 1.935603 28.464752 18 38 27
6.371161 1.934103 28.442684 33 17 37
6.426605 1.933669 28.436304 42 40 32
6.479057 1.932350 28.416916 35 21 27
6.533184 1.931550 28.405148 20 30 20
6.585769 1.930312 28.386936 42 42 40
6.639199 1.929340 28.372644 32 39 34
6.692612 1.928380 28.358526 38 34 40
6.745195 1.927198 28.341154 31 33 37
6.799326 1.926476 28.330526 31 26 23
6.850678 1.924984 28.308588 44 19 37
6.901896 1.923479 28.286461 44 29 20
6.952973 1.921960 28.264116 19 38 28
7.003563 1.920332 28.240173 30 35 40
7.056753 1.919437 28.227011 30 35 40
7.109786 1.918514 28.213438 30 35 40
7.165000 1.918189 28.208662 30 35 40
7.220432 1.917927 28.204813 30 35 40
7.273746 1.917111 28.192816 15 41 33
7.327242 1.916356 28.181700 42 21 30
7.378991 1.915158 28.164089 37 36 39
7.431801 1.914252 28.150761 44 29 40
7.484129 1.913236 28.135824 29 18 20
7.534876 1.911834 28.115208 21 21 41
7.587118 1.910830 28.100437 44 43 42
7.636678 1.909170 28.076023 27 15 30
7.687153 1.907761 28.055302 35 38 20
7.737592 1.906363 28.034754 24 39 16
7.786941 1.904719 28.010580 20 35 24
7.838925 1.903739 27.996162 24 20 31
7.889180 1.902356 27.975817 24 37 42
7.940979 1.901361 27.961193 18 18 41
7.992968 1.900426 27.947441 27 19 21
8.043329 1.899119 27.928226 25 35 31
8.095440 1.898241 27.915312 17 35 40
8.146251 1.897072 27.898121 20 24 19
8.199725 1.896535 27.890223 40 39 17
8.251742 1.895671 27.877508 17 43 35
8.299037 1.893740 27.849117 38 36 17
8.346665 1.891911 27.822216 41 19 23
8.388916 1.888895 27.777866 24 42 35
8.433975 1.886547 27.743338 18 27 41
8.477392 1.883865 27.703896 36 31 25
8.516324 1.880227 27.650402 35 20 39
8.559766 1.877626 27.612148 34 24 43
8.595490 1.873376 27.549648 22 19 34
8.634562 1.869905 27.498606 29 15 25
8.672906 1.866321 27.445904 37 27 44
8.706823 1.861836 27.379946 20 27 25
8.747932 1.858936 27.337288 44 22 44
8.782419 1.854672 27.274593 37 33 25
8.821610 1.851449 27.227192 19 18 16
8.861389 1.848388 27.182175 40 24 41
8.898759 1.844865 27.130362 16 15 26
8.943564 1.842916 27.101709 42 19 35
8.973103 1.837865 27.027420 33 29 20
9.000629 1.832463 26.947990 24 24 19
9.024853 1.826458 26.859682 29 40 43
9.045080 1.819720 26.760592 29 21 23
9.077872 1.815574 26.699623 34 38 28
9.104008 1.810154 26.619907 24 27 44
5.258391 2.115445 30.220636 20 15 40
5.293115 2.105216 30.074516 30 22 31
5.325589 2.094333 29.919039 17 21 43
5.370325 2.088460 29.835138 31 26 22
5.412635 2.081783 29.739752 31 20 25
5.461736 2.077834 29.683350 18 39 21
5.514800 2.075462 29.649460 26 21 19
5.566341 2.072574 29.608196 40 26 23
5.622658 2.071505 29.592936 38 37 23
5.673248 2.068372 29.548164 44 37 39
5.723923 2.065333 29.504757 36 35 31
5.771161 2.061129 29.444700 33 20 24
5.812589 2.054956 29.356510 24 21 36
5.857239 2.050034 29.286194 42 33 19
5.894380 2.042607 29.180099 20 39 24
5.936170 2.036921 29.098873 19 40 25
5.977725 2.031266 29.018082 23 22 32
6.015222 2.024353 28.919334 27 24 23
6.060252 2.020084 28.858345 120 120 120
6.095275 2.012591 28.751295 120 120 120
6.131890 2.005758 28.653690 120 120 120
6.169075 1.999237 28.560534 40 41 27
6.203931 1.992088 28.458401 38 34 26
6.248524 1.988167 28.402382 41 26 23
6.293605 1.984470 28.349573 27 15 37
6.346071 1.983147 28.330673 34 36 15
6.401795 1.982857 28.326525 36 30 31
6.453851 1.981446 28.306366 22 32 29
6.507087 1.980418 28.291683 30 40 42
6.558981 1.979003 28.271469 25 29 30
6.612197 1.978008 28.257254 26 20 40
6.665598 1.977084 28.244061 42 40 44
6.718069 1.975903 28.227180 42 31 24
6.772050 1.975181 28.216875 25 33 24
6.823352 1.973697 28.195669 23 27 34
6.874556 1.972209 28.174408 33 20 37
6.925599 1.970699 28.152842 30 35 40
6.976097 1.969060 28.129425 30 35 40
7.029065 1.968138 28.116259 30 35 40
7.081885 1.967190 28.102716 30 35 40
7.136879 1.966856 28.097950 30 35 40
7.192091 1.966587 28.094107 30 35 40
7.245188 1.965749 28.082125 30 35 40
7.298455 1.964969 28.070982 28 42 19
7.349948 1.963727 28.053238 29 22 22
7.402475 1.962778 28.039679 22 40 43
7.454527 1.961718 28.024536 40 35 41
7.505019 1.960266 28.003801 18 36 19
7.557041 1.959233 27.989042 33 19 31
7.606400 1.957529 27.964706 15 35 18
7.656669 1.956083 27.944048 29 40 24
7.706923 1.954654 27.923634 43 40 22
7.756139 1.952985 27.899780 34 38 21
7.807994 1.951999 27.885695 29 34 22
7.858005 1.950569 27.865267 35 25 30
7.909434 1.949508 27.850121 28 18 42
7.961007 1.948498 27.835690 32 36 35
8.010999 1.947118 27.815969 24 26 42
8.062813 1.946196 27.802805 32 26 23
8.113414 1.944996 27.785664 32 20 40
8.166733 1.944460 27.778004 41 43 33
8.218676 1.943606 27.765799 25 34 20
8.265912 1.941657 27.737959 42 35 16
8.313446 1.939804 27.711487 35 26 43
8.355832 1.936782 27.668318 42 25 27
8.401097 1.934463 27.635187 42 37 38
8.444717 1.931798 27.597115 16 15 37
8.483842 1.928146 27.544941 26 30 41
8.527264 1.925511 27.507303 35 31 15
8.562864 1.921155 27.445076 35 44 15
8.601667 1.917569 27.393845 34 39 31
8.639621 1.913840 27.340572 23 26 19
8.673138 1.909181 27.274019 27 18 20
8.713869 1.906159 27.230841 28 29 30
8.747867 1.901710 27.167290 22 38 43
8.786593 1.898338 27.119114 20 43 35
8.825931 1.895139 27.073408 34 22 30
8.862630 1.891415 27.020212 40 21 38
8.906803 1.889322 26.990311 20 37 36
8.937158 1.884340 26.919149 44 44 25
8.966663 1.879241 26.846296 37 18 37
8.993103 1.873563 26.765186 20 26 20
9.014735 1.866957 26.670813 41 39 15
9.047663 1.862754 26.610775 28 34 43
9.074205 1.857294 26.532764 25 43 24
5.189801 2.172475 30.173262 31 40 38
5.224336 2.161794 30.024921 28 20 15
5.259031 2.151422 29.880857 38 25 35
5.291820 2.140512 29.729328 39 44 25
5.336869 2.134748 29.649271 18 32 31
5.379666 2.128220 29.558605 33 31 37
5.429033 2.124404 29.505613 26 19 21
5.482160 2.122126 29.473978 31 24 30
5.533765 2.119314 29.434921 17 32 35
5.589861 2.118263 29.420321 19 41 35
5.639543 2.114828 29.372618 37 35 44
5.688694 2.111268 29.323164 18 17 35
5.734421 2.106522 29.257248 27 16 20
5.775064 2.100023 29.166992 43 29 16
5.819666 2.095080 29.098331 29 35 28
5.856705 2.087538 28.993589 25 26 25
5.898179 2.081710 28.912643 30 32 17
5.939343 2.075887 28.831762 44 42 34
5.976251 2.068702 28.731977 21 42 20
6.020605 2.064207 28.669548 120 120 120
6.055801 2.056687 28.565098 120 120 120
6.093329 2.050092 28.473499 120 120 120
6.131570 2.043857 28.386898 43 40 18
6.166940 2.036788 28.288717 22 34 39
6.211291 2.032786 28.233141 44 15 28
6.256332 2.029081 28.181675 15 24 37
6.308945 2.027875 28.164934 28 19 34
6.364608 2.027663 28.161982 17 21 33
6.416146 2.026151 28.140991 34 38 34
6.468523 2.024929 28.124014 29 17 35
6.519734 2.023366 28.102303 23 16 36
6.572685 2.022365 28.088398 26 18 37
6.625962 2.021480 28.076111 31 22 27
6.678204 2.020297 28.059679 16 44 15
6.731885 2.019565 28.049520 15 34 19
6.782979 2.018076 28.028837 21 29 16
6.834041 2.016602 28.008366 16 44 15
6.884903 2.015094 27.987411 29 29 40
6.935091 2.013414 27.964077 30 35 40
6.987632 2.012438 27.950527 30 35 40
7.039948 2.011414 27.936300 30 35 40
7.094465 2.011030 27.930965 30 35 40
7.149174 2.010705 27.926462 30 35 40
7.201745 2.009789 27.913740 35 35 40
7.254554 2.008953 27.902130 15 37 35
7.305484 2.007614 27.883528 25 21 30
7.357459 2.006580 27.869164 33 26 18
7.408958 2.005432 27.853226 42 44 25
7.458889 2.003881 27.831675 18 30 24
7.510455 2.002788 27.816502 21 25 21
7.559264 2.000982 27.791412 15 29 29
7.608965 1.999436 27.769947 44 41 34
7.658694 1.997920 27.748892 42 26 26
7.707514 1.996191 27.724869 31 33 15
7.759114 1.995201 27.711123 26 19 27
7.808748 1.993723 27.690596 25 43 31
7.859650 1.992587 27.674824 23 32 15
7.910716 1.991509 27.659847 40 20 25
7.960363 1.990091 27.640150 17 30 40
8.011954 1.989175 27.627426 15 33 38
8.062496 1.988013 27.611288 25 33 28
8.115741 1.987528 27.604561 24 23 31
8.167708 1.986740 27.593607 37 19 38
8.215087 1.984853 27.567408 42 37 34
8.262658 1.983038 27.542192 21 24 27
8.305411 1.980098 27.501360 38 30 29
8.351046 1.977879 27.470547 28 38 18
8.395015 1.975298 27.434690 32 28 27
8.434485 1.971698 27.384691 24 27 16
8.477896 1.969060 27.348051 16 22 35
8.513447 1.964642 27.286688 36 31 27
8.551996 1.960967 27.235657 26 16 21
8.589594 1.957123 27.182259 26 37 33
8.622839 1.952341 27.115847 22 40 42
8.663283 1.949239 27.072760 39 17 32
8.697017 1.944675 27.009369 18 24 41
8.735419 1.941204 26.961168 15 41 41
8.774508 1.937928 26.915668 40 42 35
8.810830 1.934085 26.862288 29 22 26
8.854553 1.931902 26.831978 27 37 42
8.886299 1.927149 26.765961 15 37 39
8.918463 1.922543 26.701984 29 26 22
8.947805 1.917387 26.630371 37 44 37
8.971440 1.911076 26.542721 22 41 36
9.004718 1.906881 26.484465 40 30 24
9.031897 1.901452 26.409056 29 23 30
9.067314 1.897810 26.358471 31 35 43
5.164146 2.221784 30.024107 19 34 37
5.198554 2.210879 29.876745 43 27 41
5.233272 2.200353 29.734503 37 25 36
5.266208 2.189323 29.585440 36 18 24
5.311344 2.183553 29.507467 26 44 26
5.354354 2.177045 29.419527 18 30 44
5.403950 2.173328 29.369293 41 39 21
5.457014 2.171070 29.338783 21 18 21
5.508075 2.168072 29.298269 28 37 26
5.563271 2.166748 29.280373 36 15 19
5.612027 2.162969 29.229309 44 34 36
5.660512 2.159164 29.177895 18 35 30
5.705827 2.154241 29.111362 28 38 31
5.746288 2.147603 29.021658 37 32 37
5.790939 2.142647 28.954695 37 33 17
5.828053 2.135029 28.851749 42 40 27
5.869424 2.129105 28.771687 20 25 25
5.910427 2.123163 28.691391 44 42 38
5.947107 2.115798 28.591860 32 39 31
5.991112 2.111154 28.529104 120 120 120
6.026557 2.103610 28.427156 120 120 120
6.064773 2.097164 28.340059 120 120 120
6.103748 2.091099 28.258091 16 20 30
6.139510 2.084054 28.162891 31 44 34
6.183706 2.079974 28.107756 29 20 24
6.228572 2.076191 28.056631 32 28 17
6.280980 2.074967 28.040091 16 36 28
6.336332 2.074728 28.036867 31 30 16
6.387489 2.073132 28.015303 34 34 37
6.439452 2.071824 27.997616 39 28 42
6.490339 2.070194 27.975599 42 43 31
6.543105 2.069187 27.961987 37 31 28
6.596246 2.068314 27.950195 35 19 31
6.648279 2.067112 27.933947 19 29 27
6.701703 2.066358 27.923761 21 39 23
6.752562 2.064833 27.903151 16 22 44
6.803447 2.063340 27.882978 25 44 42
6.854082 2.061797 27.862122 32 30 22
6.903935 2.060045 27.838449 30 35 40
6.956084 2.059001 27.824335 30 35 40
7.007892 2.057873 27.809095 30 35 40
7.061932 2.057413 27.802881 30 35 40
7.116129 2.057006 27.797380 30 35 40
7.168153 2.055982 27.783537 17 20 18
7.220525 2.055072 27.771250 37 38 19
7.270888 2.053610 27.751480 38 44 31
7.322335 2.052473 27.736118 31 30 15
7.373313 2.051223 27.719223 20 40 28
7.422725 2.049558 27.696735 24 24 35
7.473902 2.048403 27.681118 43 15 17
7.522164 2.046471 27.655016 29 20 17
7.571266 2.044795 27.632359 28 40 19
7.620453 2.043165 27.610338 36 44 26
7.668870 2.041354 27.585865 16 21 15
7.720253 2.040352 27.572330 19 44 33
7.769650 2.038844 27.551950 15 23 27
7.820196 2.037657 27.535900 25 39 20
7.871002 2.036553 27.520985 27 21 28
7.920592 2.035152 27.502054 26 21 40
7.972191 2.034283 27.490313 18 31 31
8.022943 2.033212 27.475832 16 15 30
8.076297 2.032809 27.470398 29 44 35
8.128440 2.032110 27.460947 29 23 22
8.176156 2.030321 27.436764 32 15 18
8.223895 2.028561 27.412983 40 37 31
8.267080 2.025708 27.374437 39 43 37
8.313066 2.023575 27.345612 26 23 42
8.357323 2.021052 27.311512 42 38 38
8.397071 2.017478 27.263216 25 27 22
8.440471 2.014822 27.227327 30 29 20
8.476002 2.010334 27.166672 22 18 37
8.514387 2.006575 27.115883 36 22 16
8.551791 2.002635 27.062630 17 40 36
8.584979 1.997762 26.996788 39 38 44
8.625369 1.994617 26.954279 41 28 35
8.659182 1.989998 26.891869 20 41 32
8.697557 1.986479 26.844311 31 44 36
8.736733 1.983185 26.799793 19 17 44
8.773200 1.979320 26.747562 38 15 33
8.816933 1.977130 26.717979 16 44 42
8.849979 1.972586 26.656563 27 31 25
8.884114 1.968337 26.599144 21 29 15
8.915520 1.963537 26.534286 22 25 31
8.940681 1.957427 26.451719 44 40 44
8.974275 1.953225 26.394926 40 19 24
9.001930 1.947786 26.321434 18 33 38
9.037673 1.944151 26.272306 20 38 26
5.139316 2.270861 29.879745 39 23 17
5.173854 2.259844 29.734793 25 31 35
5.208779 2.249245 29.595333 21 24 44
5.241813 2.238077 29.448385 23 27 18
5.286809 2.232208 29.371162 25 40 34
5.329762 2.225615 29.284409 21 20 26
5.379485 2.221961 29.236332 18 30 16
5.432305 2.219652 29.205942 37 21 39
5.482249 2.216228 29.160896 38 17 24
5.535940 2.214376 29.136528 27 17 36
5.583522 2.210144 29.080845 26 36 36
5.631655 2.206215 29.029148 16 27 17
5.677067 2.201312 28.964628 18 30 34
5.717611 2.194639 28.876823 35 43 22
5.762347 2.189692 28.811737 23 39 37
5.799643 2.182044 28.711102 17 30 39
5.841035 2.176072 28.632526 23 21 23
5.882021 2.170066 28.553501 33 21 23
5.918657 2.162586 28.455082 31 17 19
5.962447 2.157838 28.392607 120 120 120
5.998257 2.150319 28.293667 120 120 120
6.037198 2.144052 28.211206 120 120 120
6.076923 2.138177 28.133902 36 21 26
6.113172 2.131198 28.042074 43 17 17
6.157315 2.127073 27.987797 34 15 28
6.201918 2.123179 27.936569 36 37 36
6.253786 2.121820 27.918688 17 33 22
6.308546 2.121458 27.913919 43 24 31
6.359407 2.119802 27.892136 18 19 20
6.411291 2.118513 27.875177 26 39 24
6.462096 2.116893 27.853861 22 17 32
6.514702 2.115886 27.840609 35 40 29
6.567640 2.115003 27.828983 40 21 44
6.619413 2.113762 27.812658 37 28 23
6.672527 2.112967 27.802197 25 25 15
6.723065 2.111376 27.781260 16 38 30
6.773702 2.109841 27.761072 29 22 36
6.824031 2.108237 27.739965 28 28 24
6.873470 2.106386 27.715607 30 28 35
6.925184 2.105256 27.700737 20 42 21
6.976418 2.103999 27.684196 30 35 40
7.029915 2.103439 27.676832 37 34 29
7.083553 2.102930 27.670128 35 18 23
7.134972 2.101775 27.654930 17 23 36
7.186875 2.100779 27.641829 34 27 35
7.236632 2.099176 27.620731 22 33 16
7.287532 2.097926 27.604286 42 25 32
7.337953 2.096558 27.586290 17 39 31
7.386719 2.094741 27.562386 43 44 43
7.437397 2.093489 27.545914 36 19 35
7.484965 2.091387 27.518253 22 24 20
7.533338 2.089539 27.493933 30 28 36
7.581878 2.087763 27.470572 26 37 35
7.629766 2.085835 27.445200 15 36 24
7.680860 2.084805 27.431643 32 26 35
7.729939 2.083246 27.411133 20 41 36
7.780086 2.081995 27.394669 18 17 17
7.830615 2.080863 27.379772 31 17 30
7.880137 2.079481 27.361588 15 16 15
7.931772 2.078671 27.350937 44 19 35
7.982728 2.077696 27.338108 19 40 38
8.036154 2.077373 27.333857 22 34 27
8.088432 2.076759 27.325783 32 28 44
8.136491 2.075078 27.303659 15 25 17
8.184421 2.073387 27.281403 40 27 22
8.228072 2.070641 27.245272 18 28 39
8.274421 2.068605 27.218491 18 42 31
8.318995 2.066156 27.186258 16 26 41
8.359104 2.062636 27.139948 21 33 30
8.402568 2.059984 27.105059 29 28 30
8.438278 2.055478 27.045763 20 44 22
8.476702 2.051686 26.995867 22 22 43
8.514153 2.047708 26.943523 29 29 44
8.547569 2.042815 26.879148 38 38 33
8.588084 2.039670 26.837763 41 32 18
8.622235 2.035062 26.777128 21 27 16
8.660815 2.031549 26.730909 17 33 36
8.700241 2.028277 26.687855 34 23 15
8.737005 2.024428 26.637209 20 23 29
8.780800 2.022245 26.608486 33 43 17
8.814965 2.017884 26.551100 28 27 24
8.850705 2.013933 26.499117 19 16 20
8.883808 2.009433 26.439905 32 31 33
8.910350 2.003511 26.361982 22 31 25
8.944354 1.999326 26.306923 32 31 34
8.972548 1.993900 26.235521 17 26 22
9.008612 1.990275 26.187826 33 44 28
5.107975 2.316407 29.697531 44 30 18
5.142806 2.305396 29.556356 33 24 25
5.178046 2.294816 29.420717 34 33 44
5.211200 2.283560 29.276407 30 44 37
5.255960 2.277583 29.199776 16 42 27
5.298731 2.270885 29.113907 16 30 43
5.348490 2.267295 29.067883 23 28 19
5.400923 2.264903 29.037222 33 19 25
5.449500 2.260963 28.986700 20 20 40
5.501432 2.258482 28.954903 38 24 31
5.547516 2.253678 28.893311 44 16 42
5.595029 2.249548 28.840355 38 17 30
5.640318 2.244616 28.777132 21 27 22
5.680775 2.237881 28.690783 16 39 16
5.725524 2.232954 28.627621 42 35 31
5.762965 2.225303 28.529531 23 28 32
5.804327 2.219302 28.452585 40 24 20
5.845287 2.213264 28.375181 39 34 27
5.881903 2.205714 28.278379 37 23 39
5.925494 2.200898 28.216639 120 120 120
5.961884 2.193523 28.122093 120 120 120
6.001843 2.187588 28.045996 120 120 120
6.042605 2.182052 27.975021 32 29 35
6.079549 2.175251 27.887838 33 18 18
6.123648 2.171112 27.834764 39 44 19
6.167968 2.167124 27.783638 22 18 29
6.219191 2.165611 27.764244 29 22 15
6.273248 2.165103 27.757734 37 23 32
6.323806 2.163407 27.735992 16 37 19
6.375656 2.162179 27.720243 39 24 19
6.426410 2.160603 27.700045 30 35 40
6.478834 2.159611 27.687326 41 16 31
6.531501 2.158717 27.675854 26 16 38
6.582954 2.157439 27.659472 18 39 15
6.635681 2.156596 27.648672 28 27 44
6.685840 2.154940 27.627438 19 20 34
6.736190 2.153372 27.607336 22 33 28
6.786190 2.151719 27.586140 38 41 43
6.835166 2.149770 27.561152 41 22 21
6.886391 2.148554 27.545565 27 34 36
6.936998 2.147166 27.527769 34 41 33
6.989911 2.146508 27.519333 28 19 33
7.042953 2.145900 27.511534 37 25 17
7.093735 2.144618 27.495098 29 43 41
7.145140 2.143542 27.481306 30 32 18
7.194285 2.141810 27.459105 17 39 15
7.244656 2.140466 27.441877 39 19 40
7.294487 2.138985 27.422884 27 34 35
7.342520 2.137002 27.397463 26 22 43
7.392535 2.135621 27.379759 38 42 40
7.439201 2.133300 27.350002 19 44 43
7.486697 2.131250 27.323713 36 44 16
7.534437 2.129297 27.298685 22 38 43
7.581649 2.127225 27.272118 23 43 33
7.632366 2.126159 27.258450 22 16 43
7.680956 2.124520 27.237434 28 18 16
7.730500 2.123166 27.220072 30 40 17
7.780518 2.121959 27.204609 44 34 43
7.829712 2.120547 27.186501 17 19 15
7.881168 2.119763 27.176443 26 23 32
7.932039 2.118832 27.164516 34 34 42
7.985287 2.118546 27.160841 19 17 25
8.037478 2.117984 27.153643 25 35 25
8.085625 2.116372 27.132969 30 26 39
8.133582 2.114731 27.111940 33 28 35
8.177575 2.112089 27.078062 30 36 37
8.224217 2.110161 27.053347 20 34 34
8.269112 2.107813 27.023241 23 40 18
8.309587 2.104376 26.979179 25 20 26
8.353116 2.101752 26.945536 27 20 34
8.389072 2.097268 26.888050 30 42 40
8.427596 2.093479 26.839478 36 34 23
8.465133 2.089495 26.788395 38 30 33
8.498794 2.084610 26.725767 42 40 15
8.539370 2.081471 26.685532 41 20 42
8.573792 2.076881 26.626682 42 33 34
8.612479 2.073375 26.581726 23 28 41
8.652076 2.070129 26.540110 44 23 27
8.689082 2.066306 26.491104 18 33 35
8.732901 2.064140 26.463337 35 29 33
8.768202 2.059999 26.410246 24 31 34
8.805556 2.056387 26.363941 41 34 42
8.840438 2.052245 26.310827 44 34 24
8.868584 2.046596 26.238413 15 24 31
8.903207 2.042500 26.185902 41 32 35
8.932233 2.037176 26.117640 16 32 18
8.968821 2.033628 26.072153 27 26 33
5.088172 2.366592 29.582397 41 34 31
5.123363 2.355569 29.444614 22 40 18
5.158915 2.344961 29.312016 18 15 42
5.192130 2.333541 29.169268 34 36 37
5.236608 2.327381 29.092264 40 27 24
5.279083 2.320476 29.005949 39 18 39
5.328770 2.316856 28.960705 29 40 35
5.380821 2.314332 28.929144 22 19 23
5.428292 2.309912 28.873896 27 29 43
5.478900 2.306905 28.836317 16 29 43
5.523901 2.301625 28.770315 19 17 36
5.571047 2.297339 28.716738 21 31 35
5.616348 2.292387 28.654837 39 20 32
5.656753 2.285557 28.569462 27 43 21
5.701476 2.280590 28.507378 24 44 39
5.739011 2.272876 28.410944 41 16 41
5.780381 2.266816 28.335201 38 33 19
5.821388 2.260733 28.259165 19 18 18
5.858095 2.253114 28.163919 44 34 17
5.901647 2.248246 28.103081 120 120 120
5.938524 2.240952 28.011904 120 120 120
5.979237 2.235229 27.940359 120 120 120
6.020733 2.229901 27.873762 36 17 26
6.058205 2.223194 27.789930 42 27 38
6.102323 2.219027 27.737833 15 26 40
6.146436 2.214932 27.686647 38 41 23
6.197130 2.213261 27.665758 40 29 37
6.250638 2.212615 27.657688 18 20 24
6.301083 2.210906 27.636328 30 34 37
6.353081 2.209767 27.622093 30 35 40
6.403948 2.208258 27.603224 30 35 40
6.456272 2.207273 27.590908 30 35 40
6.508727 2.206348 27.579353 37 22 18
6.559960 2.205029 27.562859 24 34 34
6.612423 2.204141 27.551762 22 34 39
6.662316 2.202418 27.530230 35 16 26
6.712461 2.200807 27.510084 23 25 25
6.762242 2.199103 27.488789 29 35 39
6.810919 2.197071 27.463383 24 35 28
6.861840 2.195789 27.447361 17 41 20
6.912068 2.194307 27.428841 44 42 43
6.964629 2.193584 27.419800 23 43 35
7.017320 2.192912 27.411406 23 30 17
7.067742 2.191548 27.394350 16 38 39
7.118859 2.190418 27.380226 44 15 26
7.167672 2.188602 27.357525 44 40 22
7.217781 2.187206 27.340080 44 26 37
7.267290 2.185651 27.320641 17 42 20
7.314836 2.183533 27.294163 28 20 43
7.364368 2.182035 27.275436 38 16 16
7.410386 2.179525 27.244066 35 22 17
7.457281 2.177308 27.216352 29 43 22
7.504461 2.175206 27.190077 33 42 19
7.551181 2.173002 27.162521 35 32 44
7.601619 2.171891 27.148638 20 33 31
7.649813 2.170160 27.126995 38 19 38
7.698911 2.168707 27.108843 23 30 19
7.748513 2.167416 27.092703 31 21 20
7.797360 2.165933 27.074165 33 26 42
7.848591 2.165129 27.064108 31 41 27
7.899234 2.164174 27.052172 39 42 17
7.952202 2.163865 27.048307 38 36 24
8.004186 2.163293 27.041168 17 24 44
8.052216 2.161669 27.020859 17 22 42
8.100084 2.160022 27.000278 19 28 32
8.144178 2.157398 26.967476 19 16 33
8.190933 2.155509 26.943857 31 20 34
8.235994 2.153201 26.915014 33 23 20
8.276690 2.149790 26.872372 18 44 22
8.320282 2.147169 26.839619 29 36 28
8.356482 2.142688 26.783596 36 34 43
8.395173 2.138898 26.736219 20 30 31
8.432882 2.134907 26.686337 22 27 38
8.466775 2.130006 26.625080 34 29 32
8.507418 2.126854 26.585680 28 41 25
8.542029 2.122243 26.528042 25 23 33
8.580806 2.118717 26.483969 24 25 28
8.620497 2.115459 26.443243 44 19 43
8.657648 2.111622 26.395269 17 20 33
8.701478 2.109449 26.368114 36 44 24
8.737298 2.105373 26.317162 43 16 28
8.775328 2.101875 26.273438 29 20 29
8.811022 2.097862 26.223280 19 17 27
8.840076 2.092326 26.154070 20 21 21
8.875196 2.088281 26.103518 16 30 40
8.904877 2.083012 26.037651 21 38 44
8.941862 2.079503 25.993784 28 26 17
5.058587 2.411652 29.410387 39 24 36
5.094425 2.400821 29.278307 34 30 22
5.130524 2.390358 29.150707 16 26 21
5.163877 2.378865 29.010546 35 21 37
5.207923 2.372498 28.932907 37 41 34
5.250010 2.365389 28.846209 40 15 33
5.299632 2.361792 28.802347 28 33 39
5.351256 2.359156 28.770193 34 36 36
5.397379 2.354176 28.709465 36 18 34
5.446323 2.350518 28.664858 29 33 31
5.489987 2.344682 28.593683 35 29 23
5.536662 2.340239 28.539495 16 19 30
5.581968 2.335313 28.479429 44 43 38
5.622365 2.328454 28.395782 20 16 18
5.667104 2.323512 28.335518 21 22 29
5.704774 2.315799 28.241457 43 18 29
5.746119 2.309715 28.167252 22 37 33
5.787098 2.303602 28.092709 34 44 18
5.823854 2.295943 27.999300 23 40 35
5.867314 2.291046 27.939590 120 120 120
5.904563 2.283840 27.851711 120 120 120
5.945742 2.278275 27.783840 120 120 120
5.987823 2.273155 27.721403 36 38 37
6.026102 2.266699 27.642668 30 29 23
6.070684 2.262710 27.594019 37 43 19
6.114781 2.258613 27.544060 33 32 36
6.164634 2.256696 27.520687 20 15 16
6.217161 2.255784 27.509562 42 21 32
6.267302 2.254030 27.488169 30 35 40
6.319436 2.253016 27.475807 30 35 40
6.370369 2.251596 27.458487 30 35 40
6.422498 2.250619 27.446571 30 35 40
6.474622 2.249657 27.434839 30 35 40
6.525507 2.248284 27.418097 21 18 23
6.577566 2.247335 27.406527 43 21 36
6.627063 2.245534 27.384556 42 21 35
6.676902 2.243877 27.364351 40 25 39
6.726363 2.242121 27.342939 27 34 36
6.774618 2.239995 27.317007 38 33 39
6.825111 2.238637 27.300446 19 33 27
6.874809 2.237041 27.280989 36 33 39
6.926858 2.236230 27.271093 27 21 15
6.979043 2.235475 27.261887 34 41 41
7.028994 2.234021 27.244164 42 39 30
7.079759 2.232847 27.229843 25 34 25
7.128034 2.230911 27.206238 15 31 19
7.177604 2.229407 27.187895 26 24 42
7.226422 2.227694 27.167000 20 29 42
7.272985 2.225316 27.138004 21 34 26
7.321601 2.223597 27.117041 26 33 18
7.366626 2.220821 27.083183 39 33 27
7.412834 2.218439 27.054140 26 38 29
7.459439 2.216210 27.026955 44 43 31
7.505439 2.213835 26.997982 38 21 30
7.555297 2.212623 26.983204 20 39 36
7.602743 2.210727 26.960083 23 31 20
7.651092 2.209118 26.940464 22 31 41
7.700009 2.207695 26.923109 24 19 29
7.748221 2.206091 26.903543 30 33 23
7.799058 2.205251 26.893303 40 32 21
7.849278 2.204249 26.881090 37 22 26
7.901805 2.203905 26.876886 16 43 44
7.953472 2.203327 26.869837 44 37 23
8.001345 2.201712 26.850151 36 20 38
8.049129 2.200095 26.830431 40 16 19
8.093445 2.197558 26.799488 32 32 27
8.140368 2.195757 26.777527 36 44 16
8.185752 2.193567 26.750822 24 34 26
8.226975 2.190298 26.710957 16 31 41
8.270875 2.187780 26.680241 40 21 21
8.307808 2.183462 26.627590 30 24 22
8.347088 2.179813 26.583082 33 19 35
8.385393 2.175956 26.536055 41 30 37
8.420048 2.171207 26.478138 32 33 23
8.461030 2.168139 26.440720 42 34 22
8.496221 2.163634 26.385778 28 34 36
8.535348 2.160181 26.343668 20 44 38
8.575283 2.156973 26.304550 27 44 35
8.612730 2.153182 26.258322 23 27 18
8.656545 2.151020 26.231955 38 28 17
8.692794 2.147015 26.183113 28 38 32
8.731276 2.143607 26.141544 25 30 21
8.767580 2.139707 26.093988 16 30 33
8.797443 2.134291 26.027939 26 38 44
8.833051 2.130324 25.979563 39 22 27
8.863455 2.125156 25.916534 28 18 20
8.900886 2.121723 25.874668 44 28 36
5.035929 2.459407 29.278656 36 28 39
5.072262 2.448678 29.150930 18 15 44
5.108770 2.438277 29.027103 28 30 17
5.142218 2.426664 28.888863 43 18 23
5.185927 2.420099 28.810703 39 22 22
5.227764 2.412814 28.723976 17 29 40
5.277393 2.409245 28.681484 35 20 39
5.328798 2.406554 28.649450 16 20 34
5.374070 2.401180 28.585478 20 17 34
5.421892 2.397047 28.536274 38 33 36
5.464659 2.390788 28.461763 34 30 39
5.511014 2.386212 28.407290 37 37 27
5.556333 2.381286 28.348639 22 32 32
5.596783 2.374393 28.266581 36 31 28
5.641594 2.369470 28.207972 31 26 22
5.679403 2.361732 28.115858 32 22 17
5.720731 2.355595 28.042799 26 33 31
5.761654 2.349412 27.969196 41 35 18
5.798421 2.341670 27.877026 26 39 41
5.841788 2.336715 27.818039 120 120 120
5.879084 2.329448 27.731527 120 120 120
5.920166 2.323803 27.664326 120 120 120
5.962359 2.318695 27.603512 44 22 25
6.001373 2.312456 27.529236 38 32 21
6.046776 2.308769 27.485344 33 15 34
6.091115 2.304746 27.437456 42 33 30
6.140199 2.302575 27.411602 43 22 17
6.191727 2.301350 27.397020 43 33 19
6.241520 2.299508 27.375090 27 24 40
6.293730 2.298580 27.364044 30 35 40
6.344691 2.297216 27.347807 30 35 40
6.396655 2.296235 27.336134 30 35 40
6.448538 2.295242 27.324314 16 33 37
6.499150 2.293818 27.307354 35 39 40
6.550901 2.292815 27.295422 43 28 40
6.600092 2.290941 27.273106 37 16 37
6.649686 2.289236 27.252810 41 26 29
6.698876 2.287421 27.231205 29 40 20
6.746797 2.285206 27.204828 28 41 24
6.796943 2.283773 27.187773 17 17 18
6.846206 2.282069 27.167484 39 18 15
6.897828 2.281171 27.156801 41 22 43
6.949609 2.280340 27.146910 22 39 35
6.999204 2.278811 27.128696 39 21 33
7.049738 2.277608 27.114376 43 18 15
7.097585 2.275562 27.090019 42 18 32
7.146710 2.273953 27.070871 38 28 16
7.194885 2.272069 27.048439 23 42 37
7.240435 2.269390 27.016548 27 28 18
7.288055 2.267395 26.992796 27 44 40
7.332157 2.264343 26.956459 28 34 22
7.377942 2.261851 26.926794 16 16 17
7.424231 2.259549 26.899389 21 38 43
7.469627 2.257010 26.869164 24 44 25
7.518899 2.255670 26.853212 20 36 37
7.565589 2.253580 26.828331 27 27 22
7.613256 2.251808 26.807240 23 34 21
7.661555 2.250247 26.788654 23 22 26
7.709203 2.248517 26.768064 19 43 38
7.759663 2.247626 26.757458 33 42 40
7.809541 2.246580 26.745005 32 19 19
7.861707 2.246202 26.740501 44 43 41
7.913154 2.245625 26.733629 33 43 26
7.960978 2.244034 26.714691 38 27 22
