ply
format ascii 1.0
element vertex 1289
property float x
property float y
property float z
property uchar red
property uchar green
property uchar blue
end_header
8.322777 1.541255 25.687582 21 24 33
8.352975 1.537357 25.622623 24 19 16
8.376858 1.532352 25.539202 42 33 31
8.408777 1.528869 25.481142 28 38 19
8.429925 1.523480 25.391340 37 42 34
8.457241 1.519265 25.321081 17 29 16
4.704709 1.676391 27.038559 32 21 40
4.743042 1.670844 26.949104 43 16 22
4.777616 1.664113 26.840538 44 18 28
4.818578 1.659732 26.769878 32 23 19
4.859567 1.655457 26.700916 34 31 21
4.907155 1.653498 26.669321 38 39 32
4.958971 1.652990 26.661135 38 32 42
5.010732 1.652475 26.652828 30 33 22
5.065288 1.652883 26.659409 37 24 20
5.116177 1.652099 26.646755 38 43 25
5.165437 1.650810 26.625965 40 22 23
5.211609 1.648570 26.589840 36 43 19
5.254462 1.645336 26.537685 34 25 24
5.298854 1.642645 26.494270 26 25 41
5.337401 1.638212 26.422775 29 36 29
5.378295 1.634580 26.364189 24 16 43
5.418394 1.630779 26.302885 23 15 40
5.455803 1.626249 26.229820 34 27 40
5.498747 1.623440 26.184509 120 120 120
5.533463 1.618277 26.101240 120 120 120
5.568136 1.613198 26.019329 120 120 120
5.604206 1.608615 25.945396 25 29 19
5.640765 1.604254 25.875071 25 18 39
5.685901 1.602390 25.845003 17 21 41
5.735266 1.601741 25.834534 24 24 17
5.790729 1.602791 25.851467 39 18 40
5.849556 1.604745 25.882992 25 30 19
5.905947 1.606003 25.903275 25 38 39
5.959729 1.606536 25.911865 35 23 16
6.014932 1.607439 25.926430 27 42 29
6.069836 1.608247 25.939470 24 40 33
6.124529 1.608986 25.951395 38 33 18
6.179846 1.609876 25.965738 34 39 32
6.233826 1.610405 25.974274 15 31 27
6.286542 1.610602 25.977446 26 26 42
6.336559 1.610109 25.969505 41 34 41
6.386926 1.609713 25.963116 39 21 32
6.440240 1.610060 25.968708 24 33 24
6.495091 1.610783 25.980364 33 16 43
6.553645 1.612405 26.006529 29 16 34
6.612670 1.614116 26.034136 44 19 37
6.672172 1.615917 26.063171 23 33 31
6.731709 1.617697 26.091894 32 40 19
6.787747 1.618617 26.106718 30 23 15
6.843841 1.619535 26.121531 20 20 42
6.898265 1.620047 26.129793 30 41 38
6.950829 1.620118 26.130938 35 35 26
7.002763 1.620042 26.129711 22 20 37
7.053588 1.619713 26.124399 21 28 37
7.103041 1.619076 26.114122 32 42 27
7.152617 1.618475 26.104443 39 29 28
7.201904 1.617819 26.093857 22 43 22
7.251070 1.617145 26.082985 17 25 38
7.301600 1.616783 26.077143 31 15 30
7.349996 1.615956 26.063814 18 43 26
7.398126 1.615084 26.049738 44 21 20
7.446077 1.614184 26.035233 15 32 40
7.493821 1.613253 26.020212 38 42 43
7.543539 1.612757 26.012205 32 41 30
7.592424 1.612090 26.001453 33 27 27
7.642564 1.611697 25.995115 17 34 29
7.692425 1.611251 25.987923 41 43 43
7.740437 1.610426 25.974621 43 41 34
7.789042 1.609735 25.963474 39 25 34
7.835623 1.608638 25.945770 41 26 29
7.883778 1.607876 25.933479 41 21 44
7.930853 1.606905 25.917820 17 37 39
7.975276 1.605413 25.893753 17 25 15
8.021182 1.604236 25.874781 33 36 20
8.061539 1.601972 25.838264 34 25 21
8.103131 1.599981 25.806150 30 19 43
8.143013 1.597680 25.769028 37 16 25
8.179962 1.594835 25.723150 34 20 36
8.221599 1.592935 25.692495 27 42 38
8.254135 1.589305 25.633959 25 26 32
8.289303 1.586225 25.584269 22 42 21
8.321029 1.582527 25.524630 43 32 26
8.345113 1.577430 25.442417 36 28 21
8.375959 1.573665 25.381695 44 17 22
8.396364 1.567996 25.290253 20 33 32
8.423698 1.563680 25.220652 16 24 26
4.650461 1.730404 27.037561 34 31 25
4.689269 1.724789 26.949821 40 30 30
4.726961 1.718895 26.857733 27 28 43
4.761869 1.712133 26.752075 17 35 20
4.803703 1.707983 26.687239 30 32 20
4.846050 1.704106 26.626650 34 31 37
4.894658 1.702490 26.601404 32 40 29
4.947463 1.702353 26.599266 34 32 40
5.000481 1.702291 26.598303 23 34 22
5.055799 1.703006 26.609470 41 21 37
5.107021 1.702340 26.599070 40 33 15
5.155832 1.700893 26.576456 35 44 26
5.201267 1.698373 26.537075 29 33 33
5.243833 1.694976 26.484003 38 29 20
5.288230 1.692234 26.441151 25 43 36
5.326526 1.687612 26.368938 34 41 20
5.366934 1.683744 26.308500 16 34 36
5.406513 1.679693 26.245209 37 24 30
5.443350 1.674877 26.169950 17 40 34
5.485878 1.671887 26.123228 120 120 120
5.521127 1.666755 26.043053 120 120 120
5.557218 1.661972 25.968307 120 120 120
5.594741 1.657701 25.901579 25 34 30
5.631917 1.653407 25.834482 31 41 29
5.676746 1.651417 25.803391 37 44 43
5.725473 1.650587 25.790421 20 15 16
5.780254 1.651501 25.804705 41 40 33
5.838250 1.653310 25.832966 31 22 23
5.893747 1.654385 25.849766 16 20 34
5.946915 1.654794 25.856153 15 26 24
6.001649 1.655627 25.869175 37 44 40
6.056419 1.656456 25.882132 40 22 20
6.111197 1.657274 25.894903 30 38 34
6.166538 1.658229 25.909822 38 16 40
6.220522 1.658806 25.918840 29 31 42
6.273351 1.659068 25.922939 21 24 18
6.323472 1.658616 25.915869 23 31 31
6.373966 1.658268 25.910433 29 29 22
6.427422 1.658689 25.917023 44 21 37
6.482304 1.659470 25.929216 31 41 17
6.540981 1.661202 25.956274 39 40 23
6.600130 1.663025 25.984764 25 26 38
6.659713 1.664928 26.014503 36 34 31
6.719305 1.666804 26.043818 29 43 33
6.775267 1.667758 26.058720 30 35 40
6.831363 1.668730 26.073906 39 19 44
6.885919 1.669314 26.083025 16 31 35
6.938474 1.669407 26.084490 30 15 30
6.990136 1.669286 26.082596 21 36 27
7.040534 1.668867 26.076054 42 44 26
7.089267 1.668063 26.063480 21 17 19
7.138175 1.667311 26.051733 28 18 18
7.186748 1.666492 26.038942 20 21 33
7.235169 1.665650 26.025787 35 40 33
7.285243 1.665198 26.018726 36 33 20
7.332877 1.664199 26.003111 33 31 28
7.380328 1.663172 25.987070 36 22 33
7.427522 1.662103 25.970358 16 20 25
7.474231 1.660940 25.952192 32 30 44
7.523136 1.660278 25.941849 28 37 42
7.571115 1.659422 25.928474 39 18 19
7.620728 1.658934 25.920843 21 40 39
7.670128 1.658406 25.912594 18 44 33
7.717368 1.657421 25.897207 27 28 42
7.765330 1.656604 25.884434 38 34 21
7.811031 1.655318 25.864340 37 40 25
7.858397 1.654399 25.849989 44 22 33
7.904827 1.653297 25.832767 35 35 34
7.948773 1.651693 25.807703 31 31 17
7.994550 1.650488 25.788870 44 27 24
8.034655 1.648134 25.752098 26 28 38
8.075888 1.646041 25.719389 42 23 19
8.115407 1.643627 25.681667 29 34 22
8.151859 1.640626 25.634777 32 15 20
8.193018 1.638604 25.603180 29 37 39
8.226241 1.635029 25.547331 37 29 43
8.263149 1.632227 25.503548 28 25 33
8.296587 1.628778 25.449654 29 20 18
8.321200 1.623649 25.369513 28 23 33
8.351401 1.619666 25.307276 15 34 21
8.371160 1.613718 25.214336 23 18 29
8.397972 1.609192 25.143629 24 31 21
8.424880 1.604739 25.074049 41 19 15
4.596857 1.784662 27.040335 44 15 17
4.635685 1.778809 26.951656 25 36 32
4.673920 1.772866 26.861607 33 39 17
4.711374 1.766765 26.769173 35 38 44
4.747007 1.760126 26.668577 19 40 23
4.789961 1.756319 26.610897 41 19 27
4.833808 1.752919 26.559383 15 22 34
4.883515 1.751696 26.540842 43 31 36
4.937096 1.751873 26.543528 32 24 28
4.990675 1.752046 26.546144 22 33 16
5.045918 1.752792 26.557461 33 37 27
5.096867 1.752048 26.546185 43 16 23
5.145256 1.750448 26.521938 19 21 40
5.190219 1.747727 26.480707 33 33 34
5.232534 1.744178 26.426939 39 26 32
5.276898 1.741376 26.384491 33 21 20
5.315007 1.736586 26.311916 37 38 29
5.355186 1.732560 26.250910 28 31 35
5.394346 1.728286 26.186148 38 22 42
5.430239 1.723057 26.106918 40 38 18
5.471740 1.719690 26.055902 120 120 120
5.507204 1.714507 25.977379 120 120 120
5.544906 1.710111 25.910776 120 120 120
5.584287 1.706310 25.853182 18 16 44
5.622449 1.702209 25.791050 19 17 34
5.667223 1.700167 25.760103 40 25 33
5.715289 1.699140 25.744543 17 37 16
5.768928 1.699773 25.754141 25 33 25
5.825718 1.701316 25.777515 36 38 41
5.880593 1.702277 25.792074 26 44 36
5.933806 1.702744 25.799156 29 18 25
5.988540 1.703636 25.812674 39 31 27
6.043188 1.704489 25.825588 28 42 20
6.097852 1.705332 25.838358 21 18 18
6.153095 1.706321 25.853342 31 32 26
6.206995 1.706924 25.862478 44 17 34
6.259816 1.707223 25.867010 26 30 23
6.309968 1.706795 25.860523 29 28 33
6.360494 1.706474 25.855665 35 40 35
6.413940 1.706936 25.862663 15 27 37
6.468722 1.707743 25.874887 27 30 37
6.527355 1.709545 25.902201 44 23 20
6.586487 1.711449 25.931049 37 26 44
6.646040 1.713432 25.961092 30 35 40
6.705538 1.715370 25.990458 30 35 40
6.761347 1.716342 26.005180 30 35 40
6.817415 1.717364 26.020666 30 35 40
6.872090 1.718022 26.030643 30 35 40
6.924710 1.718161 26.032743 17 15 32
6.976180 1.718015 26.030523 26 16 23
7.026219 1.717520 26.023033 35 20 17
7.074393 1.716581 26.008799 17 37 26
7.122771 1.715704 25.995514 20 22 43
7.170783 1.714752 25.981098 42 20 29
7.218623 1.713774 25.966270 31 24 20
7.268323 1.713248 25.958298 34 20 30
7.315354 1.712104 25.940971 16 34 44
7.362239 1.710943 25.923378 42 31 26
7.408818 1.709727 25.904957 39 44 40
7.454740 1.708378 25.884514 25 25 32
7.503042 1.707589 25.872559 44 15 22
7.550371 1.706591 25.857433 24 19 38
7.599621 1.706037 25.849052 40 35 34
7.648696 1.705452 25.840189 41 31 25
7.695373 1.704344 25.823400 26 37 15
7.742836 1.703424 25.809452 41 37 35
7.787878 1.701986 25.787674 30 32 15
7.834661 1.700946 25.771912 23 24 17
7.880595 1.699736 25.753578 37 32 21
7.924115 1.698025 25.727646 37 44 19
7.969687 1.696772 25.708668 40 38 44
8.009463 1.694310 25.671356 44 19 42
8.050375 1.692117 25.638138 37 26 16
8.089472 1.689573 25.599594 31 21 34
8.125076 1.686336 25.550552 42 41 42
8.165359 1.684105 25.516747 38 38 16
8.198880 1.680516 25.462360 22 21 41
8.237384 1.677986 25.424025 27 42 41
8.272537 1.674808 25.375881 28 34 39
8.297818 1.669683 25.298225 29 21 15
8.327601 1.665520 25.235155 23 17 25
8.346781 1.659300 25.140907 31 30 25
8.372743 1.654494 25.068092 43 44 28
8.399300 1.649863 24.997917 40 28 40
8.419431 1.644031 24.909559 27 25 24
4.576779 1.830711 26.922228 44 36 20
4.615239 1.824629 26.832787 32 28 27
4.652732 1.818309 26.739841 30 33 18
4.689881 1.811999 26.647051 20 44 22
4.726244 1.805531 26.551933 34 24 21
4.770371 1.802140 26.502064 25 22 42
4.815923 1.799356 26.461115 23 16 38
4.867103 1.798712 26.451647 44 28 26
4.921620 1.799302 26.460325 29 40 32
4.975293 1.799574 26.464323 41 40 18
5.029612 1.800071 26.471640 22 20 38
5.079961 1.799153 26.458130 34 39 37
5.128365 1.797571 26.434872 42 34 21
5.173533 1.794899 26.395575 40 24 37
5.215968 1.791343 26.343275 35 16 17
5.260334 1.788513 26.301668 36 16 18
5.298334 1.783597 26.229374 21 36 30
5.338281 1.779427 26.168043 26 35 35
5.377088 1.774961 26.102371 32 41 15
5.412396 1.769437 26.021133 31 39 35
5.453274 1.765822 25.967974 120 120 120
5.488937 1.760602 25.891211 120 120 120
5.527626 1.756442 25.830027 120 120 120
5.568190 1.752949 25.778656 18 33 41
5.607231 1.749045 25.721243 41 19 40
5.652263 1.747063 25.692104 15 29 28
5.699706 1.745856 25.674351 26 42 41
5.751836 1.746093 25.677839 32 21 35
5.806969 1.747230 25.694555 24 24 21
5.860987 1.748014 25.706085 30 35 40
5.914210 1.748549 25.713957 34 18 33
5.968854 1.749492 25.727818 31 41 18
6.023243 1.750344 25.740356 37 32 22
6.077643 1.751185 25.752726 42 17 28
6.132595 1.752170 25.767206 17 22 34
6.186238 1.752768 25.775993 30 25 21
6.238832 1.753060 25.780296 29 42 26
6.288852 1.752631 25.773985 42 36 44
6.339223 1.752306 25.769199 39 30 31
6.392352 1.752742 25.775612 38 18 44
6.446767 1.753521 25.787069 38 19 32
6.504999 1.755317 25.813490 35 31 44
6.563823 1.757244 25.841824 18 31 30
6.623104 1.759262 25.871502 30 35 40
6.682256 1.761215 25.900215 30 35 40
6.737760 1.762183 25.914463 30 35 40
6.793730 1.763258 25.930267 30 35 40
6.848568 1.764025 25.941544 30 35 40
6.901345 1.764254 25.944906 43 34 32
6.952726 1.764124 25.943007 42 31 39
7.002463 1.763583 25.935047 18 41 30
7.050217 1.762554 25.919914 20 33 44
7.098198 1.761597 25.905832 35 25 34
7.145802 1.760560 25.890587 36 36 44
7.193281 1.759508 25.875111 19 24 15
7.242744 1.758952 25.866941 33 42 37
7.289425 1.757734 25.849026 44 42 22
7.335923 1.756489 25.830713 26 36 31
7.382109 1.755187 25.811569 16 17 21
7.427622 1.753744 25.790354 20 17 37
7.475604 1.752900 25.777946 24 40 34
7.522749 1.751873 25.762840 26 40 30
7.571991 1.751345 25.755070 16 40 30
7.621071 1.750787 25.746861 31 17 41
7.667594 1.749652 25.730183 39 40 37
7.714778 1.748683 25.715927 27 39 42
7.759385 1.747146 25.693329 37 20 33
7.805711 1.746014 25.676680 17 30 19
7.851153 1.744701 25.657362 20 41 15
7.894217 1.742879 25.630573 16 29 36
7.939478 1.741563 25.611219 39 32 40
7.978680 1.738943 25.572693 33 19 34
8.018961 1.736590 25.538094 18 28 44
8.057340 1.733858 25.497911 29 22 21
8.091871 1.730337 25.446136 33 35 28
8.131214 1.727883 25.410044 26 31 30
8.164872 1.724259 25.356745 32 36 42
8.204745 1.721983 25.323286 27 30 31
8.241375 1.719060 25.280291 33 36 31
8.267063 1.713903 25.204460 22 24 17
8.296236 1.709527 25.140108 30 38 23
8.314651 1.703001 25.044128 37 18 18
8.339639 1.697891 24.968979 42 29 36
8.365781 1.693075 24.898157 32 21 22
8.386977 1.687321 24.813541 25 44 41
4.562891 1.878838 26.840538 26 33 15
4.601036 1.872515 26.750208 29 42 23
4.638166 1.865929 26.656126 36 43 29
4.675278 1.859486 26.564079 16 42 22
4.712176 1.853103 26.472900 16 16 40
4.757043 1.849961 26.428015 15 42 28
4.803659 1.847561 26.393730 20 41 32
4.855882 1.847347 26.390665 43 36 16
4.910905 1.848190 26.402718 26 26 18
4.964006 1.848300 26.404285 31 19 24
5.016929 1.848342 26.404892 19 19 37
5.066485 1.847156 26.387941 43 43 19
5.115212 1.845695 26.367071 33 41 29
5.161064 1.843237 26.331961 41 19 44
5.203830 1.839738 26.281971 16 32 30
5.248191 1.836867 26.240953 34 43 26
5.286209 1.831855 26.169353 18 37 44
5.326158 1.827603 26.108616 38 30 22
5.364869 1.823014 26.043053 18 37 38
5.399957 1.817293 25.961332 42 31 18
5.440537 1.813512 25.907318 120 120 120
5.476139 1.808159 25.830845 120 120 120
5.514985 1.803967 25.770956 120 120 120
5.555856 1.800509 25.721558 44 17 17
5.595428 1.796697 25.667103 27 36 41
5.640924 1.794840 25.640566 30 21 29
5.688064 1.793534 25.621912 30 35 40
5.738980 1.793431 25.620445 30 35 40
5.792800 1.794230 25.631859 30 35 40
5.846336 1.794928 25.641825 30 35 40
5.899827 1.795600 25.651423 30 35 40
5.954578 1.796640 25.666283 30 35 40
6.008755 1.797491 25.678438 30 35 40
6.062829 1.798297 25.689953 29 26 33
6.117449 1.799250 25.703566 24 17 29
6.170816 1.799821 25.711735 41 21 21
6.223093 1.800068 25.715261 15 43 24
6.272912 1.799606 25.708654 42 21 41
6.323035 1.799238 25.703396 37 16 21
6.375743 1.799605 25.708643 40 34 30
6.429742 1.800328 25.718969 15 17 26
6.487463 1.802073 25.743902 43 39 16
6.545883 1.803983 25.771193 30 35 40
6.604813 1.806004 25.800051 30 35 40
6.663559 1.807942 25.827749 30 35 40
6.718782 1.808903 25.841469 30 35 40
6.774648 1.810020 25.857433 30 35 40
6.829581 1.810874 25.869625 30 35 40
6.882537 1.811194 25.874199 30 35 40
6.933973 1.811112 25.873035 36 40 27
6.983622 1.810569 25.865265 43 33 44
7.031330 1.809533 25.850477 37 26 24
7.079255 1.808569 25.836697 21 24 35
7.126816 1.807526 25.821796 26 30 38
7.174333 1.806487 25.806953 31 16 33
7.223801 1.805950 25.799288 20 28 34
7.270543 1.804745 25.782068 19 35 27
7.317012 1.803489 25.764126 38 19 17
7.363213 1.802185 25.745501 21 39 36
7.408885 1.800771 25.725294 17 19 30
7.456994 1.799964 25.713774 16 42 33
7.504463 1.799015 25.700214 29 35 15
7.554019 1.798576 25.693943 28 17 43
7.603381 1.798097 25.687099 41 43 31
7.650185 1.797023 25.671761 30 21 44
7.697435 1.796068 25.658115 41 15 24
7.742075 1.794521 25.636009 25 29 42
7.788332 1.793366 25.619513 22 18 24
7.833583 1.791996 25.599943 35 29 19
7.876413 1.790094 25.572771 43 39 28
7.921419 1.788707 25.552963 43 24 43
7.960126 1.785926 25.513224 30 44 30
7.999895 1.783416 25.477373 37 38 41
8.037671 1.780497 25.435669 20 31 18
8.071375 1.776718 25.381681 30 38 33
8.110013 1.774065 25.343790 32 42 39
8.143461 1.770318 25.290253 39 35 44
8.183832 1.768112 25.258741 16 44 18
8.221065 1.765259 25.217991 19 27 23
8.246828 1.759994 25.142769 42 30 39
8.275653 1.755442 25.077738 22 24 19
8.293561 1.748642 24.980606 37 17 24
8.317829 1.743258 24.903681 29 17 23
8.343645 1.738259 24.832277 28 41 29
8.365597 1.732520 24.750286 35 27 18
4.542545 1.923901 26.720852 21 32 15
4.580420 1.917385 26.630348 22 43 33
4.617424 1.910658 26.536921 29 32 22
4.654824 1.904246 26.447863 22 39 42
4.692547 1.898109 26.362623 31 38 33
4.738285 1.895314 26.323803 23 19 17
4.785934 1.893337 26.296341 36 42 23
4.838989 1.893518 26.298855 31 42 17
4.894141 1.894506 26.312588 32 28 18
4.946206 1.894292 26.309608 21 36 17
4.997330 1.893725 26.301737 23 39 19
5.045806 1.892177 26.280241 20 35 34
5.094816 1.890859 26.261936 23 41 41
5.141466 1.888702 26.231968 17 18 23
5.184681 1.885338 26.185255 27 41 17
5.229137 1.882489 26.145683 22 29 40
5.267379 1.877482 26.076136 42 19 28
5.307468 1.873224 26.017002 42 39 39
5.346247 1.868591 25.952658 25 30 44
5.381372 1.862782 25.871979 25 29 29
5.421820 1.858910 25.818190 120 120 120
5.457513 1.853495 25.742987 120 120 120
5.496529 1.849299 25.684715 120 120 120
5.537647 1.845882 25.637255 22 30 23
5.577655 1.842161 25.585575 37 29 17
5.623474 1.840410 25.561245 30 35 40
5.670317 1.839022 25.541969 30 35 40
5.720195 1.838634 25.536587 30 35 40
5.772855 1.839140 25.543608 30 35 40
5.825876 1.839750 25.552088 30 35 40
5.879439 1.840520 25.562778 30 35 40
5.934039 1.841598 25.577755 30 35 40
5.987823 1.842407 25.588987 30 35 40
6.041367 1.843129 25.599012 30 35 40
6.095381 1.843981 25.610844 23 31 39
6.148235 1.844471 25.617647 32 17 35
6.199897 1.844597 25.619410 20 26 41
6.249299 1.844055 25.611881 28 17 32
6.298933 1.843590 25.605419 25 30 34
6.350828 1.843789 25.608177 43 18 22
6.404068 1.844372 25.616272 41 44 31
6.460830 1.845952 25.638216 15 31 31
6.518476 1.847757 25.663290 27 36 21
6.576738 1.849708 25.690384 30 35 40
6.634759 1.851561 25.716122 30 35 40
6.689514 1.852481 25.728901 30 35 40
6.745142 1.853627 25.744818 30 35 40
6.800076 1.854566 25.757862 30 35 40
6.853212 1.855005 25.763956 27 22 18
6.904828 1.855028 25.764282 29 24 38
6.954523 1.854540 25.757494 36 40 35
7.002448 1.853589 25.744295 43 17 38
7.050514 1.852690 25.731802 15 33 37
7.098227 1.851711 25.718214 32 44 25
7.145997 1.850762 25.705027 31 31 22
7.195571 1.850290 25.698467 17 17 27
7.242510 1.849151 25.682659 15 29 17
7.288984 1.847912 25.665438 19 21 43
7.335256 1.846638 25.647747 41 25 35
7.381261 1.845315 25.629379 30 16 40
7.429663 1.844606 25.619526 38 32 30
7.477709 1.843819 25.608591 17 32 28
7.527715 1.843522 25.604473 19 37 23
7.577530 1.843183 25.599764 20 37 36
7.624909 1.842260 25.586945 36 21 42
7.672440 1.841385 25.574799 39 41 26
7.717443 1.839920 25.554447 39 42 15
7.763932 1.838826 25.539251 15 21 28
7.809198 1.837458 25.520254 23 15 25
7.851878 1.835504 25.493111 40 35 24
7.896512 1.834029 25.472620 38 27 44
7.934634 1.831069 25.431519 27 17 36
7.973876 1.828405 25.394510 30 19 29
8.011011 1.825294 25.351301 36 19 22
8.043778 1.821233 25.294901 40 42 30
8.081604 1.818361 25.255013 30 35 18
8.114559 1.814436 25.200495 23 40 41
8.154949 1.812211 25.169596 19 26 28
8.192491 1.809385 25.130341 30 21 36
8.218567 1.804076 25.056606 15 24 26
8.247607 1.799478 24.992748 16 28 32
8.265445 1.792506 24.895918 17 42 41
8.289080 1.786867 24.817604 26 32 44
8.314426 1.781663 24.745316 25 38 31
8.336839 1.775895 24.665203 27 41 21
4.481763 1.974110 26.677158 28 33 15
4.527340 1.970724 26.631411 26 18 25
4.565058 1.964037 26.541037 41 32 34
4.602132 1.957229 26.449036 26 35 30
4.639877 1.950858 26.362940 15 36 42
4.678200 1.944870 26.282024 15 26 17
4.724459 1.942277 26.246992 37 19 34
4.772670 1.940536 26.223463 38 34 44
4.826150 1.940952 26.229074 28 32 15
4.881225 1.941993 26.243143 23 21 24
4.932394 1.941474 26.236139 28 22 40
4.982148 1.940416 26.221834 36 25 25
5.029774 1.938559 26.196741 23 40 22
5.078892 1.937309 26.179853 24 26 22
5.126073 1.935354 26.153435 38 41 17
5.169652 1.932092 26.109354 37 24 35
5.214274 1.929281 26.071369 25 35 41
5.252828 1.924303 26.004099 26 38 19
5.293121 1.920054 25.946672 32 23 44
5.332079 1.915407 25.883879 16 34 40
5.367436 1.909568 25.804979 25 24 43
5.407965 1.905664 25.752216 120 120 120
5.443804 1.900196 25.678322 120 120 120
5.482883 1.895950 25.620951 120 120 120
5.524014 1.892486 25.574139 28 41 43
5.564075 1.888723 25.523279 42 43 22
5.609862 1.886954 25.499374 30 35 40
5.656549 1.885516 25.479950 30 35 40
5.706139 1.885064 25.473835 30 35 40
5.758460 1.885513 25.479912 30 35 40
5.811195 1.886089 25.487696 30 35 40
5.864581 1.886865 25.498180 30 35 40
5.918835 1.887904 25.512220 30 35 40
5.972239 1.888657 25.522390 30 35 40
6.025319 1.889295 25.531013 30 35 40
6.078762 1.890035 25.541018 30 40 41
6.131146 1.890437 25.546440 24 22 16
6.182205 1.890426 25.546301 38 40 39
6.231175 1.889783 25.537603 19 36 20
6.280322 1.889203 25.529764 31 21 41
6.331454 1.889224 25.530058 26 19 21
6.384015 1.889668 25.536058 16 30 32
6.439896 1.891081 25.555143 19 15 37
6.496829 1.892777 25.578066 39 17 44
6.554487 1.894656 25.603466 30 35 40
6.611858 1.896424 25.627357 30 35 40
6.666220 1.897309 25.639307 30 35 40
6.721647 1.898480 25.655140 30 35 40
6.776562 1.899491 25.668795 30 35 40
6.829862 1.900037 25.676174 27 44 38
6.881717 1.900175 25.678047 33 22 37
6.931568 1.899763 25.672476 20 32 36
6.979856 1.898931 25.661236 20 34 18
7.028188 1.898124 25.650320 30 20 27
7.076176 1.897236 25.638319 17 35 38
7.124293 1.896395 25.626955 38 40 42
7.174019 1.895991 25.621496 40 44 23
7.221210 1.894927 25.607128 29 27 30
7.267753 1.893710 25.590681 41 36 44
7.314126 1.892466 25.573868 19 35 42
7.360490 1.891237 25.557257 44 30 41
7.409186 1.890620 25.548916 41 16 27
7.457762 1.889981 25.540281 43 38 26
7.508142 1.889805 25.537899 28 16 19
7.558357 1.889589 25.534990 29 16 19
7.606358 1.888827 25.524693 24 18 28
7.654291 1.888058 25.514303 38 26 33
7.699861 1.886721 25.496229 36 28 40
7.746782 1.885730 25.482836 40 31 17
7.792285 1.884409 25.464985 34 37 42
7.835044 1.882446 25.438456 29 19 37
7.879466 1.880905 25.417631 21 16 29
7.917327 1.877827 25.376047 33 32 19
7.956389 1.875073 25.338820 26 44 43
7.993237 1.871834 25.295053 36 34 21
8.025523 1.867575 25.237494 36 28 23
8.062863 1.864537 25.196445 42 38 30
8.095304 1.860411 25.140696 18 24 29
8.135222 1.858045 25.108711 32 15 42
8.172615 1.855133 25.069370 44 15 19
8.199102 1.849797 24.997263 34 30 39
8.228820 1.845251 24.935820 28 39 34
8.247071 1.838202 24.840574 27 25 20
8.270488 1.832384 24.761940 24 17 30
8.295419 1.826967 24.688747 27 32 22
8.317668 1.821028 24.608486 38 33 18
8.352311 1.817856 24.565620 17 20 30
4.467485 2.021005 26.592171 31 43 27
4.512645 2.017418 26.544973 28 16 18
4.550418 2.010650 26.455917 28 44 23
4.587935 2.003926 26.367443 25 33 15
4.626338 1.997737 26.286009 26 27 34
4.665339 1.991943 26.209770 15 23 25
4.711974 1.989500 26.177635 17 29 34
4.760242 1.987793 26.155176 18 35 35
4.813373 1.988132 26.159636 21 17 39
4.867716 1.988959 26.170517 36 18 21
4.917864 1.988073 26.158852 33 37 24
4.966644 1.986658 26.140232 15 35 17
5.013635 1.984564 26.112680 28 22 32
5.062727 1.983336 26.096533 15 18 44
5.110246 1.981524 26.072685 33 15 44
5.154099 1.978341 26.030804 44 29 25
5.198889 1.975578 25.994446 39 21 17
5.237817 1.970664 25.929789 30 39 15
5.278393 1.966460 25.874475 31 23 37
5.317652 1.961852 25.813847 18 37 29
5.353464 1.956073 25.737806 20 32 44
5.394266 1.952211 25.686981 120 120 120
5.430372 1.946737 25.614964 120 120 120
5.469493 1.942437 25.558380 120 120 120
5.510545 1.938896 25.511784 41 26 26
5.550565 1.935060 25.461309 20 17 39
5.596238 1.933246 25.437445 30 35 40
5.642901 1.931804 25.418472 30 35 40
5.692567 1.931407 25.413244 30 35 40
5.744895 1.931912 25.419889 30 35 40
5.797478 1.932493 25.427534 30 35 40
5.850589 1.933238 25.437344 30 35 40
5.904429 1.934210 25.450127 30 35 40
5.957473 1.934906 25.459288 30 35 40
6.010117 1.935461 25.466599 30 35 40
6.062984 1.936079 25.474722 27 30 19
6.114893 1.936383 25.478720 24 43 42
6.165339 1.936222 25.476606 43 17 15
6.213881 1.935471 25.466726 42 17 22
6.262541 1.934769 25.457483 34 38 18
6.312882 1.934593 25.455168 29 41 34
6.364729 1.934878 25.458916 18 19 43
6.419688 1.936096 25.474951 34 37 39
6.475847 1.937655 25.495461 29 17 34
6.532836 1.939436 25.518892 43 33 39
6.589536 1.941104 25.540836 39 34 24
6.643519 1.941952 25.551996 30 35 40
6.698655 1.943121 25.567387 32 21 31
6.753347 1.944145 25.580858 21 37 34
6.806657 1.944759 25.588936 28 16 43
6.858705 1.945006 25.592182 21 19 43
6.908814 1.944703 25.588200 23 38 35
6.957586 1.944031 25.579359 18 42 18
7.006281 1.943348 25.570368 30 29 32
7.054615 1.942575 25.560198 23 38 40
7.103161 1.941871 25.550940 16 38 35
7.153058 1.941544 25.546635 32 37 20
7.200507 1.940562 25.533714 29 18 34
7.247124 1.939371 25.518044 22 36 39
7.293603 1.938160 25.502110 15 36 32
7.340345 1.937036 25.487310 17 35 15
7.389375 1.936526 25.480604 23 20 39
7.438491 1.936046 25.474285 44 29 23
7.489206 1.935985 25.473490 22 30 28
7.539789 1.935892 25.472260 20 38 43
7.588367 1.935288 25.464319 30 17 18
7.636685 1.934627 25.455616 22 42 41
7.682865 1.933436 25.439951 43 19 18
7.730328 1.932582 25.428709 39 25 33
7.776148 1.931331 25.412249 35 29 17
7.818980 1.929359 25.386299 19 22 27
7.863103 1.927728 25.364847 20 15 31
7.900647 1.924517 25.322588 44 33 38
7.939537 1.921671 25.285151 19 37 35
7.976165 1.918318 25.241030 30 42 38
8.008087 1.913883 25.182665 33 41 36
8.045079 1.910706 25.140871 37 43 43
8.076943 1.906359 25.083675 21 19 24
8.116051 1.903765 25.049541 26 35 36
8.152988 1.900697 25.009165 41 22 35
8.179900 1.895343 24.938719 33 29 29
8.210555 1.890916 24.880468 27 40 40
8.229511 1.883864 24.787683 28 25 26
8.252963 1.877920 24.709469 19 37 38
8.277575 1.872309 24.635639 41 28 43
8.299488 1.866157 24.554699 33 27 37
8.333752 1.862839 24.511034 18 34 35
4.449173 2.065688 26.483173 41 37 21
4.493888 2.061902 26.434635 37 25 30
4.531904 2.055166 26.348278 35 26 32
4.570176 2.048700 26.265381 32 15 42
4.609584 2.042884 26.190821 38 15 20
4.649642 2.037484 26.121584 30 15 16
4.696882 2.035316 26.093790 34 25 38
4.744935 2.033544 26.071074 22 32 19
4.796902 2.033469 26.070122 22 30 20
4.849684 2.033738 26.073570 37 36 15
4.898633 2.032412 26.056561 25 38 22
4.946801 2.030792 26.035797 27 26 34
4.993389 2.028564 26.007236 21 41 24
5.042369 2.027344 25.991590 21 16 15
5.090050 2.025632 25.969641 23 37 15
5.134064 2.022510 25.929615 42 39 17
5.178957 2.019793 25.894785 36 21 41
5.218235 2.014962 25.832848 16 39 17
5.259092 2.010829 25.779863 32 19 40
5.298703 2.006305 25.721857 39 34 20
5.335044 2.000642 25.649252 39 41 27
5.376181 1.996867 25.600863 120 120 120
5.412738 1.991479 25.531784 120 120 120
5.452103 1.987215 25.477118 120 120 120
5.493293 1.983689 25.431913 25 40 23
5.533556 1.979896 25.383284 30 35 40
5.579292 1.978112 25.360416 30 35 40
5.625975 1.976694 25.342230 30 35 40
5.675538 1.976303 25.337221 30 35 40
5.727653 1.976801 25.343599 30 35 40
5.780024 1.977377 25.350983 30 35 40
5.832907 1.978116 25.360466 30 35 40
5.886384 1.979043 25.372347 30 35 40
5.939081 1.979694 25.380688 30 35 40
5.991287 1.980171 25.386808 30 35 40
6.043573 1.980667 25.393162 30 35 40
6.094967 1.980864 25.395695 36 36 16
6.144793 1.980553 25.391708 39 18 39
6.192950 1.979714 25.380943 43 25 26
6.241135 1.978896 25.370466 20 35 30
6.290659 1.978514 25.365559 23 22 24
6.341736 1.978622 25.366945 32 19 18
6.395668 1.979611 25.379633 33 41 30
6.450959 1.981003 25.397478 43 26 25
6.507198 1.982662 25.418741 33 22 43
6.563187 1.984219 25.438709 26 30 15
6.616797 1.985039 25.449219 18 35 39
6.671511 1.986175 25.463781 41 33 40
6.725746 1.987152 25.476309 17 26 32
6.778806 1.987770 25.484234 31 17 39
6.830919 1.988103 25.488503 19 20 29
6.881269 1.987922 25.486181 25 31 41
6.930498 1.987422 25.479771 21 23 24
6.979498 1.986864 25.472620 26 21 27
7.028113 1.986206 25.464178 44 36 22
7.076988 1.985630 25.456793 28 23 29
7.126981 1.985373 25.453505 35 44 40
7.174589 1.984461 25.441805 30 15 38
7.221162 1.983277 25.426628 16 33 30
7.267648 1.982086 25.411356 41 30 41
7.314693 1.981063 25.398241 27 19 35
7.364009 1.980665 25.393135 27 29 21
7.413606 1.980347 25.389061 42 22 34
7.464635 1.980413 25.389914 44 39 28
7.515509 1.980438 25.390232 40 25 33
7.564487 1.979966 25.384186 18 16 23
7.612982 1.979375 25.376606 35 41 19
7.659536 1.978291 25.362703 24 31 29
7.707436 1.977566 25.353409 30 19 27
7.753462 1.976373 25.338110 40 19 23
7.796094 1.974336 25.311995 30 41 37
7.839657 1.972559 25.289215 22 26 42
7.876532 1.969133 25.245295 18 18 36
7.914956 1.966136 25.206867 36 39 18
7.951119 1.962618 25.161770 35 34 28
7.982480 1.957967 25.102139 33 36 16
8.019031 1.954639 25.059471 17 34 40
8.050323 1.950078 25.001003 31 39 39
8.088721 1.947285 24.965187 23 19 29
8.125320 1.944095 24.924295 26 29 42
8.152679 1.938747 24.855730 35 18 21
8.184214 1.934451 24.800650 25 42 28
8.203859 1.927413 24.710419 30 27 39
8.227299 1.921345 24.632631 15 24 44
8.251667 1.915566 24.558533 38 42 29
8.273557 1.909282 24.477980 32 44 29
8.307796 1.905906 24.434694 20 26 16
4.437463 2.113078 26.413473 40 40 42
4.481945 2.109150 26.364380 16 17 39
4.520300 2.102465 26.280813 43 29 35
4.559320 2.096239 26.202990 17 26 18
4.599608 2.090731 26.134134 31 26 32
4.640498 2.085617 26.070215 36 32 27
4.688150 2.083622 26.045277 17 22 36
4.735698 2.081626 26.020319 25 16 24
4.786174 2.080945 26.011818 33 28 31
4.837316 2.080566 26.007074 44 32 33
4.885481 2.078928 25.986603 41 33 22
4.933761 2.077373 25.967163 16 43 30
4.980399 2.075166 25.939577 41 25 19
5.029207 2.073900 25.923748 39 26 36
5.076764 2.072149 25.901857 31 22 23
5.120747 2.068989 25.862358 43 29 41
5.165645 2.066258 25.828224 28 28 25
5.205116 2.061432 25.767900 28 38 43
5.246145 2.057312 25.716398 17 33 22
5.286017 2.052822 25.660275 19 33 36
5.322778 2.047222 25.590281 19 16 21
5.364201 2.043505 25.543814 120 120 120
5.401171 2.038178 25.477221 120 120 120
5.440787 2.033939 25.424240 120 120 120
5.482160 2.030430 25.380371 19 33 19
5.522696 2.026678 25.333469 27 35 43
5.568555 2.024929 25.311613 30 35 40
5.615339 2.023546 25.294319 30 35 40
5.664878 2.023171 25.289633 30 35 40
5.716890 2.023678 25.295975 30 35 40
5.769171 2.024270 25.303381 30 35 40
5.821930 2.025019 25.312740 30 35 40
5.875237 2.025944 25.324299 30 35 40
5.927768 2.026587 25.332342 30 35 40
5.979764 2.027039 25.337982 30 35 40
6.031746 2.027478 25.343472 33 28 35
6.082859 2.027620 25.345247 15 37 28
6.132365 2.027228 25.340353 28 38 38
6.180346 2.026343 25.329288 22 42 23
6.228298 2.025463 25.318283 30 37 22
6.277387 2.024964 25.312046 18 33 40
6.328014 2.024965 25.312057 16 30 38
6.381346 2.025824 25.322803 18 26 37
6.436112 2.027122 25.339022 34 25 28
6.491893 2.028716 25.358955 23 22 20
6.547486 2.030228 25.377853 39 15 31
6.600928 2.031055 25.388184 23 36 22
6.655314 2.032157 25.401962 21 21 27
6.709072 2.033052 25.413153 23 37 23
6.761768 2.033615 25.420181 16 34 30
6.813799 2.033970 25.424623 20 27 16
6.864307 2.033869 25.423361 41 41 19
6.913787 2.033467 25.418333 36 37 40
6.962943 2.032976 25.412199 30 19 35
7.011683 2.032372 25.404650 25 15 35
7.060697 2.031855 25.398191 26 27 42
7.110698 2.031628 25.395350 43 25 22
7.158319 2.030729 25.384111 35 22 34
7.204804 2.029522 25.369028 27 17 39
7.251223 2.028314 25.353928 44 37 20
7.298369 2.027325 25.341558 37 32 32
7.347812 2.026983 25.337284 42 19 29
7.397618 2.026745 25.334307 24 41 18
7.448778 2.026878 25.335979 27 32 26
7.499739 2.026956 25.336956 40 44 35
7.548774 2.026516 25.331455 33 36 40
7.597206 2.025921 25.324018 23 34 40
7.643821 2.024853 25.310667 20 26 35
7.691913 2.024188 25.302345 31 42 44
7.737990 2.023004 25.287550 36 30 15
7.780337 2.020867 25.260834 18 21 39
7.823405 2.018943 25.236790 16 39 25
7.859688 2.015305 25.191309 19 28 26
7.897675 2.012147 25.151833 20 30 32
7.933463 2.008472 25.105896 38 44 24
7.964454 2.003636 25.045454 39 31 40
8.000795 2.000199 25.002485 44 37 41
8.031786 1.995475 24.943434 44 38 40
8.069745 1.992530 24.906620 42 20 29
8.106115 1.989231 24.865383 22 33 31
8.133736 1.983838 24.797976 33 30 15
8.165782 1.979584 24.744795 29 20 42
8.185893 1.972504 24.656305 33 39 16
8.209409 1.966326 24.579069 21 23 17
8.233735 1.960413 24.505163 25 29 29
8.255755 1.954025 24.425312 37 36 31
8.290068 1.950604 24.382553 30 21 28
4.419908 2.157336 26.308979 23 36 31
4.464161 2.153301 26.259769 19 44 29
4.503065 2.146810 26.180611 21 32 37
4.543180 2.141039 26.110229 25 32 17
4.584615 2.136014 26.048946 40 38 32
4.626323 2.131227 25.990578 28 16 22
4.674104 2.129314 25.967243 44 29 28
4.720904 2.127001 25.939034 28 18 18
4.769818 2.125680 25.922926 36 31 44
4.819276 2.124627 25.910088 35 44 38
4.866525 2.122633 25.885773 37 38 33
4.914765 2.121109 25.867182 44 41 16
4.961324 2.118899 25.840229 22 43 43
5.009878 2.117577 25.824114 32 40 28
5.057284 2.115802 25.802469 40 36 36
5.101255 2.112641 25.763916 22 33 19
5.146186 2.109936 25.730928 24 29 21
5.185937 2.105182 25.672956 36 31 28
5.227182 2.101122 25.623442 26 22 41
5.267387 2.096727 25.569839 41 43 26
5.304693 2.091273 25.503330 37 36 32
5.346493 2.087678 25.459492 120 120 120
5.383973 2.082480 25.396101 120 120 120
5.423878 2.078308 25.345222 120 120 120
5.465432 2.074840 25.302927 30 40 33
5.506233 2.071152 25.257948 42 40 28
5.552165 2.069444 25.237116 30 35 40
5.598991 2.068096 25.220678 30 35 40
5.648433 2.067730 25.216217 30 35 40
5.700250 2.068232 25.222347 30 35 40
5.752346 2.068826 25.229586 30 35 40
5.804895 2.069571 25.238676 30 35 40
5.857962 2.070487 25.249838 30 35 40
5.910301 2.071131 25.257698 30 35 40
5.962071 2.071567 25.263014 30 35 40
6.013719 2.071954 25.267729 28 21 29
6.064500 2.072037 25.268749 26 32 40
6.113658 2.071570 25.263050 32 24 15
6.161458 2.070654 25.251877 20 23 26
6.209138 2.069713 25.240400 41 42 30
6.257648 2.069061 25.232452 31 16 27
6.307648 2.068908 25.230591 24 37 27
6.360112 2.069560 25.238539 27 32 32
6.414134 2.070705 25.252495 17 18 43
6.469200 2.072166 25.270313 34 31 42
6.524034 2.073530 25.286955 43 16 37
6.577003 2.074286 25.296165 16 40 26
6.630722 2.075264 25.308100 40 17 32
6.683739 2.076010 25.317194 31 16 23
6.735940 2.076493 25.323082 22 25 42
6.787879 2.076888 25.327908 19 29 19
6.838641 2.076920 25.328299 23 37 32
6.888557 2.076697 25.325577 27 23 41
6.938008 2.076338 25.321196 26 27 15
6.986998 2.075847 25.315208 17 21 21
7.036271 2.075447 25.310326 40 41 30
7.086296 2.075272 25.308201 17 16 28
7.133939 2.074408 25.297657 37 20 15
7.180295 2.073184 25.282728 19 44 22
7.226599 2.071962 25.267830 38 20 18
7.273868 2.071032 25.256487 32 18 16
7.323461 2.070772 25.253315 29 39 16
7.373512 2.070644 25.251753 34 31 30
7.424814 2.070867 25.254471 29 42 35
7.475842 2.071010 25.256222 27 30 41
7.524898 2.070609 25.251335 34 34 42
7.573196 2.070007 25.243986 42 41 18
7.619851 2.068966 25.231295 15 39 44
7.668212 2.068399 25.224382 30 32 32
7.714373 2.067250 25.210369 27 34 22
7.756303 2.064990 25.182802 25 16 33
7.798641 2.062866 25.156906 40 31 31
7.834018 2.058941 25.109034 17 33 29
7.871346 2.055574 25.067980 17 21 37
7.906543 2.051698 25.020704 43 18 40
7.936915 2.046626 24.958851 39 19 38
7.972887 2.043052 24.915272 32 33 24
8.003372 2.038126 24.855192 32 37 23
8.040734 2.035001 24.817080 26 38 15
8.076733 2.031571 24.775253 35 39 40
8.104433 2.026108 24.708637 28 18 37
8.136850 2.021884 24.657122 33 36 40
8.157420 2.014785 24.570543 18 30 32
8.181063 2.008524 24.494200 33 18 25
8.205532 2.002541 24.421227 41 24 21
8.228020 1.996147 24.343254 15 23 27
8.262718 1.992773 24.302111 34 40 42
4.406316 2.203158 26.228069 17 41 18
4.450430 2.199036 26.179001 26 18 15
4.489779 2.192683 26.103367 28 24 21
4.530813 2.187289 26.039156 28 38 26
4.573105 2.182618 25.983551 29 29 31
4.615157 2.177939 25.927851 44 37 20
4.662654 2.175905 25.903633 32 41 26
4.708782 2.173284 25.872427 16 18 36
4.756837 2.171600 25.852377 41 34 35
4.805412 2.170186 25.835550 41 31 20
4.852049 2.167937 25.808769 43 40 36
4.900097 2.166359 25.789986 16 36 23
4.946478 2.164084 25.762905 43 28 31
4.994840 2.162714 25.746599 16 36 24
5.042160 2.160926 25.725306 18 31 29
5.086159 2.157764 25.687672 16 25 22
5.131153 2.155084 25.655764 34 20 32
5.171147 2.150378 25.599737 33 30 31
5.212578 2.146356 25.551855 37 34 23
5.253033 2.142013 25.500158 27 35 37
5.290736 2.136643 25.436232 20 21 41
5.332810 2.133124 25.394331 120 120 120
5.370628 2.127985 25.333153 120 120 120
5.410703 2.123828 25.283661 120 120 120
5.452323 2.120348 25.242237 29 28 24
5.493219 2.116653 25.198252 23 22 27
5.539115 2.114935 25.177794 30 35 40
5.585863 2.113570 25.161543 30 35 40
5.635159 2.113184 25.156958 30 35 40
5.686780 2.113670 25.162743 30 35 40
5.738680 2.114250 25.169647 30 35 40
5.791045 2.114990 25.178455 30 35 40
5.843930 2.115906 25.189352 30 35 40
5.896136 2.116562 25.197161 30 35 40
5.947758 2.116999 25.202366 30 35 40
5.999208 2.117368 25.206757 39 25 27
6.049787 2.117425 25.207445 27 31 24
6.098717 2.116910 25.201311 15 35 31
6.146401 2.115974 25.190168 18 16 21
6.193860 2.114977 25.178293 36 34 25
6.241902 2.114193 25.168959 38 36 23
6.291386 2.113906 25.165545 38 30 27
6.343116 2.114372 25.171097 38 44 29
6.396527 2.115387 25.183176 21 18 40
6.450990 2.116731 25.199181 21 38 22
6.505140 2.117953 25.213720 34 27 29
6.557640 2.118622 25.221693 19 31 17
6.610774 2.119485 25.231962 35 21 35
6.663216 2.120114 25.239456 38 39 26
6.715064 2.120547 25.244602 40 28 23
6.766997 2.120999 25.249989 41 29 37
6.818021 2.121162 25.251928 29 35 40
6.868388 2.121120 25.251425 25 15 16
6.918169 2.120899 25.248793 36 15 17
6.967458 2.120531 25.244413 40 38 20
7.017041 2.120257 25.241154 22 43 40
7.067140 2.120142 25.239784 21 38 27
7.114878 2.119325 25.230062 29 36 30
7.161178 2.118095 25.215414 40 31 20
7.207446 2.116872 25.200859 38 35 44
7.254865 2.116002 25.190504 21 20 25
7.304615 2.115819 25.188326 26 32 31
7.354899 2.115793 25.188011 38 16 33
7.406325 2.116093 25.191582 37 24 20
7.457429 2.116297 25.194016 33 25 20
7.506554 2.115941 25.189777 20 37 44
7.554799 2.115344 25.182665 16 36 42
7.601543 2.114337 25.170673 15 42 39
7.650154 2.113858 25.164982 20 37 23
7.696404 2.112738 25.151648 25 41 30
7.738021 2.110369 25.123446 17 38 25
7.779800 2.108075 25.096130 16 23 19
7.814464 2.103894 25.046358 37 18 20
7.851253 2.100335 25.003990 34 28 41
7.885943 2.096263 24.955517 17 21 38
7.915754 2.090954 24.892307 35 20 25
7.951359 2.087232 24.847998 17 16 38
7.981357 2.082093 24.786823 43 26 33
8.018226 2.078799 24.747612 19 27 44
8.053900 2.075238 24.705214 32 26 22
8.081516 2.069656 24.638767 32 17 22
8.114059 2.065397 24.588057 23 19 18
8.134868 2.058219 24.502613 21 21 38
8.158589 2.051861 24.426914 32 40 38
8.183231 2.045808 24.354855 44 39 19
8.206186 2.039407 24.278658 18 25 17
8.241302 2.036086 24.239124 41 21 40
4.393375 2.248990 26.151043 27 30 44
4.437492 2.244849 26.102896 25 36 37
4.477294 2.238647 26.030777 33 38 38
4.519074 2.233565 25.971691 37 29 26
4.561992 2.229155 25.920406 38 19 15
4.604179 2.224491 25.866177 29 37 18
4.651272 2.222274 25.840401 16 25 44
4.696896 2.219413 25.807123 31 26 25
4.744541 2.217557 25.785547 26 16 37
4.792727 2.215992 25.767351 40 30 20
4.839012 2.213591 25.739428 18 27 32
4.886857 2.211946 25.720303 32 28 20
4.933044 2.209593 25.692938 43 21 28
4.981216 2.208168 25.676369 21 29 27
5.028438 2.206355 25.655294 44 17 17
5.072440 2.203181 25.618383 29 24 30
5.117479 2.200516 25.587397 31 15 37
5.157644 2.195829 25.532890 29 42 39
5.199178 2.191810 25.486168 34 43 42
5.239785 2.187483 25.435848 38 19 39
5.277784 2.182161 25.373960 25 20 40
5.320069 2.178695 25.333660 120 120 120
5.358160 2.173593 25.274338 120 120 120
5.398348 2.169430 25.225927 120 120 120
5.440010 2.165930 25.185230 26 41 35
5.480965 2.162216 25.142042 23 19 21
5.526813 2.160481 25.121876 33 17 23
5.573481 2.159096 25.105772 30 35 40
5.622659 2.158699 25.101156 30 35 40
5.674116 2.159177 25.106707 30 35 40
5.725836 2.159745 25.113316 30 35 40
5.778029 2.160480 25.121864 30 35 40
5.830771 2.161407 25.132635 30 35 40
5.882902 2.162092 25.140608 30 35 40
5.934462 2.162558 25.146027 35 20 22
5.985830 2.162947 25.150547 34 26 33
6.036287 2.163003 25.151196 19 34 28
6.085127 2.162483 25.145151 17 22 24
6.132804 2.161562 25.134443 20 43 38
6.180178 2.160550 25.122673 34 21 32
6.227927 2.159684 25.112608 42 32 34
6.277031 2.159299 25.108124 33 19 22
6.328204 2.159625 25.111921 42 32 34
6.381159 2.160550 25.122673 34 26 39
6.435098 2.161791 25.137102 43 34 28
6.488499 2.162833 25.149221 38 26 34
6.540380 2.163356 25.155306 36 29 42
6.592809 2.164052 25.163393 20 20 42
6.644668 2.164551 25.169195 28 31 20
6.696188 2.164933 25.173637 16 29 25
6.748044 2.165417 25.179270 40 43 29
6.799245 2.165685 25.182388 34 21 35
6.849943 2.165791 25.183615 44 27 30
6.899968 2.165683 25.182364 39 37 16
6.949465 2.165413 25.179222 20 21 27
6.999242 2.165233 25.177130 28 41 36
7.049341 2.165155 25.176216 35 44 16
7.097057 2.164351 25.166870 31 22 34
7.143227 2.163090 25.152208 42 31 25
7.189350 2.161833 25.137589 15 42 20
7.236766 2.160979 25.127661 37 31 17
7.286541 2.160836 25.126003 18 17 40
7.336873 2.160860 25.126276 17 36 31
7.388298 2.161203 25.130266 20 16 16
7.439338 2.161429 25.132898 32 17 23
7.488340 2.161065 25.128658 28 43 44
7.536368 2.160426 25.121227 31 40 33
7.583037 2.159408 25.109394 28 38 28
7.631796 2.158995 25.104591 33 15 15
7.678076 2.157891 25.091753 34 36 35
7.719371 2.155409 25.062893 44 30 32
7.760621 2.152947 25.034262 33 29 19
7.794626 2.148519 24.982775 29 25 20
7.830900 2.144769 24.939173 17 43 30
7.865122 2.140508 24.889627 42 22 24
7.894447 2.134976 24.825304 39 28 34
7.929749 2.131120 24.780466 16 30 38
7.959369 2.125794 24.718536 17 20 41
7.995892 2.122366 24.678679 39 42 41
8.031269 2.118678 24.635794 33 22 31
8.058579 2.112920 24.568838 20 21 20
8.090901 2.108538 24.517881 27 23 20
8.111735 2.101233 24.432938 30 26 39
8.135605 2.094797 24.358099 38 33 21
8.160614 2.088728 24.287540 19 37 19
8.184268 2.082388 24.213812 34 21 19
8.220013 2.079180 24.176508 19 44 43
4.377470 2.292961 26.056372 20 27 34
4.421712 2.288886 26.010069 18 26 15
4.461989 2.282878 25.941797 42 22 18
4.504350 2.278062 25.887068 38 44 41
4.547750 2.273875 25.839491 27 43 42
4.590180 2.269303 25.787529 30 21 38
4.637094 2.267024 25.761635 29 36 34
4.682469 2.264051 25.727854 42 44 22
4.729843 2.262099 25.705667 15 35 16
4.777716 2.260425 25.686644 15 15 30
4.823719 2.257911 25.658077 28 24 28
4.871345 2.256202 25.638659 23 41 25
4.917330 2.253776 25.611092 42 30 15
4.965297 2.252300 25.594316 15 32 38
5.012395 2.250463 25.573442 15 36 24
5.056379 2.247280 25.537270 29 27 18
5.101442 2.244634 25.507208 21 39 21
5.141727 2.239960 25.454092 39 41 28
5.183287 2.235928 25.408272 15 38 34
5.223984 2.231605 25.359144 28 34 29
5.262267 2.226344 25.299362 31 32 24
5.304778 2.222955 25.260847 120 120 120
5.343181 2.217924 25.203682 120 120 120
5.383527 2.213787 25.156668 120 120 120
5.425273 2.210296 25.117004 41 21 43
5.466368 2.206607 25.075081 28 27 36
5.512222 2.204889 25.055553 20 18 17
5.558901 2.203528 25.040092 32 37 18
5.608027 2.203153 25.035833 15 17 30
5.659360 2.203645 25.041416 41 36 37
5.710909 2.204210 25.047846 30 35 40
5.762880 2.204928 25.055998 23 36 17
5.815452 2.205861 25.066603 30 28 22
5.867493 2.206579 25.074759 40 38 38
5.918988 2.207080 25.080458 30 20 27
5.970240 2.207484 25.085043 18 16 25
6.020550 2.207535 25.085625 33 19 38
6.069324 2.207027 25.079849 36 18 39
6.117044 2.206147 25.069853 44 25 26
6.164386 2.205146 25.058479 35 23 38
6.211918 2.204229 25.048056 15 32 29
6.260682 2.203760 25.042728 42 41 18
6.311374 2.203972 25.045134 19 26 30
6.363997 2.204849 25.055105 31 44 39
6.417419 2.205988 25.068043 42 33 23
6.469867 2.206776 25.077005 19 39 19
6.520799 2.207040 25.079998 42 37 37
6.572223 2.207464 25.084820 36 36 40
6.623403 2.207801 25.088646 38 42 32
6.674559 2.208125 25.092325 28 29 15
6.726213 2.208607 25.097811 32 43 39
6.777493 2.208961 25.101828 30 20 33
6.828381 2.209182 25.104342 25 32 21
6.878535 2.209164 25.104141 40 31 19
6.928132 2.208970 25.101927 37 28 29
6.977955 2.208849 25.100559 40 22 17
7.027962 2.208788 25.099863 26 27 21
7.075489 2.207954 25.090385 37 37 17
7.121368 2.206621 25.075241 26 39 37
7.167179 2.205286 25.060066 24 38 24
7.214375 2.204392 25.049913 18 19 33
7.264022 2.204255 25.048351 38 16 22
7.314205 2.204281 25.048649 15 41 19
7.365484 2.204635 25.052666 32 25 42
7.416297 2.204845 25.055058 42 28 41
7.464896 2.204399 25.049988 33 38 36
7.512466 2.203657 25.041553 16 30 37
7.558834 2.202574 25.029251 31 16 24
7.607636 2.202211 25.025120 34 30 33
7.653908 2.201124 25.012772 18 41 29
7.694778 2.198508 24.983046 23 21 18
7.735398 2.195855 24.952898 38 15 25
7.768623 2.191150 24.899431 34 21 44
7.804278 2.187186 24.854387 33 41 26
7.837953 2.182721 24.803648 16 24 26
7.866761 2.176965 24.738243 16 43 38
7.901778 2.172989 24.693056 28 20 36
7.931143 2.167517 24.630880 30 44 23
7.967540 2.164023 24.591173 22 17 23
8.002764 2.160255 24.548355 44 40 32
8.029584 2.154279 24.480440 41 15 29
8.061310 2.149683 24.428211 25 18 41
8.082026 2.142224 24.343452 25 22 34
8.106122 2.135745 24.269825 28 23 35
8.131770 2.129749 24.201696 36 17 38
8.156648 2.123624 24.132095 18 23 24
8.193550 2.120684 24.098677 17 42 26
4.367771 2.339877 25.998638 31 15 27
4.412216 2.335879 25.954212 19 15 43
4.452751 2.329928 25.888086 20 28 24
4.495211 2.325109 25.834547 36 38 32
4.538661 2.320906 25.787846 23 33 28
4.581188 2.316331 25.737009 29 17 24
4.628112 2.314056 25.711735 15 36 43
4.673609 2.311125 25.679169 34 42 40
4.721131 2.309249 25.658323 33 24 37
4.769109 2.307633 25.640369 35 31 43
4.815131 2.305116 25.612398 16 41 23
4.862630 2.303351 25.592789 30 44 43
4.908492 2.300856 25.565063 36 19 32
4.956355 2.299340 25.548220 35 18 16
5.003372 2.297467 25.527407 37 23 29
5.047328 2.294240 25.491556 17 43 37
5.092375 2.291569 25.461874 41 34 32
5.132656 2.286827 25.409189 18 32 42
5.174147 2.282712 25.363464 30 16 30
5.214810 2.278315 25.314613 36 17 19
5.253179 2.273010 25.255669 25 24 25
5.295791 2.269625 25.218052 120 120 120
5.334353 2.264584 25.162043 120 120 120
5.374783 2.260423 25.115808 120 120 120
5.416590 2.256913 25.076807 37 31 25
5.457793 2.253217 25.035746 25 19 24
5.503688 2.251509 25.016762 35 41 31
5.550429 2.250174 25.001930 18 36 22
5.599586 2.249834 24.998152 32 23 43
5.650899 2.250358 25.003979 29 29 28
5.702368 2.250935 25.010387 32 21 41
5.754208 2.251647 25.018295 24 39 33
5.806686 2.252594 25.028818 27 33 23
5.858686 2.253341 25.037121 28 29 42
5.910183 2.253883 25.043150 30 29 41
5.961402 2.254312 25.047907 25 27 38
6.011655 2.254371 25.048563 39 41 40
6.060460 2.253890 25.043224 39 44 24
6.108281 2.253055 25.033939 39 19 42
6.155708 2.252088 25.023203 26 44 34
6.203244 2.251177 25.013081 24 37 27
6.251915 2.250689 25.007658 22 40 40
6.302477 2.250885 25.009830 38 21 35
6.355089 2.251803 25.020037 16 42 43
6.408302 2.252919 25.032429 39 30 35
6.460101 2.253524 25.039150 18 35 31
6.510256 2.253550 25.039448 41 36 23
6.560903 2.253745 25.041615 42 25 16
6.611683 2.253983 25.044252 26 33 34
6.662634 2.254275 25.047497 15 29 18
6.714084 2.254730 25.052553 43 25 30
6.765307 2.255102 25.056692 35 30 37
6.816149 2.255343 25.059372 27 20 31
6.866261 2.255341 25.059347 41 33 32
6.915794 2.255150 25.057226 36 39 37
6.965512 2.255022 25.055799 24 33 44
7.015381 2.254944 25.054934 24 36 36
7.062657 2.254040 25.044884 23 24 15
7.108247 2.252614 25.029039 41 17 20
7.153748 2.251179 25.013105 43 27 44
7.200627 2.250196 25.002176 29 37 16
7.250055 2.250017 25.000189 35 44 20
7.299940 2.249981 24.999794 30 21 21
7.350995 2.250305 25.003386 18 42 34
7.401536 2.250467 25.005188 21 40 17
7.449648 2.249894 24.998819 17 22 42
7.496763 2.249029 24.989210 26 35 41
7.542744 2.247838 24.975973 37 40 30
7.591468 2.247474 24.971933 15 37 41
7.637687 2.246378 24.959761 27 37 35
7.678252 2.243645 24.929388 44 19 43
7.718509 2.240857 24.898417 39 17 37
7.751282 2.235947 24.843851 21 34 31
7.786546 2.231812 24.797916 37 31 20
7.819913 2.227190 24.746559 35 29 40
7.848462 2.221263 24.680698 22 18 17
7.883366 2.217197 24.635519 30 40 27
7.912732 2.211633 24.573702 38 24 19
7.949297 2.208138 24.534868 33 33 21
7.984569 2.204329 24.492542 41 42 16
8.010923 2.198119 24.423546 43 26 39
8.041937 2.193255 24.369505 42 44 29
8.062373 2.185583 24.284256 24 36 43
