ply
format ascii 1.0
element vertex 1256
property float x
property float y
property float z
property uchar red
property uchar green
property uchar blue
end_header
-8.956803 1.766130 31.538040 24 40 39
-8.892566 1.765900 31.533920 42 18 38
-8.831219 1.766244 31.540070 44 41 26
-8.773258 1.767275 31.558481 27 23 25
-8.715724 1.768408 31.578711 22 23 21
-8.659373 1.769799 31.603552 18 40 27
-8.603719 1.771354 31.631321 42 38 22
-8.545255 1.772349 31.649094 44 41 25
-8.488604 1.773738 31.673895 32 27 16
-8.430100 1.774758 31.692106 43 16 19
-8.370943 1.775655 31.708117 17 44 44
-8.312740 1.776769 31.728016 23 35 31
-8.252291 1.777417 31.739582 44 26 42
-8.193040 1.778334 31.755968 15 19 39
-8.131960 1.778866 31.765471 16 22 42
-8.071564 1.779557 31.777811 27 41 19
-8.013788 1.780842 31.800745 21 33 40
-7.955139 1.781951 31.820555 27 34 17
-7.900258 1.783929 31.855879 41 39 16
-7.844477 1.785735 31.888119 41 29 31
-7.788560 1.787538 31.920328 28 18 17
-7.733353 1.789536 31.956005 40 33 43
-7.674279 1.790665 31.976162 36 16 26
-7.615645 1.791916 31.998508 20 33 16
-7.554758 1.792655 32.011688 38 25 41
-7.492253 1.793018 32.018177 15 31 20
-7.429641 1.793362 32.024315 44 25 29
-7.365517 1.793343 32.023987 26 29 22
-7.302543 1.793607 32.028698 20 29 36
-7.239531 1.793866 32.033325 26 20 32
-7.177788 1.794447 32.043697 39 19 39
-7.117309 1.795357 32.059952 23 42 40
-7.056289 1.796146 32.074039 23 17 15
-7.001501 1.798551 32.116978 23 23 28
-6.946577 1.800964 32.160080 120 120 120
-6.895048 1.804312 32.219849 120 120 120
-6.848548 1.809050 32.304470 120 120 120
-6.797959 1.812789 32.371231 23 23 24
-6.752161 1.817889 32.462311 31 40 37
-6.699115 1.821119 32.519978 43 26 17
-6.646719 1.824589 32.581955 21 44 25
-6.601777 1.830196 32.682064 22 16 25
-6.552038 1.834571 32.760189 30 24 15
-6.509344 1.841026 32.875473 25 34 15
-6.459947 1.845699 32.958916 22 20 15
-6.410904 1.850570 33.045895 19 36 16
-6.368123 1.857369 33.167309 41 39 40
-6.318021 1.862154 33.252743 43 38 35
-6.276775 1.869678 33.387100 43 40 33
-6.230649 1.875894 33.498116 39 21 40
-6.183106 1.881815 33.603836 20 42 16
-6.137677 1.888516 33.723499 41 24 42
-6.082087 1.892205 33.789371 29 39 42
-6.034050 1.898353 33.899158 29 38 17
-9.597592 1.819152 31.364681 44 18 31
-9.522705 1.816832 31.324688 27 16 37
-9.444994 1.813939 31.274815 15 32 38
-9.372636 1.812043 31.242119 31 28 32
-9.300364 1.810138 31.209274 29 34 20
-9.233468 1.809261 31.194149 38 32 26
-9.169312 1.808912 31.188135 17 33 39
-9.103847 1.808298 31.177557 40 16 27
-9.040189 1.808038 31.173065 21 37 16
-8.975692 1.807605 31.165598 42 29 24
-8.910328 1.806990 31.154993 33 28 34
-8.846967 1.806775 31.151293 34 39 35
-8.786736 1.807201 31.158638 32 43 15
-8.728355 1.808016 31.172697 37 38 22
-8.674245 1.809735 31.202320 35 29 31
-8.619992 1.811448 31.231855 39 42 42
-8.566247 1.813293 31.263674 23 27 19
-8.512711 1.815210 31.296730 23 41 37
-8.455017 1.816263 31.314877 18 44 27
-8.399522 1.817807 31.341499 21 17 16
-8.342191 1.818974 31.361622 21 28 36
-8.284403 1.820058 31.380316 43 22 40
-8.228016 1.821469 31.404640 40 31 17
-8.169182 1.822356 31.419931 34 15 27
-8.112095 1.823649 31.442228 32 25 34
-8.052826 1.824468 31.456352 24 40 33
-7.994287 1.825467 31.473570 29 15 21
-7.938767 1.827177 31.503044 42 16 19
-7.881848 1.828589 31.527391 37 30 20
-7.828981 1.830971 31.568472 20 15 21
-7.774707 1.833061 31.604500 38 32 27
-7.720106 1.835107 31.639780 27 22 42
-7.666436 1.837410 31.679487 35 32 23
-7.608472 1.838714 31.701965 38 28 23
-7.551188 1.840206 31.727682 17 28 32
-7.491560 1.841146 31.743896 38 23 28
-7.430065 1.841640 31.752413 34 25 19
-7.368224 1.842056 31.759586 29 18 16
-7.304482 1.842000 31.758619 42 40 35
-7.241838 1.842222 31.762445 38 32 26
-7.179211 1.842452 31.766418 21 42 43
-7.117823 1.843008 31.775993 27 40 33
-7.057662 1.843894 31.791269 44 30 35
-6.997030 1.844672 31.804682 26 20 33
-6.942547 1.847100 31.846546 35 42 38
-6.888285 1.849632 31.890209 120 120 120
-6.836916 1.852996 31.948208 120 120 120
-6.789420 1.857483 32.025566 120 120 120
-6.737589 1.860858 32.083759 33 39 41
-6.690138 1.865519 32.164124 42 35 27
-6.636321 1.868479 32.215153 20 28 23
-6.583328 1.871731 32.271217 34 39 27
-6.537415 1.877080 32.363441 31 37 38
-6.487331 1.881326 32.436653 38 22 32
-6.443503 1.887491 32.542942 35 17 40
-6.393025 1.891813 32.617474 42 33 33
-6.343103 1.896392 32.696407 41 15 29
-6.299579 1.902998 32.810307 17 31 34
-6.249627 1.907781 32.892773 23 36 42
-6.208541 1.915401 33.024155 44 29 38
-6.162510 1.921643 33.131775 34 28 32
-6.115885 1.927833 33.238506 21 22 42
-6.072462 1.935180 33.365173 38 16 31
-6.019317 1.939558 33.440651 31 37 30
-5.975112 1.946947 33.568047 18 19 20
-5.927217 1.953288 33.677372 19 41 20
-5.878956 1.959652 33.787106 16 19 32
-5.834040 1.967293 33.918839 23 44 33
-9.743640 1.873777 31.229614 31 31 25
-9.675875 1.872750 31.212502 17 39 42
-9.598823 1.869901 31.165009 32 33 19
-9.520199 1.866706 31.111763 39 30 24
-9.440349 1.863227 31.053780 40 35 34
-9.358950 1.859394 30.989901 42 26 36
-9.285421 1.857084 30.951403 32 19 30
-9.212522 1.854870 30.914503 37 38 16
-9.145927 1.853904 30.898403 35 17 38
-9.083253 1.853725 30.895418 16 20 19
-9.019680 1.853359 30.889315 37 25 22
-8.958024 1.853384 30.889738 31 32 39
-8.896925 1.853526 30.892099 42 28 17
-8.834624 1.853418 30.890293 29 28 15
-8.774781 1.853827 30.897116 28 19 19
-8.718932 1.855092 30.918198 19 38 17
-8.663800 1.856529 30.942144 26 32 29
-8.613892 1.859113 30.985222 17 28 22
-8.563086 1.861540 31.025675 44 34 27
-8.511850 1.863909 31.065147 28 21 42
-8.460127 1.866205 31.103409 17 36 29
-8.402653 1.867256 31.120937 39 23 37
-8.347624 1.868871 31.147850 21 40 37
-8.290929 1.870134 31.168907 21 29 29
-8.233886 1.871338 31.188961 27 30 41
-8.178501 1.872939 31.215654 34 17 22
-8.120582 1.873980 31.233007 28 30 25
-8.064690 1.875509 31.258490 35 42 20
-8.006410 1.876502 31.275038 39 37 38
-7.948883 1.877689 31.294815 27 29 37
-7.894616 1.879670 31.327841 44 36 27
-7.838677 1.881282 31.354708 35 28 32
-7.786929 1.883934 31.398907 37 21 15
-7.733497 1.886219 31.436981 23 29 23
-7.679613 1.888430 31.473825 32 31 43
-7.626727 1.890924 31.515402 44 16 35
-7.569321 1.892330 31.538839 37 17 43
-7.512677 1.893952 31.565870 44 17 44
-7.453672 1.895001 31.583355 42 42 32
-7.392655 1.895553 31.592545 38 17 28
-7.331111 1.895977 31.599617 28 19 38
-7.267499 1.895869 31.597822 26 37 31
-7.204887 1.896023 31.600382 42 36 44
-7.142365 1.896203 31.603384 22 21 29
-7.081091 1.896721 31.612013 29 41 40
-7.021032 1.897576 31.626272 39 26 40
-6.960607 1.898347 31.639122 20 43 38
-6.906337 1.900827 31.680443 37 37 43
-6.852790 1.903553 31.725880 120 120 120
-6.801476 1.906956 31.782600 120 120 120
-6.752371 1.911048 31.850805 120 120 120
-6.698470 1.913849 31.897476 28 18 29
-6.649012 1.917984 31.966402 30 35 18
-6.594640 1.920769 32.012817 15 37 28
-6.541563 1.923989 32.066486 42 20 37
-6.495156 1.929254 32.154240 36 31 41
-6.444962 1.933489 32.224812 39 31 16
-6.400395 1.939514 32.325230 38 42 38
-6.349231 1.943642 32.394035 36 15 27
-6.298478 1.947983 32.466381 17 28 42
-6.253861 1.954332 32.572193 42 26 27
-6.203360 1.958956 32.649261 27 32 25
-6.161101 1.966309 32.771816 34 35 16
-6.113523 1.972104 32.868404 36 32 40
-6.066432 1.978185 32.969742 35 17 25
-6.024334 1.986044 33.100735 27 22 37
-5.973783 1.991261 33.187683 28 30 36
-5.933870 2.000181 33.336349 44 42 22
-5.890548 2.008141 33.469025 41 29 33
-5.846025 2.015871 33.597847 17 42 23
-5.802883 2.024261 33.737690 39 26 25
-5.748051 2.028724 33.812065 30 26 26
-5.700052 2.035733 33.928883 23 16 43
-9.785481 1.919936 30.966711 25 35 17
-9.714211 1.918093 30.936977 28 41 24
-9.642875 1.916212 30.906651 34 41 36
-9.576449 1.915290 30.891771 29 25 35
-9.499290 1.912195 30.841850 26 39 36
-9.419138 1.908453 30.781496 42 29 44
-9.337670 1.904393 30.716021 44 24 28
-9.255860 1.900210 30.648542 36 43 20
-9.183215 1.897865 30.610718 18 43 39
-9.111935 1.895772 30.576963 25 18 21
-9.046950 1.894969 30.564020 28 25 15
-8.986541 1.895121 30.566467 44 28 23
-8.925834 1.895211 30.567924 40 17 19
-8.866621 1.895622 30.574556 28 40 34
-8.809493 1.896488 30.588518 37 17 17
-8.751146 1.897102 30.598413 35 28 19
-8.694915 1.898186 30.615896 30 23 16
-8.642117 1.900040 30.645805 37 15 32
-8.588278 1.901690 30.672421 31 35 18
-8.540012 1.904607 30.719467 29 42 31
-8.490728 1.907337 30.763508 29 32 40
-8.440654 1.909929 30.805307 29 27 21
-8.389898 1.912403 30.845213 25 16 42
-8.332870 1.913474 30.862480 26 30 30
-8.278358 1.915142 30.889395 18 43 18
-8.222175 1.916447 30.910431 42 28 29
-8.165754 1.917715 30.930887 19 26 37
-8.111223 1.919450 30.958866 21 25 40
-8.054191 1.920615 30.977657 36 36 18
-7.999406 1.922338 31.005449 44 43 23
-7.942067 1.923469 31.023701 15 30 36
-7.885562 1.924822 31.045519 23 40 42
-7.832561 1.927059 31.081591 15 20 27
-7.777711 1.928872 31.110844 24 21 18
-7.727187 1.931797 31.158010 35 32 39
-7.674732 1.934282 31.198099 41 30 19
-7.621692 1.936660 31.236444 32 24 17
-7.569715 1.939348 31.279814 26 29 41
-7.512990 1.940856 31.304125 19 37 42
-7.457053 1.942594 31.332157 15 35 32
-7.398736 1.943736 31.350574 24 15 41
-7.338210 1.944312 31.359871 37 44 44
-7.276899 1.944688 31.365942 43 20 27
-7.213371 1.944474 31.362482 31 22 44
-7.150719 1.944494 31.362803 34 35 32
-7.088301 1.944578 31.364162 26 40 21
-7.027171 1.945020 31.371298 31 31 28
-6.967235 1.945805 31.383944 41 32 32
-6.907107 1.946548 31.395943 34 31 40
-6.853145 1.949060 31.436445 31 18 22
-6.800105 1.951882 31.481970 120 120 120
-6.749219 1.955381 31.538408 120 120 120
-6.700145 1.959476 31.604456 120 120 120
-6.646175 1.962204 31.648455 16 41 22
-6.596888 1.966380 31.715807 16 15 20
-6.543313 1.969347 31.763655 39 28 18
-6.490911 1.972728 31.818193 37 32 44
-6.444504 1.978016 31.903484 30 27 36
-6.394050 1.982155 31.970249 19 40 38
-6.348556 1.987932 32.063412 25 17 31
-6.296668 1.991803 32.125858 23 16 32
-6.244992 1.995822 32.190681 42 28 16
-6.199108 2.001795 32.287022 31 25 33
-6.147938 2.006169 32.357567 28 18 40
-6.104245 2.013102 32.469387 40 37 16
-6.055190 2.018397 32.554787 18 33 21
-6.007303 2.024200 32.648388 44 43 26
-5.965309 2.032138 32.776424 18 36 23
-5.916027 2.037743 32.866817 30 29 34
-5.878454 2.047551 33.025021 18 42 24
-5.837770 2.056487 33.169147 43 30 35
-5.795959 2.065227 33.310112 20 29 33
-5.755212 2.074553 33.460533 39 16 24
-5.701680 2.079436 33.539295 30 22 23
-5.654665 2.086841 33.658718 15 17 28
-5.602522 2.092508 33.750130 42 24 18
-5.549689 2.098053 33.839565 17 32 40
-9.852932 1.970586 30.790413 26 36 27
-9.781866 1.968677 30.760584 17 18 42
-9.712857 1.967161 30.736889 42 23 38
-9.643234 1.965500 30.710938 21 39 36
-9.571756 1.963437 30.678705 38 43 22
-9.503908 1.962097 30.657766 39 43 17
-9.426717 1.958798 30.606224 25 16 17
-9.348104 1.955159 30.549358 23 25 19
-9.269206 1.951412 30.490810 36 44 16
-9.190329 1.947619 30.431553 42 21 29
-9.120069 1.945615 30.400229 29 24 41
-9.051680 1.943985 30.374765 25 40 23
-8.988580 1.943477 30.366823 41 36 15
-8.929996 1.943945 30.374136 30 36 31
-8.871850 1.944515 30.383049 29 37 35
-8.814573 1.945285 30.395079 20 23 15
-8.760460 1.946769 30.418262 34 15 29
-8.705494 1.948083 30.438791 37 39 23
-8.651434 1.949619 30.462797 17 27 40
-8.598587 1.951452 30.491444 22 23 42
-8.542822 1.952645 30.510078 29 17 25
-8.492085 1.955012 30.547070 16 17 39
-8.441128 1.957363 30.583797 34 28 27
-8.389931 1.959692 30.620188 36 20 18
-8.338580 1.962019 30.656546 39 30 26
-8.282039 1.963150 30.674217 33 23 22
-8.227867 1.964864 30.700996 32 26 26
-8.171832 1.966155 30.721174 17 32 37
-8.115634 1.967427 30.741039 34 34 40
-8.061428 1.969204 30.768808 41 29 20
-8.004846 1.970424 30.787868 34 27 39
-7.950596 1.972241 30.816265 32 15 35
-7.893747 1.973437 30.834948 44 44 36
-7.837831 1.974887 30.857603 20 34 21
-7.785596 1.977294 30.895224 43 30 18
-7.731486 1.979260 30.925943 42 25 24
-7.681801 1.982400 30.975004 23 41 21
-7.630031 1.985049 31.016388 28 26 28
-7.577613 1.987571 31.055792 39 27 43
-7.526308 1.990428 31.100445 34 23 33
-7.470108 1.992029 31.125452 18 21 36
-7.414677 1.993863 31.154104 25 39 40
-7.356850 1.995078 31.173092 17 39 33
-7.296642 1.995663 31.182232 24 26 20
-7.235458 1.995988 31.187317 42 23 42
-7.171969 1.995678 31.182472 21 17 24
-7.109264 1.995583 31.180984 32 22 32
-7.046920 1.995588 31.181063 19 22 30
-6.985927 1.995979 31.187176 38 37 41
-6.926112 1.996717 31.198702 21 18 25
-6.866244 1.997453 31.210199 35 16 33
-6.812569 2.000020 31.250315 22 37 22
-6.759509 2.002817 31.294022 120 120 120
-6.709256 2.006506 31.351662 120 120 120
-6.662169 2.011221 31.425325 120 120 120
-6.610605 2.014661 31.479073 23 24 22
-6.563925 2.019669 31.557333 18 21 39
-6.512248 2.023223 31.612852 26 35 20
-6.460829 2.026927 31.670732 40 43 33
-6.414570 2.032339 31.755297 22 41 25
-6.363373 2.036279 31.816866 42 19 36
-6.316760 2.041781 31.902826 19 29 35
-6.264203 2.045454 31.960218 15 43 21
-6.211856 2.049272 32.019878 38 37 42
-6.165115 2.055038 32.109974 27 44 17
-6.113566 2.059306 32.176662 39 43 28
-6.069027 2.066052 32.282059 21 20 42
-6.019397 2.071190 32.362350 29 34 34
-5.970849 2.076817 32.450268 22 16 24
-5.927683 2.084460 32.569687 37 19 23
-5.877616 2.089819 32.653423 38 29 33
-5.839199 2.099487 32.804489 25 17 22
-5.797794 2.108289 32.942013 25 34 18
-5.756370 2.117286 33.082588 17 19 22
-5.717854 2.127574 33.243340 43 20 34
-5.667434 2.133622 33.337845 35 36 31
-5.622762 2.142004 33.468819 16 36 43
-5.571008 2.147859 33.560291 39 38 22
-5.517850 2.153307 33.645428 40 22 36
-5.470329 2.161118 33.767464 18 17 37
-5.416148 2.166459 33.850925 36 37 36
-9.919652 2.020670 30.616209 27 40 15
-9.850448 2.019036 30.591454 18 31 19
-9.784675 2.018089 30.577108 26 20 26
-9.716033 2.016535 30.553562 24 44 25
-9.649523 2.015407 30.536467 37 35 39
-9.581824 2.014014 30.515362 34 39 30
-9.510754 2.011890 30.483187 31 29 22
-9.441970 2.010226 30.457968 34 40 41
-9.366389 2.007083 30.410355 16 28 38
-9.291236 2.003992 30.363516 32 15 38
-9.216940 2.001046 30.318882 32 37 29
-9.142945 1.998127 30.274652 40 39 23
-9.076015 1.996723 30.253382 29 32 37
-9.011453 1.995825 30.239777 25 42 26
-8.950802 1.995787 30.239195 40 25 24
-8.893951 1.996601 30.251534 32 26 37
-8.837853 1.997597 30.266621 38 37 26
-8.781623 1.998576 30.281460 39 40 36
-8.729030 2.000403 30.309134 35 21 30
-8.676013 2.002157 30.335711 24 42 44
-8.622762 2.003881 30.361839 38 38 38
-8.568688 2.005438 30.385418 43 33 36
-8.510539 2.006056 30.394781 20 26 25
-8.456634 2.007690 30.419546 24 15 17
-8.403330 2.009492 30.446848 30 19 16
-8.350488 2.011431 30.476234 20 22 29
-8.298148 2.013521 30.507898 22 42 34
-8.242013 2.014714 30.525974 18 30 35
-8.187953 2.016436 30.552063 36 35 41
-8.131797 2.017664 30.570667 24 18 37
-8.075485 2.018871 30.588959 18 23 23
-8.021150 2.020595 30.615076 16 31 31
-7.964649 2.021795 30.633265 30 16 39
-7.910391 2.023588 30.660431 31 30 23
-7.853591 2.024754 30.678089 42 37 41
-7.797799 2.026200 30.699995 16 15 35
-7.745733 2.028644 30.737038 30 38 15
-7.691916 2.030666 30.767664 30 18 44
-7.642525 2.033898 30.816633 27 19 25
-7.591067 2.036628 30.857998 32 39 38
-7.538957 2.039226 30.897364 20 28 26
-7.487918 2.042159 30.941809 39 18 20
-7.431990 2.043797 30.966623 37 15 31
-7.376708 2.045642 30.994570 35 30 18
-7.319044 2.046851 31.012899 26 26 18
-7.258892 2.047380 31.020905 17 31 18
-7.197581 2.047588 31.024057 41 20 34
-7.134022 2.047154 31.017487 32 17 19
-7.071137 2.046908 31.013760 37 21 40
-7.008775 2.046810 31.012278 32 18 25
-6.947842 2.047132 31.017151 42 23 20
-6.888044 2.047797 31.027227 20 27 35
-6.828360 2.048508 31.037998 38 19 41
-6.774878 2.051110 31.077421 29 29 35
-6.721640 2.053835 31.118706 120 120 120
-6.672018 2.057725 31.177656 120 120 120
-6.627231 2.063195 31.260525 120 120 120
-6.578486 2.067524 31.326126 26 34 15
-6.535005 2.073607 31.418293 16 28 19
-6.485522 2.077886 31.483114 30 21 30
-6.435513 2.082078 31.546635 36 33 27
-6.390241 2.087901 31.634857 38 19 36
-6.339047 2.091886 31.695236 40 21 32
-6.292241 2.097414 31.778994 17 31 34
-6.239643 2.101104 31.834911 38 34 28
-6.187023 2.104863 31.891870 20 35 27
-6.139740 2.110536 31.977814 40 40 24
-6.087768 2.114698 32.040886 31 23 27
-6.042384 2.121262 32.140339 43 16 35
-5.992375 2.126327 32.217072 44 38 40
-5.943029 2.131739 32.299068 43 30 34
-5.897989 2.138831 32.406532 29 27 44
-5.846223 2.143615 32.479019 37 26 25
-5.805359 2.152549 32.614376 16 40 26
-5.761610 2.160604 32.736420 39 31 25
-5.719142 2.169330 32.868629 30 36 24
-5.681809 2.180229 33.033775 15 37 21
-5.634329 2.187445 33.143112 37 21 43
-5.591836 2.196793 33.284737 35 18 21
-5.540420 2.202817 33.376022 32 23 19
-5.486948 2.208162 33.457001 20 25 34
-5.439523 2.216102 33.577301 37 34 23
-5.385580 2.221552 33.659874 24 21 33
-5.336083 2.228997 33.772675 34 30 39
-5.281198 2.234353 33.853832 43 27 39
-9.962278 2.065350 30.372799 39 18 35
-9.893636 2.063703 30.348577 22 23 34
-9.827618 2.062586 30.332153 26 29 44
-9.760161 2.061152 30.311058 36 18 25
-9.696227 2.060448 30.300711 36 44 28
-9.630452 2.059342 30.284439 17 39 33
-9.566363 2.058584 30.273300 38 41 25
-9.501456 2.057640 30.259415 16 19 26
-9.433921 2.056111 30.236927 34 24 22
-9.367794 2.054871 30.218691 33 17 43
-9.296650 2.052507 30.183929 15 41 33
-9.225389 2.050086 30.148331 29 16 28
-9.155273 2.047890 30.116030 39 24 38
-9.086417 2.045948 30.087473 18 30 37
-9.023063 2.045228 30.076878 23 41 20
-8.962882 2.045221 30.076786 17 24 21
-8.905622 2.045886 30.086561 33 25 35
-8.850960 2.047161 30.105307 35 35 26
-8.796259 2.048444 30.124174 35 36 19
-8.739834 2.049340 30.137360 35 24 43
-8.686750 2.051038 30.162325 43 35 37
-8.633400 2.052696 30.186712 38 16 18
-8.579688 2.054291 30.210169 27 20 18
-8.525138 2.055707 30.230988 26 32 43
-8.466845 2.056234 30.238731 23 15 38
-8.412467 2.057726 30.260674 31 44 31
-8.358716 2.059394 30.285202 16 26 23
-8.305559 2.061234 30.312260 25 19 37
-8.253105 2.063276 30.342299 34 15 33
-8.197288 2.064502 30.360325 23 26 39
-8.143244 2.066196 30.385239 24 42 23
-8.086980 2.067348 30.402182 39 24 18
-8.030485 2.068458 30.418503 30 24 37
-7.975938 2.070091 30.442511 23 31 43
-7.919450 2.071241 30.459423 21 28 36
-7.865018 2.072950 30.484566 23 41 22
-7.808136 2.074036 30.500530 21 25 32
-7.752283 2.075414 30.520800 44 20 38
-7.700086 2.077801 30.555897 28 15 18
-7.646339 2.079804 30.585358 27 22 24
-7.596921 2.083027 30.632746 15 17 20
-7.545571 2.085768 30.673054 36 20 19
-7.493579 2.088374 30.711390 24 38 26
-7.442559 2.091298 30.754375 32 17 39
-7.386749 2.092912 30.778122 44 29 29
-7.331384 2.094681 30.804134 29 41 31
-7.273720 2.095818 30.820848 34 44 28
-7.213484 2.096226 30.826853 37 22 26
-7.151862 2.096235 30.826992 37 21 41
-7.088150 2.095627 30.818043 17 36 38
-7.024956 2.095162 30.811211 27 15 40
-6.962516 2.094916 30.807592 36 17 23
-6.901593 2.095127 30.810684 27 26 24
-6.841711 2.095659 30.818518 28 37 25
-6.782164 2.096305 30.828018 21 44 16
-6.728799 2.098891 30.866049 21 27 36
-6.675631 2.101587 30.905697 120 120 120
-6.626473 2.105608 30.964828 120 120 120
-6.582711 2.111436 31.050524 120 120 120
-6.535241 2.116173 31.120197 30 36 21
-6.493668 2.122930 31.219559 19 28 16
-6.445816 2.127745 31.290371 15 18 19
-6.397610 2.132537 31.360832 17 42 16
-6.354687 2.139201 31.458845 30 35 22
-6.305313 2.143806 31.526564 30 32 35
-6.260105 2.149935 31.616690 39 17 40
-6.208398 2.153934 31.675499 28 28 41
-6.155864 2.157726 31.731258 39 30 44
-6.108170 2.163310 31.813385 35 28 35
-6.055477 2.167223 31.870934 43 15 43
-6.008899 2.173431 31.962227 19 22 38
-5.958274 2.178294 32.033733 44 35 38
-5.908050 2.183410 32.108967 28 32 44
-5.861352 2.189956 32.205231 40 36 42
-5.808303 2.194248 32.268353 15 34 29
-5.765270 2.202463 32.389156 40 42 16
-5.719533 2.209819 32.497345 25 20 28
-5.675733 2.218103 32.619156 25 27 27
-5.638009 2.228980 32.779121 18 39 31
-5.591528 2.236611 32.891342 22 18 35
-5.549726 2.246317 33.034081 17 32 34
-5.498557 2.252421 33.123837 31 39 16
-5.445212 2.257771 33.202515 41 29 26
-5.397924 2.265795 33.320518 24 15 15
-5.344260 2.271311 33.401627 35 18 42
-5.294870 2.278805 33.511837 16 26 33
-5.240122 2.284156 33.590527 35 33 31
-5.183418 2.288782 33.658558 41 23 26
-5.128836 2.294479 33.742344 33 31 37
-10.047286 2.118404 30.262911 34 44 25
-9.977428 2.116424 30.234631 29 36 19
-9.905197 2.113914 30.198772 22 34 39
-9.836613 2.112156 30.173660 22 19 44
-9.770745 2.110963 30.156620 41 19 30
-9.704210 2.109611 30.137299 41 28 22
-9.641459 2.109069 30.129560 29 33 29
-9.577582 2.108273 30.118183 43 37 25
-9.514694 2.107685 30.109791 16 15 24
-9.451933 2.107119 30.101696 30 35 35
-9.388527 2.106400 30.091433 44 33 37
-9.326397 2.105961 30.085152 17 33 43
-9.260130 2.104575 30.065357 20 39 22
-9.191985 2.102742 30.039167 33 23 44
-9.124589 2.101057 30.015095 27 21 42
-9.059393 2.099859 29.997990 41 26 32
-8.998456 2.099640 29.994852 36 43 25
-8.941334 2.100313 30.004477 38 18 35
-8.886729 2.101591 30.022734 26 25 44
-8.833481 2.103210 30.045855 17 36 16
-8.778846 2.104518 30.064541 17 20 15
-8.721063 2.105084 30.072632 16 29 26
-8.665681 2.106242 30.089169 32 19 17
-8.609955 2.107332 30.104738 35 32 38
-8.554523 2.108509 30.121561 24 29 23
-8.499725 2.109861 30.140869 43 24 37
-8.442679 2.110670 30.152424 25 44 20
-8.389584 2.112485 30.178358 33 39 33
-8.336589 2.114352 30.205032 31 41 38
-8.283944 2.116336 30.233374 26 18 17
-8.231863 2.118494 30.264204 34 41 17
-8.176111 2.119732 30.281893 30 42 21
-8.121914 2.121396 30.305651 35 42 40
-8.065480 2.122495 30.321352 18 17 36
-8.008701 2.123519 30.335989 21 15 25
-7.953797 2.125060 30.358004 38 25 40
-7.897122 2.126148 30.373547 31 40 44
-7.842247 2.127741 30.396307 21 15 25
-7.785051 2.128725 30.410355 32 17 33
-7.728851 2.129998 30.428547 28 29 32
-7.676135 2.132260 30.460852 17 26 26
-7.622092 2.134186 30.488367 35 38 19
-7.572218 2.137320 30.533138 24 42 21
-7.520634 2.140018 30.571684 26 16 24
-7.468455 2.142589 30.608421 41 16 20
-7.417101 2.145442 30.649176 39 18 27
-7.361153 2.147003 30.671473 30 28 26
-7.305434 2.148657 30.695101 40 43 38
-7.247537 2.149693 30.709902 34 16 39
-7.187056 2.149974 30.713915 29 32 38
-7.125044 2.149798 30.711397 44 29 41
-7.061149 2.149045 30.700647 30 37 27
-6.997658 2.148404 30.691484 36 38 17
-6.935096 2.148038 30.686264 36 22 15
-6.874112 2.148160 30.688002 21 19 19
-6.814080 2.148584 30.694056 35 30 42
-6.754532 2.149169 30.702419 36 22 30
-6.701146 2.151744 30.739201 23 39 38
-6.648112 2.154481 30.778297 120 120 120
-6.599073 2.158575 30.836788 120 120 120
-6.555120 2.164426 30.920378 120 120 120
-6.507440 2.169147 30.987808 22 28 20
-6.466226 2.176134 31.087626 36 38 36
-6.418969 2.181203 31.160044 16 20 17
-6.372139 2.186518 31.235975 17 37 31
-6.331711 2.194157 31.345106 43 23 32
-6.284837 2.199693 31.424187 27 37 15
-6.242073 2.206794 31.525623 44 38 26
-6.191718 2.211328 31.590397 41 40 37
-6.139628 2.215330 31.647568 15 25 19
-6.091936 2.221018 31.728834 15 33 33
-6.038632 2.224759 31.782272 40 40 44
-5.991194 2.230764 31.868053 37 15 16
-5.940171 2.235548 31.936403 42 34 31
-5.889382 2.240526 32.007511 38 17 24
-5.841664 2.246794 32.097054 42 29 37
-5.787848 2.250830 32.154709 44 20 38
-5.743208 2.258565 32.265213 35 43 42
-5.695988 2.265450 32.363567 38 15 25
-5.650702 2.273271 32.475296 40 22 27
-5.611290 2.283665 32.623779 44 28 21
-5.563963 2.291044 32.729195 20 34 41
-5.521448 2.300604 32.865765 37 42 25
-5.470325 2.306764 32.953766 35 16 16
-5.417341 2.312280 33.032570 32 18 35
-5.370104 2.320415 33.148788 39 17 22
-5.316562 2.325996 33.228512 24 42 16
-5.267137 2.333542 33.336308 18 25 31
-5.212359 2.338879 33.412560 24 32 39
-5.155706 2.343503 33.478611 41 43 34
-5.101298 2.349282 33.561169 30 19 20
-5.041308 2.352611 33.608723 24 21 28
-4.985447 2.357982 33.685452 36 42 22
-10.042375 2.164823 30.066992 23 21 24
-9.965296 2.161148 30.015951 39 15 40
-9.898301 2.159629 29.994852 43 39 17
-9.829104 2.157608 29.966782 40 29 35
-9.762181 2.156064 29.945339 28 23 39
-9.697604 2.155023 29.930878 30 32 25
-9.633097 2.153984 29.916451 17 28 38
-9.571933 2.153685 29.912291 39 26 27
-9.510542 2.153330 29.907364 16 32 24
-9.449566 2.153066 29.903690 17 34 25
-9.389306 2.152962 29.902248 39 41 36
-9.329772 2.153024 29.903114 33 18 18
-9.270958 2.153255 29.906317 38 31 31
-9.209445 2.152857 29.900797 31 20 40
-9.145097 2.151788 29.885939 20 27 19
-9.081254 2.150823 29.872547 35 19 43
-9.020187 2.150508 29.868168 44 37 18
-8.961776 2.150826 29.872587 15 17 27
-8.907262 2.152090 29.890142 28 34 17
-8.854307 2.153750 29.913200 25 20 34
-8.801729 2.155525 29.937853 16 42 44
-8.747422 2.156899 29.956926 40 16 21
-8.689271 2.157336 29.963003 16 17 15
-8.633125 2.158281 29.976130 20 27 16
-8.576482 2.159114 29.987698 31 20 15
-8.520582 2.160148 30.002050 28 31 19
-8.466388 2.161631 30.022652 40 25 19
-8.410697 2.162751 30.038202 44 36 19
-8.358965 2.164912 30.068218 25 18 21
-8.306763 2.166982 30.096966 18 34 32
-8.254586 2.169088 30.126226 40 39 16
-8.202909 2.171358 30.157753 41 23 41
-8.147294 2.172612 30.175163 30 41 26
-8.092903 2.174213 30.197399 23 15 20
-8.036214 2.175216 30.211330 30 18 34
-7.978996 2.176090 30.223471 15 24 24
-7.923538 2.177461 30.242512 26 15 39
-7.866543 2.178427 30.255934 15 27 15
-7.810987 2.179810 30.275143 38 44 44
-7.753306 2.180617 30.286352 41 17 28
-7.696527 2.181693 30.301287 33 43 15
-7.642892 2.183684 30.328938 21 19 39
-7.588239 2.185413 30.352955 16 31 35
-7.537474 2.188299 30.393042 26 22 23
-7.485383 2.190844 30.428385 26 28 23
-7.432761 2.193274 30.462137 43 38 35
-7.380722 2.195917 30.498850 41 42 16
-7.324444 2.197333 30.518515 29 18 42
-7.267999 2.198722 30.537809 41 18 20
-7.209539 2.199520 30.548895 41 37 30
-7.148546 2.199553 30.549341 41 30 16
-7.085925 2.199080 30.542782 26 18 28
-7.021844 2.198142 30.529757 40 44 36
-6.957960 2.197251 30.517370 40 40 39
-6.895221 2.196708 30.509829 17 26 32
-6.834103 2.196676 30.509390 36 34 17
-6.773740 2.196889 30.512344 41 32 32
-6.714088 2.197338 30.518583 32 27 21
-6.660515 2.199803 30.552822 39 21 26
-6.607552 2.202517 30.590519 120 120 120
-6.558615 2.206637 30.647736 120 120 120
-6.514442 2.212452 30.728498 120 120 120
-6.466626 2.217129 30.793459 30 35 40
-6.425540 2.224225 30.892019 16 33 30
-6.378598 2.229413 30.964066 40 44 37
-6.332671 2.235060 31.042503 16 15 30
-6.293916 2.243376 31.158001 27 37 43
-6.248861 2.249590 31.244307 43 21 43
-6.208135 2.257504 31.354219 26 25 29
-6.159294 2.262598 31.424969 41 44 22
-6.108155 2.266944 31.485336 16 15 24
-6.061024 2.272884 31.567831 16 17 37
-6.007660 2.276587 31.619261 15 32 16
-5.959748 2.282457 31.700788 29 33 17
-5.908445 2.287140 31.765831 18 15 39
-5.857016 2.291876 31.831610 31 20 28
-5.808135 2.297724 31.912830 29 26 38
-5.753416 2.301367 31.963425 31 29 29
-5.706979 2.308441 32.061680 43 27 15
-5.658285 2.314753 32.149349 29 29 28
-5.611487 2.321995 32.249924 39 39 44
-5.570115 2.331676 32.384388 27 16 35
-5.521685 2.338596 32.480499 27 41 43
-5.478292 2.347840 32.608883 18 32 27
-5.427242 2.353984 32.694229 15 30 40
-5.374890 2.359708 32.773720 38 15 22
-5.328177 2.368079 32.889984 29 35 24
-5.275325 2.373896 32.970783 38 20 40
-5.226381 2.381642 33.078358 19 30 34
-5.171921 2.387040 33.153339 31 32 31
-5.115431 2.391630 33.217087 38 21 20
-5.061087 2.397357 33.296627 26 33 19
-5.001269 2.400609 33.341793 24 19 40
-4.945330 2.405836 33.414391 28 24 16
-4.887124 2.410088 33.473450 18 29 39
-4.828675 2.414338 33.532467 30 17 40
-10.131341 2.218104 29.974382 23 24 31
-10.052372 2.213915 29.917774 16 32 41
-9.979234 2.210968 29.877947 32 16 29
-9.906068 2.207979 29.837555 40 31 21
-9.842010 2.206996 29.824272 21 42 42
-9.776225 2.205612 29.805565 22 18 22
-9.711527 2.204457 29.789961 43 24 38
-9.648651 2.203704 29.779787 34 18 15
-9.586131 2.203024 29.770592 22 24 16
-9.526074 2.202905 29.768982 33 32 33
-9.466432 2.202880 29.768654 28 26 44
-9.407086 2.202925 29.769258 30 30 17
-9.348398 2.203126 29.771967 34 27 23
-9.290334 2.203477 29.776711 41 42 38
-9.232271 2.203833 29.781521 18 20 17
-9.172898 2.203878 29.782135 35 41 38
-9.111201 2.203362 29.775166 43 16 38
-9.050074 2.202978 29.769979 36 36 22
-8.991564 2.203231 29.773390 25 21 26
-8.934488 2.203840 29.781628 25 42 27
-8.880666 2.205266 29.800894 15 30 28
-8.827198 2.206799 29.821613 42 33 16
-8.773981 2.208417 29.843472 43 39 33
-8.720102 2.209889 29.863361 43 24 23
-8.662924 2.210539 29.872152 27 20 20
-8.608224 2.211835 29.889666 23 37 32
-8.552824 2.212968 29.904978 17 21 28
-8.498151 2.214307 29.923067 29 32 31
-8.445227 2.216123 29.947613 15 16 34
-8.390284 2.217432 29.965300 35 25 41
-8.339268 2.219805 29.997368 27 30 25
-8.287481 2.222006 30.027103 34 30 30
-8.235491 2.224184 30.056536 22 31 21
-8.184065 2.226547 30.088474 36 25 21
-8.128598 2.227838 30.105917 29 32 17
-8.074098 2.229415 30.127230 44 36 36
-8.017203 2.230350 30.139862 27 20 17
-7.959627 2.231107 30.150101 30 36 25
-7.903721 2.232349 30.166876 42 21 42
-7.846449 2.233220 30.178652 27 29 35
-7.790330 2.234436 30.195078 32 28 43
-7.732250 2.235103 30.204100 42 33 17
-7.674983 2.236019 30.216467 29 25 34
-7.620547 2.237780 30.240265 41 33 30
-7.565327 2.239337 30.261307 27 27 17
-7.513737 2.242002 30.297325 35 32 42
-7.461150 2.244411 30.329878 23 29 21
-7.408082 2.246713 30.360991 24 41 39
-7.355374 2.249164 30.394108 42 33 35
-7.298745 2.250446 30.411438 30 28 39
-7.241579 2.251583 30.426804 23 39 41
-7.182520 2.252146 30.434406 35 38 27
-7.121003 2.251941 30.431637 17 27 27
-7.057841 2.251208 30.421730 21 32 31
-6.993634 2.250126 30.407103 37 18 37
-6.929415 2.249021 30.392172 43 41 40
-6.866486 2.248319 30.382683 22 21 15
-6.805175 2.248138 30.380245 21 17 23
-6.744428 2.248143 30.380306 17 43 27
-6.684582 2.248450 30.384464 25 19 23
-6.630726 2.250797 30.416174 29 23 39
-6.577718 2.253477 30.452398 120 120 120
-6.528789 2.257619 30.508362 30 35 40
-6.484500 2.263458 30.587265 30 35 40
-6.436713 2.268175 30.651014 30 35 40
-6.395459 2.275307 30.747398 30 35 40
-6.348369 2.280482 30.817326 30 35 40
-6.302331 2.286140 30.893780 17 32 16
-6.263404 2.294514 31.006948 18 23 26
-6.218371 2.300797 31.091854 43 40 28
-6.178068 2.308975 31.202366 20 27 30
-6.130009 2.314391 31.275555 38 20 21
-6.079853 2.319119 31.339451 22 22 41
-6.033764 2.325513 31.425856 39 29 42
-5.981213 2.329525 31.480068 39 43 43
-5.933655 2.335587 31.561993 24 26 16
-5.882329 2.340281 31.625423 25 39 38
-5.830386 2.344829 31.686880 39 30 26
-5.780651 2.350375 31.761820 31 23 26
-5.725219 2.353701 31.806774 31 27 20
-5.677605 2.360353 31.896658 33 34 32
-5.628162 2.366386 31.978191 33 37 33
-5.580589 2.373354 32.072350 34 29 37
-5.537915 2.382591 32.197178 26 20 20
-5.488626 2.389166 32.286034 44 36 39
-5.444598 2.398216 32.408321 35 20 29
-5.393609 2.404380 32.491619 36 15 40
-5.341889 2.410365 32.572495 24 19 28
-5.296061 2.419188 32.691734 28 43 30
-5.244282 2.425480 32.776760 44 28 36
-5.196217 2.433671 32.887451 43 20 36
-5.142309 2.439300 32.963516 41 28 42
-5.085935 2.443891 33.025555 18 18 17
-5.031313 2.449455 33.100742 36 32 20
-4.971094 2.452407 33.140629 27 42 35
-4.914452 2.457226 33.205757 44 15 43
-4.855862 2.461190 33.259327 38 34 24
-4.797082 2.465167 33.313072 36 30 15
-4.740065 2.470175 33.380741 17 28 29
-10.152007 2.269272 29.858845 34 25 37
-10.064968 2.263129 29.778011 15 26 23
-9.989393 2.259505 29.730335 25 33 21
-9.920849 2.257439 29.703140 28 29 32
-9.852767 2.255453 29.677010 43 18 37
-9.792305 2.255198 29.673653 39 19 26
-9.730798 2.254697 29.667067 39 22 22
-9.668994 2.254121 29.659491 28 32 30
-9.608204 2.253776 29.654949 33 37 39
-9.547877 2.253536 29.651793 18 43 17
-9.488784 2.253586 29.652449 15 17 28
-9.430578 2.253849 29.655905 27 32 37
-9.372668 2.254186 29.660343 43 30 22
-9.315064 2.254601 29.665808 37 31 31
-9.257506 2.255034 29.671494 37 17 18
-9.199223 2.255293 29.674911 36 37 27
-9.140672 2.255490 29.677505 17 36 38
-9.080717 2.255342 29.675547 26 17 32
-9.021445 2.255361 29.675806 25 32 39
-8.964372 2.255935 29.683350 24 34 33
-8.907895 2.256667 29.692984 22 16 44
-8.853887 2.258038 29.711029 43 17 40
-8.799219 2.259259 29.727091 33 28 39
-8.745031 2.260620 29.745005 32 33 23
-8.691583 2.262193 29.765696 39 22 24
-8.635764 2.263166 29.778496 32 22 42
-8.583146 2.264997 29.802589 34 42 23
-8.529655 2.266622 29.823969 44 27 19
-8.476706 2.268414 29.847557 39 42 25
-8.425229 2.270629 29.876698 24 37 35
-8.370812 2.272077 29.895756 33 31 35
-8.320281 2.274609 29.929068 26 32 42
-8.268756 2.276904 29.959261 18 20 28
-8.216828 2.279120 29.988422 33 40 40
-8.165558 2.281553 30.020433 37 17 30
-8.110216 2.282876 30.037836 35 35 19
-8.055590 2.284421 30.058170 42 36 22
-7.998490 2.285283 30.069511 38 32 18
-7.940565 2.285920 30.077896 29 16 31
-7.884214 2.287024 30.092419 41 38 21
-7.826669 2.287796 30.102573 39 21 29
-7.769981 2.288832 30.116207 26 26 40
-7.711515 2.289356 30.123104 19 24 15
-7.653740 2.290095 30.132833 32 23 38
-7.598436 2.291592 30.152525 29 42 40
-7.542561 2.292938 30.170242 15 29 39
-7.490036 2.295334 30.201759 34 38 36
-7.436882 2.297573 30.231226 38 23 37
-7.383299 2.299716 30.259422 19 21 15
-7.329854 2.301938 30.288654 16 35 28
-7.272833 2.303064 30.303473 22 35 18
-7.214913 2.303922 30.314762 16 37 17
-7.155214 2.304222 30.318705 27 24 15
-7.093172 2.303765 30.312700 17 35 30
-7.029550 2.302784 30.299786 36 29 23
-6.965324 2.301585 30.284016 15 25 31
-6.900913 2.300304 30.267160 29 36 30
-6.837891 2.299468 30.256155 31 19 38
-6.776459 2.299156 30.252048 34 39 24
-6.715387 2.298961 30.249491 21 20 43
-6.655352 2.299122 30.251602 42 32 18
-6.601207 2.301338 30.280766 26 20 44
-6.548148 2.303978 30.315500 30 35 40
-6.499192 2.308124 30.370058 30 35 40
-6.454757 2.313969 30.446966 30 35 40
-6.406970 2.318713 30.509382 30 35 40
-6.365302 2.325783 30.602413 30 35 40
-6.317793 2.330836 30.668898 30 35 40
-6.271209 2.336333 30.741222 30 35 40
-6.231413 2.344492 30.848577 22 38 32
-6.185807 2.350607 30.929033 28 42 16
-6.145397 2.358839 31.037357 40 41 20
-6.097977 2.364522 31.112129 21 19 43
-6.048818 2.369640 31.179476 31 25 40
-6.003623 2.376434 31.268869 41 40 24
-5.951770 2.380708 31.325106 37 44 40
-5.904638 2.386981 31.407650 19 31 18
-5.853474 2.391742 31.470289 35 18 32
-5.801382 2.396223 31.529251 15 25 41
-5.751305 2.401644 31.600574 30 30 22
-5.695597 2.404808 31.642208 30 32 32
-5.647445 2.411268 31.727217 17 20 30
-5.597769 2.417218 31.805504 21 20 36
-5.549866 2.424080 31.895784 32 33 36
-5.506336 2.433032 32.013580 37 26 26
-5.456386 2.439326 32.096390 22 28 30
-5.411862 2.448223 32.213463 39 29 20
-5.360941 2.454407 32.294823 44 23 29
-5.309751 2.460617 32.376534 16 43 31
-5.264666 2.469843 32.497940 43 20 42
-5.213810 2.476560 32.586311 29 43 42
-5.166558 2.485180 32.699734 21 33 21
-5.113217 2.491054 32.777031 30 17 17
-5.057085 2.495704 32.838211 40 43 19
-5.002440 2.501220 32.910789 23 29 20
-4.942091 2.503993 32.947273 31 35 24
-4.884842 2.508433 33.005692 19 37 27
-4.825720 2.512019 33.052879 25 15 19
-4.766353 2.515575 33.099670 33 17 28
-4.708591 2.520091 33.159092 42 22 16
-4.647552 2.522957 33.196800 43 30 27
-10.141179 2.312901 29.652571 24 36 18
-10.058778 2.307602 29.584641 38 23 38
-9.976968 2.302377 29.517656 40 24 18
-9.906963 2.299831 29.485008 15 16 38
-9.844906 2.299110 29.475765 32 26 35
-9.783919 2.298632 29.469635 35 15 43
-9.728100 2.299369 29.479090 38 44 28
-9.672099 2.300072 29.488106 43 36 40
-9.614038 2.300291 29.490913 31 37 15
-9.555878 2.300489 29.493450 34 19 39
-9.498330 2.300838 29.497919 16 28 30
-9.440411 2.301100 29.501284 38 44 25
-9.383868 2.301703 29.509018 21 29 44
-9.327488 2.302355 29.517368 26 21 42
-9.271097 2.303011 29.525785 22 44 27
-9.214515 2.303629 29.533703 20 43 19
-9.156556 2.303908 29.537277 44 27 33
-9.098969 2.304284 29.542107 43 33 25
-9.040340 2.304401 29.543596 37 24 44
-8.982429 2.304702 29.547462 32 33 36
-8.926587 2.305542 29.558235 31 16 21
-8.870804 2.306409 29.569347 41 37 39
-8.817189 2.307855 29.587881 40 32 20
-8.762346 2.308997 29.602522 44 29 36
-8.708050 2.310299 29.619219 39 29 23
-8.655172 2.311998 29.640999 38 27 30
-8.600248 2.313170 29.656029 27 29 23
-8.548963 2.315344 29.683901 19 38 38
-8.496718 2.317287 29.708805 29 18 27
-8.444925 2.319381 29.735651 32 17 35
-8.394491 2.321880 29.767698 30 40 40
-8.340604 2.323454 29.787872 35 26 44
-8.290468 2.326103 29.821827 18 20 37
-8.239130 2.328450 29.851921 44 20 18
-8.187201 2.330663 29.880297 35 37 43
-8.135997 2.333117 29.911755 42 22 44
-8.080763 2.334443 29.928753 25 37 24
-8.025930 2.335905 29.947498 28 16 22
-7.968566 2.336647 29.957016 25 24 22
-7.910248 2.337119 29.963062 29 29 41
-7.853386 2.338031 29.974754 30 20 15
-7.795557 2.338667 29.982912 39 38 21
-7.738231 2.339465 29.993143 17 30 28
-7.679345 2.339800 29.997442 25 30 44
-7.621010 2.340310 30.003977 44 20 41
-7.564721 2.341461 30.018736 25 29 27
-7.508146 2.342542 30.032585 30 39 31
-7.454596 2.344591 30.058855 19 33 17
-7.400832 2.346605 30.084684 26 29 25
-7.346723 2.348543 30.109520 23 34 43
-7.292517 2.350481 30.134369 40 24 30
-7.235140 2.351421 30.146418 40 29 15
-7.176478 2.351955 30.153271 18 25 30
-7.116166 2.351953 30.153246 21 15 20
-7.053650 2.351217 30.143803 15 22 38
-6.989624 2.349960 30.127691 25 43 28
-6.925475 2.348639 30.110760 38 32 30
-6.860999 2.347184 30.092100 23 29 43
-6.798044 2.346227 30.079840 44 40 41
-6.736645 2.345796 30.074308 39 16 42
-6.675374 2.345402 30.069252 15 17 17
-6.615244 2.345405 30.069292 20 30 21
-6.560898 2.347477 30.095861 26 35 15
-6.507878 2.350067 30.129065 30 35 40
-6.458985 2.354209 30.182173 30 35 40
-6.414464 2.360039 30.256905 30 35 40
-6.366736 2.364788 30.317789 30 35 40
-6.324809 2.371803 30.407734 30 35 40
-6.277046 2.376745 30.471096 30 35 40
-6.230222 2.382144 30.540302 30 35 40
-6.190125 2.390246 30.644184 33 16 27
-6.144522 2.396364 30.722612 40 39 25
-6.104481 2.404795 30.830711 27 15 27
-6.058027 2.410847 30.908298 16 27 33
-6.009752 2.416292 30.978102 24 18 36
-5.964641 2.423136 31.065840 34 31 15
-5.912443 2.427214 31.118122 35 30 42
-5.865011 2.433356 31.196869 34 40 19
-5.814025 2.438140 31.258202 33 34 17
-5.762209 2.442676 31.316353 41 17 28
-5.712233 2.448100 31.385895 31 22 15
-5.656718 2.451244 31.426208 16 34 26
-5.608437 2.457630 31.508072 19 25 16
-5.558651 2.463493 31.583246 28 41 16
-5.510530 2.470238 31.669714 27 34 15
-5.466548 2.479016 31.782253 28 19 24
-5.416391 2.485168 31.861122 30 38 44
-5.371639 2.493975 31.974041 33 33 31
-5.320860 2.500163 32.053371 24 28 20
-5.269976 2.506452 32.134003 44 30 30
-5.225072 2.515776 32.253532 34 34 26
-5.174523 2.522580 32.340771 27 44 38
-5.127615 2.531354 32.453259 28 36 41
-5.074708 2.537354 32.530178 39 25 19
-5.019110 2.542146 32.591621 20 32 37
-4.965206 2.547935 32.665829 30 15 38
-4.905678 2.550952 32.704517 29 39 26
-4.848441 2.555259 32.759735 27 42 16
-4.788748 2.558372 32.799644 37 29 35
-4.728521 2.561282 32.836948 24 26 18
-4.669937 2.565177 32.886883 27 35 16
-4.608642 2.567672 32.918873 17 15 31
-4.551155 2.572392 32.979382 33 19 30
-10.163250 2.363546 29.544331 31 30 38
-10.073975 2.356485 29.456066 21 21 38
-9.995139 2.351797 29.397467 18 31 42
-9.918922 2.347674 29.345922 39 23 21
-9.853648 2.346107 29.326334 28 43 41
-9.796610 2.346493 29.331167 35 41 20
-9.741098 2.347253 29.340656 19 18 23
-9.688629 2.348759 29.359482 41 30 24
-9.636665 2.350406 29.380077 15 18 15
-9.581412 2.351267 29.390833 24 35 39
-9.525159 2.351891 29.398638 29 44 22
-9.469533 2.352679 29.408487 31 28 28
-9.412285 2.353071 29.413389 42 36 26
-9.356606 2.353863 29.423290 33 40 21
-9.300986 2.354680 29.433500 44 32 23
-9.245090 2.355437 29.442961 30 35 42
-9.188922 2.356134 29.451674 44 38 40
-9.131063 2.356403 29.455042 39 37 26
-9.073505 2.356754 29.459431 23 39 28
-9.014864 2.356827 29.460340 31 32 35
-8.956930 2.357087 29.463585 38 24 44
-8.901098 2.357907 29.473833 38 41 42
-8.845414 2.358777 29.484713 15 26 29
-8.792019 2.360274 29.503420 38 41 33
-8.737500 2.361487 29.518581 38 33 16
-8.683592 2.362882 29.536028 27 41 24
-8.631094 2.364683 29.558542 16 25 40
-8.576473 2.365923 29.574043 32 18 39
-8.525622 2.368228 29.602854 36 23 40
-8.473836 2.370304 29.628798 44 15 15
-8.422448 2.372520 29.656506 32 24 43
-8.372350 2.375135 29.689184 39 24 27
-8.318634 2.376753 29.709408 30 22 23
-8.268542 2.379436 29.742956 15 37 31
-8.217180 2.381791 29.772392 36 26 23
-8.165164 2.383990 29.799870 36 31 38
-8.113881 2.386436 29.830444 29 41 36
-8.058682 2.387758 29.846972 43 44 15
-8.003675 2.389157 29.864458 41 15 29
-7.946146 2.389818 29.872728 24 26 18
-7.887598 2.390181 29.877264 38 21 32
-7.830425 2.390969 29.887117 44 37 32
-7.772451 2.391523 29.894041 33 18 41
-7.714746 2.392169 29.902115 30 19 36
-7.655628 2.392384 29.904797 17 44 39
-7.596963 2.392744 29.909302 36 32 26
-7.540085 2.393678 29.920971 30 43 18
-7.483085 2.394587 29.932339 26 42 32
-7.428899 2.396419 29.955236 30 34 40
-7.374776 2.398301 29.978765 40 30 28
-7.320375 2.400123 30.001535 16 38 39
-7.265737 2.401897 30.023706 37 17 18
-7.208192 2.402731 30.034132 18 38 21
-7.149146 2.403074 30.038427 17 23 18
-7.088519 2.402888 30.036097 35 34 21
-7.025791 2.401980 30.024746 20 44 34
-6.961634 2.400564 30.007044 37 42 24
-6.897628 2.399175 29.989689 21 25 24
-6.833261 2.397635 29.970444 16 28 41
-6.770480 2.396630 29.957878 18 27 25
-6.709230 2.396153 29.951918 34 15 35
-6.647961 2.395661 29.945768 35 44 35
-6.587845 2.395580 29.944752 35 24 26
-6.533450 2.397596 29.969955 30 35 40
-6.480504 2.400187 30.002333 30 35 40
-6.431687 2.404369 30.054611 30 35 40
-6.387148 2.410245 30.128057 30 35 40
-6.339479 2.415040 30.187996 30 35 40
-6.297423 2.422086 30.276072 30 35 40
-6.249522 2.426999 30.337484 30 35 40
-6.202602 2.432393 30.404911 30 35 40
-6.162434 2.440568 30.507099 30 35 40
-6.116961 2.446785 30.584806 20 31 39
-6.077196 2.455433 30.692911 40 15 40
-6.031404 2.461797 30.772469 27 15 36
-5.983505 2.467425 30.842810 18 25 15
-5.937827 2.474095 30.926182 44 27 26
-5.884706 2.477771 30.972136 27 34 33
-5.836654 2.483683 31.046034 28 30 42
-5.785853 2.488539 31.106737 19 24 17
-5.734612 2.493310 31.166370 25 41 43
-5.685202 2.498990 31.237371 23 39 36
-5.630280 2.502347 31.279335 35 26 18
-5.582474 2.508977 31.362213 26 16 42
-5.532933 2.514970 31.437120 29 22 28
-5.484961 2.521821 31.522762 24 30 24
-5.441207 2.530794 31.634922 37 24 21
-5.391329 2.537096 31.713699 28 17 33
-5.346699 2.546047 31.825592 35 41 33
-5.296047 2.552312 31.903896 31 15 28
-5.245130 2.558600 31.982502 29 33 27
-5.199873 2.567839 32.097984 15 43 29
-5.149014 2.574507 32.181335 18 15 17
-5.101938 2.583260 32.290745 38 15 24
-5.049175 2.589321 32.366508 37 15 17
-4.994100 2.594337 32.429218 31 36 22
-4.941198 2.600630 32.507881 37 44 41
-4.882834 2.604178 32.552227 38 23 24
-4.826037 2.608669 32.608360 37 42 22
-4.765932 2.611470 32.643372 36 24 19
-4.704939 2.613855 32.673187 17 31 28
-4.645775 2.617338 32.716728 24 18 34
-4.584319 2.619611 32.745136 34 16 31
-4.526697 2.624172 32.802155 33 22 17
-4.468398 2.628470 32.855869 41 31 34
-10.156227 2.406967 29.353258 29 34 44
-10.072910 2.401101 29.281715 37 40 40
-9.986781 2.394491 29.201115 25 22 40
-9.913425 2.390885 29.157133 31 26 26
-9.844910 2.388410 29.126951 15 30 30
-9.785646 2.388164 29.123945 18 15 29
-9.734353 2.389871 29.144770 43 21 43
-9.685324 2.392158 29.172663 40 37 21
-9.636726 2.394580 29.202200 38 15 24
-9.588479 2.397120 29.233168 42 16 22
-9.534858 2.398339 29.248032 44 37 31
-9.479270 2.399075 29.257008 27 28 24
-9.425152 2.400194 29.270658 15 37 35
-9.368967 2.400798 29.278021 29 15 36
-9.314522 2.401858 29.290949 16 33 17
-9.259868 2.402877 29.303381 43 17 41
-9.204653 2.403763 29.314182 18 16 36
-9.149046 2.404557 29.323866 22 26 19
-9.091404 2.404823 29.327110 18 38 34
-9.034024 2.405162 29.331245 26 35 21
-8.975597 2.405225 29.332018 27 44 41
-8.917833 2.405468 29.334976 27 31 37
-8.862122 2.406272 29.344776 36 23 29
-8.806576 2.407131 29.355253 19 19 24
-8.753410 2.408656 29.373859 39 23 30
-8.699189 2.409911 29.389153 28 17 42
-8.645695 2.411384 29.407125 30 28 33
-8.593684 2.413295 29.430424 24 33 43
-8.539530 2.414626 29.446655 39 40 33
-8.489240 2.417075 29.476526 32 44 28
-8.437985 2.419282 29.503445 31 37 21
-8.387025 2.421606 29.531778 40 21 41
-8.337230 2.424301 29.564644 21 24 35
-8.283684 2.425936 29.584585 20 25 28
-8.233527 2.428594 29.617002 36 21 29
-8.182037 2.430895 29.645061 26 28 24
-8.129853 2.433022 29.670998 26 32 18
-8.078453 2.435416 29.700193 40 39 16
-8.023339 2.436718 29.716072 26 18 24
-7.968232 2.438041 29.732210 23 33 36
-7.910628 2.438615 29.739202 31 39 41
-7.851953 2.438864 29.742247 17 28 41
-7.794575 2.439523 29.750286 39 42 27
-7.736557 2.439991 29.755987 30 21 24
-7.678540 2.440466 29.761782 18 16 28
-7.619250 2.440541 29.762697 15 24 16
-7.560242 2.440708 29.764730 19 22 16
-7.502620 2.441329 29.772303 28 26 26
-7.445046 2.441975 29.780186 21 35 28
-7.389994 2.443466 29.798363 33 29 44
-7.335354 2.445118 29.818512 26 27 24
-7.280522 2.446733 29.838205 22 17 41
-7.225279 2.448235 29.856525 37 33 30
-7.167513 2.448900 29.864637 26 30 38
-7.108015 2.448980 29.865608 21 29 18
-7.047056 2.448553 29.860407 30 33 29
-6.984209 2.447458 29.847046 32 30 36
-6.920102 2.445898 29.828024 27 33 44
-6.856503 2.444493 29.810884 20 33 22
-6.792548 2.442934 29.791876 20 43 38
-6.730207 2.441934 29.779678 37 20 19
-6.669340 2.441455 29.773840 38 16 26
-6.608291 2.440900 29.767076 30 35 40
-6.548332 2.440742 29.765146 20 39 18
-6.494010 2.442701 29.789036 29 42 27
-6.441245 2.445288 29.820580 30 35 40
-6.392560 2.449486 29.871775 30 35 40
-6.348001 2.455359 29.943403 30 35 40
-6.300385 2.460150 30.001833 30 35 40
-6.258137 2.467150 30.087198 30 35 40
-6.210080 2.471973 30.146017 30 35 40
-6.163062 2.477309 30.211086 30 35 40
-6.122830 2.485505 30.311041 42 15 25
-6.077562 2.491800 30.387810 36 33 27
-6.038169 2.500656 30.495804 42 23 27
-5.993191 2.507356 30.577507 33 24 32
-5.945814 2.513179 30.648525 23 36 15
-5.899596 2.519619 30.727062 19 20 16
-5.845532 2.522809 30.765959 33 40 37
-5.796871 2.528422 30.834419 16 27 23
-5.746355 2.533340 30.894384 44 44 35
-5.695833 2.538360 30.955612 27 29 38
-5.647125 2.544309 31.028162 19 20 16
-5.592948 2.547899 31.071934 40 42 31
-5.545697 2.554759 31.155600 29 43 43
-5.496453 2.560847 31.229847 36 37 37
-5.448616 2.567738 31.313883 41 40 35
-5.405006 2.576805 31.424452 20 37 25
-5.355348 2.583168 31.502045 24 36 44
-5.310749 2.592151 31.611599 30 17 26
-5.260223 2.598423 31.688091 32 38 35
-5.209303 2.604652 31.764046 22 16 43
-5.163709 2.613729 31.874748 35 27 34
-5.112611 2.620213 31.953821 38 20 43
-5.065304 2.628829 32.058887 19 44 18
-5.012512 2.634782 32.131489 15 27 22
-4.957879 2.639910 32.194019 30 19 18
-4.906040 2.646680 32.276581 16 30 17
-4.849069 2.650825 32.327129 44 42 31
-4.793510 2.655864 32.388584 20 35 34
-4.734179 2.658922 32.425880 34 23 23
-4.673510 2.661304 32.454929 42 33 37
-4.614322 2.664608 32.495224 23 28 37
-4.552640 2.666546 32.518856 18 30 24
-4.494739 2.670787 32.570576 36 44 16
-4.436529 2.674966 32.621540 36 15 20
-4.378858 2.679600 32.678043 19 22 31
-10.174850 2.455998 29.238073 37 35 20
-10.089956 2.449585 29.161722 44 41 30
-10.010095 2.444326 29.099113 31 19 37
-9.928619 2.438608 29.031050 19 25 20
-9.859490 2.435874 28.998499 35 32 40
-9.796382 2.434604 28.983377 28 34 41
-9.740929 2.435232 28.990860 26 44 31
-9.692957 2.437750 29.020828 21 30 24
-9.648190 2.441108 29.060814 32 25 30
-9.602352 2.444235 29.098036 23 39 41
-9.555641 2.447176 29.133051 25 17 35
-9.501258 2.448177 29.144964 21 21 36
-9.444299 2.448522 29.149071 26 22 44
-9.390257 2.449632 29.162289 33 30 26
-9.334949 2.450424 29.171715 44 27 15
-9.281509 2.451719 29.187136 37 34 25
-9.227569 2.452898 29.201168 28 36 25
-9.172958 2.453912 29.213242 40 24 32
-9.117888 2.454816 29.224001 28 42 18
-9.060513 2.455107 29.227461 16 36 23
-9.003522 2.455506 29.232216 16 34 22
-8.945540 2.455638 29.233791 17 34 23
-8.888192 2.455948 29.237474 16 21 20
-8.832843 2.456817 29.247824 27 15 23
-8.777524 2.457707 29.258413 42 28 19
