ply
format ascii 1.0
element vertex 1255
property float x
property float y
property float z
property uchar red
property uchar green
property uchar blue
end_header
-5.614640 3.521045 23.790848 36 35 23
-5.568269 3.521811 23.796022 29 42 36
-5.522537 3.522997 23.804037 32 34 39
-5.475941 3.523649 23.808437 29 29 26
-5.431218 3.525528 23.821133 17 39 22
-5.386558 3.527481 23.834330 31 33 17
-5.342606 3.529936 23.850918 33 31 34
-5.299261 3.532841 23.870544 16 26 38
-5.254380 3.534765 23.883545 24 18 15
-5.213074 3.539151 23.913185 23 25 29
-5.171298 3.543297 23.941193 120 120 120
-5.130800 3.548404 23.975700 120 120 120
-5.092560 3.555183 24.021509 120 120 120
-5.051531 3.560126 24.054909 21 36 35
-5.013657 3.567410 24.104120 31 26 18
-4.972547 3.572510 24.138578 17 24 24
-4.931929 3.578066 24.176125 18 43 15
-4.895298 3.586654 24.234148 22 17 25
-4.855748 3.593254 24.278740 32 17 40
-4.818458 3.601676 24.335646 27 24 37
-4.776652 3.606859 24.370672 44 40 20
-4.734238 3.611687 24.403290 43 18 44
-4.694842 3.618941 24.452301 30 26 43
-4.652483 3.624039 24.486752 20 28 29
-4.614287 3.632524 24.544081 23 16 23
-4.574120 3.639622 24.592041 35 26 26
-4.534000 3.646913 24.641302 42 23 17
-4.495591 3.655756 24.701052 16 17 41
-4.452891 3.661266 24.738281 25 22 17
-4.414130 3.670175 24.798483 38 38 17
-4.373297 3.677545 24.848276 23 26 21
-4.332179 3.684842 24.897583 43 24 39
-4.292740 3.693753 24.957788 16 22 36
-4.249130 3.699242 24.994881 30 19 21
-4.208361 3.707365 25.049767 37 26 25
-4.165019 3.713391 25.090479 28 20 27
-4.121457 3.719364 25.130835 30 17 34
-4.080142 3.727537 25.186060 37 23 23
-4.035765 3.733082 25.223530 25 42 29
-3.994190 3.741393 25.279684 39 30 35
-3.950123 3.747553 25.321304 43 21 43
-3.906061 3.753877 25.364035 25 23 24
-3.864142 3.762454 25.421988 37 43 19
-3.819230 3.768307 25.461536 39 21 17
-3.778143 3.778143 25.527994 22 29 17
-3.735186 3.786353 25.583467 36 41 40
-3.692387 3.794953 25.641573 25 21 37
-3.651908 3.806214 25.717661 34 41 16
-3.607707 3.813862 25.769337 18 17 22
-3.564462 3.822756 25.829435 31 30 29
-3.517370 3.827726 25.863016 25 23 30
-7.949978 3.349710 22.331398 30 39 23
-7.912337 3.352685 22.351234 20 22 25
-7.877970 3.357089 22.380596 16 31 30
-7.841794 3.360769 22.405127 26 15 40
-7.812355 3.367394 22.449295 22 28 17
-7.782150 3.373765 22.491764 22 26 18
-7.750867 3.379738 22.531590 29 39 21
-7.717965 3.385072 22.567148 40 15 38
-7.677317 3.387052 22.580345 28 29 22
-7.640973 3.390964 22.606428 33 40 36
-7.603611 3.394469 22.629793 44 31 27
-7.567151 3.398421 22.656141 30 29 26
-7.533794 3.403823 22.692150 42 43 34
-7.496932 3.407696 22.717976 16 28 16
-7.464584 3.413682 22.757877 24 40 44
-7.429075 3.418286 22.788572 30 18 15
-7.393781 3.423047 22.820312 39 31 27
-7.361936 3.429473 22.863155 28 25 30
-7.325638 3.433893 22.892618 19 41 18
-7.292783 3.439992 22.933281 43 16 32
-7.256295 3.444444 22.962957 32 29 39
-7.218485 3.448321 22.988806 28 40 31
-7.182296 3.453027 23.020180 26 18 37
-7.141721 3.455672 23.037811 33 43 23
-7.103635 3.459562 23.063749 41 24 41
-7.063213 3.462359 23.082396 21 19 32
-7.022808 3.465201 23.101341 40 21 34
-6.984995 3.469368 23.129122 44 31 26
-6.944746 3.472373 23.149155 34 25 43
-6.907184 3.476771 23.178471 27 44 43
-6.867204 3.480002 23.200012 17 30 33
-6.827091 3.483210 23.221399 21 39 18
-6.789107 3.487555 23.250366 32 28 36
-6.748276 3.490487 23.269917 32 40 16
-6.709687 3.494629 23.297525 18 24 25
-6.668885 3.497667 23.317781 18 27 43
-6.627486 3.500433 23.336220 22 42 36
-6.587407 3.503940 23.359598 34 21 40
-6.544656 3.506065 23.373770 30 35 40
-6.503657 3.509168 23.394451 30 35 40
-6.461022 3.511425 23.409500 30 35 40
-6.418275 3.513654 23.424360 30 35 40
-6.377043 3.516752 23.445011 30 35 40
-6.333972 3.518873 23.459156 30 35 40
-6.292768 3.522071 23.480476 30 35 40
-6.250480 3.524707 23.498047 30 35 40
-6.207528 3.527005 23.513365 30 35 40
-6.164622 3.529364 23.529093 31 37 28
-6.119389 3.530417 23.536112 30 35 40
-6.075186 3.532085 23.547234 30 35 40
-6.030018 3.533214 23.554758 30 35 40
-5.985314 3.534634 23.564230 30 35 40
-5.942367 3.537123 23.580822 30 35 40
-5.898697 3.539218 23.594790 30 35 40
-5.857039 3.542564 23.617094 30 35 40
-5.814272 3.545288 23.635250 30 35 40
-5.771463 3.548030 23.653536 30 35 40
-5.729719 3.551479 23.676525 39 26 38
-5.685921 3.553700 23.691336 26 32 44
-5.642375 3.556118 23.707457 15 33 30
-5.596882 3.557340 23.715603 15 24 43
-5.550649 3.558109 23.720724 35 23 24
-5.505050 3.559300 23.728664 44 23 29
-5.458610 3.559963 23.733088 42 42 29
-5.413964 3.561818 23.745455 29 31 38
-5.369289 3.563688 23.757917 42 36 38
-5.325387 3.566107 23.774048 16 43 24
-5.282322 3.569137 23.794245 35 17 22
-5.237857 3.571266 23.808441 28 23 23
-5.196764 3.575755 23.838367 15 38 17
-5.154943 3.579821 23.865477 120 120 120
-5.114300 3.584790 23.898598 120 120 120
-5.075955 3.591478 23.943186 120 120 120
-5.034931 3.596379 23.975861 27 42 38
-4.997042 3.603636 24.024240 35 18 15
-4.955916 3.608677 24.057844 40 18 22
-4.915433 3.614289 24.095259 20 23 40
-4.879184 3.623156 24.154375 33 27 26
-4.840148 3.630111 24.200741 18 21 16
-4.803288 3.638854 24.259029 44 31 42
-4.761687 3.644148 24.294319 41 29 21
-4.719347 3.648979 24.326529 19 27 22
-4.680015 3.656262 24.375078 32 24 19
-4.637704 3.661345 24.408966 26 44 39
-4.599454 3.669777 24.465181 32 41 20
-4.559290 3.676847 24.512310 21 35 16
-4.519098 3.684047 24.560316 38 25 33
-4.480466 3.692692 24.617945 36 34 28
-4.437600 3.698000 24.653336 37 35 29
-4.398578 3.706667 24.711115 20 28 35
-4.357591 3.713856 24.759039 43 33 16
-4.316425 3.721056 24.807043 35 34 31
-4.276976 3.729921 24.866140 27 32 27
-4.233522 3.735461 24.903070 32 26 20
-4.193009 3.743758 24.958385 35 38 37
-4.149907 3.749916 24.999441 40 31 44
-4.106757 3.756180 25.041201 39 28 35
-4.066103 3.764911 25.099403 30 28 42
-4.022393 3.770994 25.139957 32 44 25
-3.981596 3.779996 25.199976 38 16 29
-3.938076 3.786612 25.244078 38 41 39
-3.894493 3.793337 25.288914 17 29 34
-3.853150 3.802451 25.349674 17 19 27
-3.808645 3.808645 25.390965 17 26 19
-3.768028 3.818947 25.459648 35 21 25
-3.725647 3.827719 25.518127 26 26 19
-3.683018 3.836477 25.576515 32 32 23
-3.641988 3.847171 25.647806 33 28 43
-3.596913 3.853835 25.692234 32 42 21
-3.552622 3.861546 25.743641 23 30 40
-3.504904 3.865703 25.771357 30 34 29
-7.872001 3.380068 22.237291 20 35 43
-7.838347 3.384741 22.268030 29 15 43
-7.802703 3.388603 22.293438 23 29 35
-7.773780 3.395444 22.338449 35 20 25
-7.743912 3.401950 22.381248 24 22 27
-7.712866 3.408011 22.421124 37 26 29
-7.680192 3.413419 22.456701 32 44 16
-7.639711 3.415400 22.469738 38 31 28
-7.603787 3.419454 22.496410 38 33 37
-7.566984 3.423160 22.520786 37 29 29
-7.531198 3.427372 22.548498 29 30 44
-7.498579 3.433085 22.586082 22 32 33
-7.462288 3.437175 22.612995 32 33 16
-7.430618 3.443457 22.654322 28 35 33
-7.395668 3.448287 22.686098 40 42 28
-7.360829 3.453228 22.718607 44 37 39
-7.329422 3.459851 22.762180 37 26 27
-7.293392 3.464361 22.791851 44 19 29
-7.260773 3.470558 22.832621 17 23 22
-7.224496 3.475074 22.862329 28 38 26
-7.186818 3.478969 22.887957 27 42 26
-7.150688 3.483669 22.918873 30 19 42
-7.110163 3.486274 22.936010 43 39 23
-7.072089 3.490122 22.961329 37 19 40
-7.031753 3.492897 22.979586 19 42 32
-6.991453 3.495727 22.998201 17 29 16
-6.953705 3.499878 23.025515 42 29 32
-6.913569 3.502875 23.045231 27 44 19
-6.876073 3.507259 23.074072 17 25 40
-6.836163 3.510462 23.095144 33 25 26
-6.796167 3.513665 23.116215 21 36 42
-6.758390 3.518066 23.145170 40 37 25
-6.717850 3.521080 23.164999 29 40 21
-6.679558 3.525322 23.192911 39 32 30
-6.639013 3.528427 23.213333 23 26 44
-6.597864 3.531251 23.231915 24 37 37
-6.558052 3.534836 23.255503 15 36 28
-6.515552 3.537014 23.269829 40 31 44
-6.474732 3.540141 23.290401 30 35 40
-6.432195 3.542368 23.305056 30 35 40
-6.389546 3.544565 23.319510 30 35 40
-6.348495 3.547688 23.340055 30 35 40
-6.305678 3.549863 23.354364 30 35 40
-6.264754 3.553144 23.375948 30 35 40
-6.222759 3.555862 23.393829 30 35 40
-6.180070 3.558222 23.409355 22 23 35
-6.137335 3.560591 23.424944 30 35 40
-6.092221 3.561606 23.431618 30 35 40
-6.048156 3.563255 23.442465 30 35 40
-6.003223 3.564414 23.450090 30 35 40
-5.958723 3.565850 23.459539 30 35 40
-5.915853 3.568292 23.475607 30 35 40
-5.872230 3.570316 23.488920 30 35 40
-5.830528 3.573550 23.510195 30 35 40
-5.787751 3.576172 23.527445 30 35 40
-5.744958 3.578826 23.544909 30 35 40
-5.703249 3.582206 23.567146 30 35 40
-5.659607 3.584418 23.581697 28 32 35
-5.616179 3.586803 23.597391 34 41 29
-5.570825 3.587989 23.605190 21 16 16
-5.524723 3.588709 23.609926 35 39 17
-5.479242 3.589848 23.617424 40 38 42
-5.432954 3.590474 23.621540 28 37 23
-5.388318 3.592212 23.632975 28 18 17
-5.343563 3.593901 23.644083 30 35 40
-5.299643 3.596186 23.659119 38 31 41
-5.256780 3.599237 23.679188 24 28 37
-5.212708 3.601507 23.694128 18 30 44
-5.171839 3.606053 23.724033 17 19 30
-5.130083 3.610058 23.750383 120 120 120
-5.089403 3.614903 23.782259 120 120 120
-5.050970 3.621450 23.825331 120 120 120
-5.009938 3.626241 23.856850 18 31 36
-4.972024 3.633402 23.903963 36 38 25
-4.930929 3.638356 23.936550 32 18 23
-4.890649 3.644013 23.973772 40 40 24
-4.854830 3.653139 24.033810 38 18 25
-4.816359 3.660433 24.081795 26 17 40
-4.780079 3.669556 24.141813 34 19 15
-4.738918 3.675079 24.178152 38 31 24
-4.696906 3.680050 24.210855 25 22 28
-4.657848 3.687463 24.259623 17 33 22
-4.615706 3.692565 24.293192 38 30 42
-4.577511 3.700967 24.348465 42 36 15
-4.537442 3.708017 24.394848 32 21 43
-4.497220 3.715095 24.441412 44 41 24
-4.458354 3.723460 24.496449 23 35 21
-4.415305 3.728480 24.529470 24 18 23
-4.375936 3.736754 24.583910 43 40 30
-4.334740 3.743639 24.629204 39 23 42
-4.293464 3.750612 24.675081 41 43 20
-4.253913 3.759272 24.732052 26 26 31
-4.210584 3.764757 24.768141 30 19 28
-4.170318 3.773145 24.823322 20 34 37
-4.127519 3.779415 24.864574 43 18 19
-4.084895 3.786000 24.907898 39 37 15
-4.045038 3.795345 24.969372 41 23 24
-4.002140 3.802033 25.013374 36 25 25
-3.962250 3.811785 25.077532 32 30 22
-3.919351 3.818855 25.124046 17 40 24
-3.876320 3.825978 25.170906 32 36 22
-3.835696 3.835696 25.234840 43 43 24
-3.791755 3.842311 25.278364 37 20 33
-3.751640 3.853036 25.348919 37 18 21
-3.709854 3.862314 25.409962 16 36 17
-3.667221 3.870955 25.466812 29 15 17
-3.625091 3.880379 25.528809 20 38 23
-3.578571 3.885306 25.561222 40 26 23
-3.532936 3.891349 25.600983 40 19 27
-7.808060 3.416026 22.181988 41 36 23
-7.772723 3.419998 22.207781 20 42 42
-7.743812 3.426860 22.252335 17 39 18
-7.713683 3.433258 22.293882 18 28 18
-7.682320 3.439178 22.332325 20 31 18
-7.649433 3.444481 22.366762 37 40 32
-7.608978 3.446419 22.379347 28 18 38
-7.573271 3.450544 22.406128 37 18 44
-7.536845 3.454387 22.431087 30 33 33
-7.501577 3.458811 22.459810 16 29 33
-7.469474 3.464756 22.498415 37 18 33
-7.433589 3.469008 22.526026 20 43 23
-7.402486 3.475558 22.568556 15 41 37
-7.368061 3.480618 22.601414 25 21 25
-7.333731 3.485786 22.634972 23 15 34
-7.302864 3.492674 22.679703 37 38 21
-7.267203 3.497342 22.710011 22 18 22
-7.234965 3.503725 22.751463 19 17 35
-7.198956 3.508352 22.781506 44 20 29
-7.161497 3.512326 22.807314 31 30 44
-7.125636 3.517141 22.838575 44 19 38
-7.085339 3.519814 22.855932 15 23 33
-7.047503 3.523751 22.881502 22 40 36
-7.007382 3.526591 22.899942 38 44 24
-6.967270 3.529472 22.918650 17 34 20
-6.929691 3.533684 22.945997 44 20 39
-6.889698 3.536712 22.965660 39 26 38
-6.852351 3.541148 22.994467 39 15 37
-6.812577 3.544381 23.015463 40 43 32
-6.772766 3.547639 23.036619 40 43 36
-6.735262 3.552159 23.065966 28 43 41
-6.695026 3.555290 23.086298 43 44 27
-6.657074 3.559685 23.114840 42 17 40
-6.616809 3.562897 23.135695 35 44 32
-6.575915 3.565813 23.154629 42 29 20
-6.536365 3.569504 23.178598 36 35 39
-6.494068 3.571737 23.193100 43 18 27
-6.453417 3.574915 23.213732 41 30 16
-6.410965 3.577132 23.228132 30 26 35
-6.368421 3.579331 23.242411 39 24 17
-6.327608 3.582543 23.263266 30 35 40
-6.285082 3.584825 23.278082 43 29 26
-6.244433 3.588219 23.300123 40 40 30
-6.202632 3.590997 23.318165 31 37 20
-6.160088 3.593385 23.333666 25 29 43
-6.117483 3.595773 23.349173 19 22 41
-6.072472 3.596772 23.355661 30 35 40
-6.028549 3.598436 23.366468 30 35 40
-5.983831 3.599648 23.374340 30 35 40
-5.939519 3.601126 23.383934 30 35 40
-5.896744 3.603566 23.399778 30 35 40
-5.853163 3.605549 23.412653 30 35 40
-5.811448 3.608721 23.433256 30 35 40
-5.768680 3.611288 23.449921 30 35 40
-5.725902 3.613889 23.466810 30 35 40
-5.684218 3.617229 23.488503 31 34 39
-5.640670 3.619430 23.502792 17 29 38
-5.597275 3.621766 23.517963 30 35 21
-5.551968 3.622895 23.525290 36 15 16
-5.505903 3.623543 23.529499 18 17 22
-5.460423 3.624591 23.536306 36 44 22
-5.414195 3.625157 23.539980 30 35 40
-5.369477 3.626752 23.550337 30 35 40
-5.324606 3.628271 23.560202 30 35 40
-5.280598 3.630411 23.574097 30 35 40
-5.237727 3.633378 23.593367 30 35 40
-5.193807 3.635665 23.608212 18 35 32
-5.153025 3.640210 23.637728 31 31 16
-5.111356 3.644208 23.663687 120 120 120
-5.070723 3.649025 23.694969 120 120 120
-5.032224 3.655484 23.736908 120 120 120
-4.991155 3.660180 23.767403 15 33 43
-4.953194 3.667268 23.813431 44 31 22
-4.912129 3.672174 23.845285 17 20 29
-4.871991 3.677875 23.882307 25 36 31
-4.836412 3.687165 23.942633 42 27 32
-4.798262 3.694662 23.991310 34 35 43
-4.762411 3.704098 24.052582 15 40 32
-4.721672 3.709885 24.090162 29 22 41
-4.680039 3.715083 24.123915 23 35 34
-4.641298 3.722708 24.173428 24 34 33
-4.599344 3.727889 24.207071 34 20 23
-4.561262 3.736353 24.262033 38 17 21
-4.521310 3.743450 24.308119 29 38 31
-4.481095 3.750481 24.353775 34 27 20
-4.442083 3.758686 24.407049 34 22 35
-4.398898 3.763502 24.438322 27 38 31
-4.359253 3.771488 24.490185 35 23 31
-4.317881 3.778146 24.533413 24 30 43
-4.276471 3.784923 24.577419 35 39 15
-4.236740 3.793360 24.632210 28 40 19
-4.193402 3.798729 24.667068 22 25 15
-4.153206 3.807105 24.721464 19 24 23
-4.110574 3.813424 24.762495 36 23 20
-4.068283 3.820217 24.806602 37 35 26
-4.028907 3.829949 24.869797 36 41 33
-3.986525 3.837031 24.915783 22 42 37
-3.947172 3.847244 24.982101 35 27 15
-3.904617 3.854558 25.029598 34 23 36
-3.861901 3.861901 25.077276 41 44 30
-3.821732 3.872018 25.142971 17 18 44
-3.778197 3.878949 25.187983 38 27 21
-3.738441 3.889999 25.259733 27 23 24
-3.697151 3.899735 25.322954 34 40 19
-3.654488 3.908272 25.378387 43 38 15
-3.611243 3.916418 25.431288 41 33 31
-3.563281 3.919609 25.452007 35 38 29
-7.777851 3.447002 22.096169 30 36 42
-7.742642 3.451006 22.121834 21 32 26
-7.713433 3.457746 22.165037 38 33 20
-7.682761 3.463904 22.204512 15 31 15
-7.650834 3.469564 22.240797 18 31 20
-7.617593 3.474691 22.273663 38 26 36
-7.577186 3.476591 22.285841 36 24 28
-7.541648 3.480761 22.312569 27 39 36
-7.505520 3.484706 22.337856 40 42 19
-7.470655 3.489288 22.367231 37 44 43
-7.438895 3.495385 22.406311 25 24 29
-7.403274 3.499729 22.434162 26 21 38
-7.372607 3.506484 22.477461 22 29 26
-7.338662 3.511753 22.511234 32 25 29
-7.304847 3.517149 22.545824 28 38 17
-7.274507 3.524295 22.591637 28 21 44
-7.239219 3.529119 22.622561 33 18 29
-7.207416 3.535713 22.664829 16 42 21
-7.171728 3.540473 22.695341 43 18 24
-7.134595 3.544576 22.721642 26 29 44
-7.099211 3.549606 22.753881 33 37 22
-7.059346 3.552445 22.772083 16 34 37
-7.021991 3.556593 22.798672 21 35 31
-6.982248 3.559577 22.817802 38 44 25
-6.942437 3.562566 22.836964 39 20 33
-6.905152 3.566899 22.864740 18 17 38
-6.865356 3.569985 22.884521 16 38 20
-6.828225 3.574507 22.913506 44 31 39
-6.788636 3.577794 22.934580 44 28 30
-6.749034 3.581120 22.955896 23 23 27
-6.711817 3.585765 22.985674 43 41 28
-6.671870 3.589006 23.006449 44 24 34
-6.634254 3.593554 23.035604 31 32 23
-6.594273 3.596876 23.056900 36 33 42
-6.553655 3.599895 23.076250 40 28 18
-6.514422 3.603723 23.100786 33 23 36
-6.472393 3.606048 23.115690 36 35 29
-6.431977 3.609311 23.136608 22 35 44
-6.389680 3.611558 23.151014 35 33 25
-6.347250 3.613763 23.165148 18 39 39
-6.306574 3.617006 23.185934 28 18 33
-6.264187 3.619308 23.200693 24 35 15
-6.223671 3.622734 23.222652 34 18 38
-6.182010 3.625540 23.240641 18 29 17
-6.139597 3.627944 23.256048 38 25 15
-6.097094 3.630331 23.271353 28 40 24
-6.052184 3.631310 23.277630 30 35 40
-6.008402 3.632987 23.288380 30 35 40
-5.963896 3.634249 23.296469 30 35 40
-5.919776 3.635768 23.306206 30 35 40
-5.877098 3.638204 23.321817 30 35 40
-5.833576 3.640151 23.334303 30 35 40
-5.791874 3.643276 23.354332 30 35 40
-5.749160 3.645809 23.370567 30 35 40
-5.706443 3.648382 23.387062 30 35 40
-5.664816 3.651700 23.408331 22 26 44
-5.621384 3.653899 23.422432 36 34 17
-5.578044 3.656197 23.437159 19 19 29
-5.532807 3.657280 23.444099 41 37 29
-5.486781 3.657854 23.447781 15 33 18
-5.441305 3.658809 23.453901 30 35 40
-5.395122 3.659300 23.457050 30 35 40
-5.350305 3.660735 23.466251 30 35 40
-5.305312 3.662074 23.474831 30 35 40
-5.261191 3.664044 23.487461 30 35 40
-5.218229 3.666864 23.505537 30 35 40
-5.174361 3.669093 23.519825 30 35 40
-5.133669 3.673634 23.548939 29 21 21
-5.092217 3.677712 23.575077 120 120 120
-5.051787 3.682611 23.606482 120 120 120
-5.013332 3.689056 23.647795 120 120 120
-4.972255 3.693675 23.677406 23 15 43
-4.934301 3.700725 23.722599 40 29 16
-4.893337 3.705634 23.754065 21 38 18
-4.853369 3.711400 23.791023 19 41 15
-4.817948 3.720791 23.851227 43 16 36
-4.779988 3.728390 23.899939 38 35 37
-4.744501 3.738092 23.962128 41 20 35
-4.704239 3.744190 24.001221 34 19 36
-4.663097 3.749707 24.036581 22 30 23
-4.624762 3.757619 24.087303 16 16 20
-4.583055 3.762930 24.121344 19 36 26
-4.545172 3.771526 24.176447 28 24 44
-4.505403 3.778725 24.222595 29 24 19
-4.465255 3.785760 24.267691 28 43 20
-4.426202 3.793887 24.319790 28 34 23
-4.382954 3.798560 24.349743 21 17 36
-4.343119 3.806329 24.399546 20 44 43
-4.301624 3.812803 24.441048 38 41 44
-4.260104 3.819403 24.483355 15 44 18
-4.220218 3.827640 24.536154 35 15 21
-4.176865 3.832888 24.569792 21 40 21
-4.136722 3.841242 24.623346 22 21 37
-4.094257 3.847615 24.664200 40 31 32
-4.052262 3.854591 24.708914 41 22 40
-4.013265 3.864626 24.773243 20 17 38
-3.971283 3.872001 24.820517 20 32 39
-3.932322 3.882546 24.888113 31 38 18
-3.890024 3.890024 24.936052 21 15 23
-3.847540 3.897508 24.984024 33 37 37
-3.807747 3.907950 25.050964 22 37 34
-3.764588 3.915172 25.097256 32 25 44
-3.724929 3.926276 25.168438 29 25 19
-3.683670 3.935976 25.230616 29 38 16
-3.640629 3.944015 25.282145 42 44 43
-3.596307 3.950873 25.326107 16 25 25
-3.547251 3.952651 25.337505 38 19 15
-7.703607 3.477628 22.010305 41 39 20
-7.674239 3.484281 22.052410 38 18 27
-7.643230 3.490261 22.090260 34 15 19
-7.610965 3.495734 22.124897 43 43 25
-7.577640 3.500781 22.156843 25 37 31
-7.537487 3.502714 22.169079 38 43 18
-7.502303 3.506993 22.196161 21 25 42
-7.466580 3.511070 22.221964 25 17 44
-7.432156 3.515810 22.251963 41 41 25
-7.400758 3.522048 22.291441 27 15 22
-7.365393 3.526461 22.319372 30 36 36
-7.335107 3.533375 22.363132 18 18 16
-7.301621 3.538822 22.397610 26 18 15
-7.268258 3.544397 22.432894 39 42 42
-7.238312 3.551718 22.479231 21 25 29
-7.203287 3.556623 22.510271 20 20 33
-7.171799 3.563347 22.552828 22 20 26
-7.136398 3.568199 22.583538 19 43 15
-7.099614 3.572417 22.610235 18 30 43
-7.064724 3.577649 22.643347 33 27 42
-7.025349 3.580661 22.662415 44 35 34
-6.988527 3.585023 22.690022 19 29 40
-6.949201 3.588149 22.709806 22 30 23
-6.909738 3.591245 22.729401 23 42 34
-6.872793 3.595699 22.757591 29 27 23
-6.833238 3.598839 22.777460 20 43 21
-6.796320 3.603418 22.806444 37 26 15
-6.756900 3.606724 22.827364 31 35 17
-6.717473 3.610071 22.848549 40 38 34
-6.680508 3.614795 22.878450 25 43 35
-6.640849 3.618118 22.899479 32 15 29
-6.603565 3.622789 22.929047 43 29 39
-6.563875 3.626197 22.950613 28 21 37
-6.523589 3.629320 22.970383 43 34 17
-6.484813 3.633335 22.995790 28 31 40
-6.443226 3.635821 23.011522 18 35 37
-6.403207 3.639233 23.033119 37 29 37
-6.361224 3.641570 23.047915 18 37 24
-6.318947 3.643772 23.061850 30 24 22
-6.278209 3.646901 23.081652 16 35 32
-6.235679 3.649027 23.095108 42 22 22
-6.195072 3.652319 23.115942 29 31 42
-6.153564 3.655125 23.133699 43 37 38
-6.111369 3.657562 23.149124 30 29 38
-6.068968 3.659912 23.164001 39 27 30
-6.024166 3.660840 23.169870 30 35 40
-5.980518 3.662488 23.180304 30 35 40
-5.936241 3.663774 23.188442 30 35 40
-5.892344 3.665317 23.198206 30 35 40
-5.849782 3.667720 23.213421 30 35 40
-5.806349 3.669613 23.225397 30 35 40
-5.764707 3.672676 23.244787 30 35 40
-5.722105 3.675173 23.260588 30 35 40
-5.679526 3.677726 23.276745 30 35 40
-5.638054 3.681044 23.297745 25 31 40
-5.594829 3.683262 23.311787 16 40 16
-5.551663 3.685558 23.326317 32 28 18
-5.506610 3.686629 23.333094 42 27 30
-5.460732 3.687161 23.336460 24 36 22
-5.415355 3.688044 23.342049 30 35 40
-5.369290 3.688469 23.344738 30 35 40
-5.324429 3.689736 23.352758 30 35 40
-5.279351 3.690873 23.359959 30 35 40
-5.235157 3.692655 23.371235 30 35 40
-5.192159 3.695321 23.388105 30 35 40
-5.148421 3.697502 23.401913 30 35 40
-5.107935 3.702081 23.430895 16 29 24
-5.066837 3.706297 23.457577 120 120 120
-5.026741 3.711332 23.489443 120 120 120
-4.988423 3.717787 23.530298 120 120 120
-4.947384 3.722318 23.558973 26 44 19
-4.909482 3.729318 23.603281 42 31 17
-4.868684 3.734233 23.634388 17 35 24
-4.828929 3.740053 23.671221 28 15 20
-4.793669 3.749504 23.731035 32 38 30
-4.755892 3.757155 23.779459 25 43 19
-4.720792 3.767096 23.842382 44 42 15
-4.681078 3.773522 23.883049 34 41 40
-4.640514 3.779387 23.920174 22 20 18
-4.602656 3.787602 23.972164 20 18 17
-4.561245 3.793035 24.006554 41 37 41
-4.523618 3.801764 24.061796 19 25 23
-4.484083 3.809059 24.107971 42 23 27
-4.444068 3.816102 24.152542 34 32 22
-4.405042 3.824157 24.203526 32 33 40
-4.361811 3.828701 24.232283 42 40 15
-4.321874 3.836270 24.280191 20 16 21
-4.280329 3.842568 24.320049 32 36 44
-4.238797 3.849022 24.360901 30 40 20
-4.198898 3.857127 24.412199 22 26 26
-4.155675 3.862333 24.445147 22 20 29
-4.115766 3.870780 24.498610 34 15 39
-4.073620 3.877301 24.539877 41 25 15
-4.032063 3.884548 24.585749 26 38 27
-3.993601 3.894993 24.651855 28 40 34
-3.952128 3.902726 24.700798 30 38 23
-3.913679 3.913679 24.770121 41 33 42
-3.871743 3.921380 24.818863 39 38 36
-3.829562 3.929031 24.867285 41 42 22
-3.790238 3.939853 24.935780 31 30 40
-3.747538 3.947406 24.983583 38 22 44
-3.707691 3.958211 25.051970 44 34 41
-3.665819 3.967119 25.108349 19 16 33
-3.621912 3.974043 25.152168 32 33 25
-3.576683 3.979690 25.187910 27 35 35
-7.648424 3.516517 21.978230 16 31 31
-7.617262 3.522433 22.015209 17 30 37
-7.584875 3.527849 22.049055 41 37 18
-7.551638 3.532930 22.080812 31 35 16
-7.511750 3.534941 22.093382 34 38 30
-7.476866 3.539345 22.120905 35 40 40
-7.441395 3.543521 22.147009 17 39 30
-7.407178 3.548349 22.177179 23 42 21
-7.375911 3.554656 22.216599 31 41 25
-7.340614 3.559086 22.244286 44 23 27
-7.310441 3.566069 22.287930 29 20 28
-7.277153 3.571609 22.322556 44 43 19
-7.243984 3.577276 22.357975 37 28 27
-7.214141 3.584666 22.404163 21 16 17
-7.179174 3.589587 22.434917 43 43 33
-7.147786 3.596370 22.477314 40 33 23
-7.112521 3.601276 22.507977 39 16 43
-7.075968 3.605589 22.534929 36 23 27
-7.041420 3.610984 22.568653 37 40 26
-7.002406 3.614145 22.588408 32 28 18
-6.965985 3.618694 22.616835 25 33 25
-6.926963 3.621941 22.637133 42 31 26
-6.887749 3.625131 22.657070 22 17 33
-6.851052 3.629696 22.685602 30 20 42
-6.811672 3.632892 22.705572 42 17 16
-6.774885 3.637522 22.734514 43 16 35
-6.735551 3.640839 22.755241 29 44 31
-6.696207 3.644194 22.776213 32 21 24
-6.659347 3.648957 22.805983 34 17 33
-6.619829 3.652319 22.826996 16 28 30
-6.582717 3.657065 22.856655 19 15 25
-6.543179 3.660520 22.878248 15 16 30
-6.503112 3.663725 22.898281 19 37 18
-6.464689 3.667909 22.924431 33 34 16
-6.423469 3.670554 22.940962 20 18 19
-6.383803 3.674131 22.963322 32 28 26
-6.342121 3.676592 22.978699 24 36 16
-6.299942 3.678799 22.992491 32 19 30
-6.258998 3.681763 23.011021 23 41 26
-6.216138 3.683637 23.022734 25 33 24
-6.175270 3.686729 23.042053 40 31 15
-6.133822 3.689517 23.059483 20 18 26
-6.091786 3.691992 23.074947 42 33 26
-6.049427 3.694306 23.089415 21 29 36
-6.004685 3.695191 23.094942 15 26 22
-5.961102 3.696807 23.105045 30 35 40
-5.916953 3.698095 23.113096 30 35 40
-5.873189 3.699647 23.122791 30 35 40
-5.830706 3.702036 23.137722 30 35 40
-5.787350 3.703904 23.149399 30 35 40
-5.745786 3.706959 23.168493 30 35 40
-5.703299 3.709463 23.184141 30 35 40
-5.660863 3.712041 23.200256 26 33 42
-5.619550 3.715405 23.221283 35 23 40
-5.576503 3.717668 23.235428 35 36 19
-5.533515 3.720010 23.250065 41 43 21
-5.488641 3.721113 23.256954 30 15 19
-5.442909 3.721647 23.260294 30 35 40
-5.397644 3.722513 23.265707 30 35 40
-5.351682 3.722909 23.268183 30 35 40
-5.306824 3.724087 23.275545 30 35 40
-5.261724 3.725114 23.281965 30 35 40
-5.217507 3.726791 23.292442 30 35 40
-5.174493 3.729364 23.308527 30 35 40
-5.130823 3.731508 23.321924 30 35 40
-5.090519 3.736161 23.351004 30 35 40
-5.049743 3.740551 23.378441 120 120 120
-5.009973 3.745774 23.411087 120 120 120
-4.971827 3.752322 23.452013 120 120 120
-4.930848 3.756837 23.480230 22 35 27
-4.893017 3.763860 23.524122 28 22 20
-4.852376 3.768836 23.555223 18 43 29
-4.812764 3.774717 23.591982 31 31 16
-4.777549 3.784197 23.651234 32 26 18
-4.739800 3.791840 23.699001 16 35 40
-4.704881 3.801924 23.762028 34 37 31
-4.665515 3.808583 23.803646 17 17 23
-4.625347 3.814720 23.841997 25 28 34
-4.587813 3.823178 23.894861 31 26 37
-4.546619 3.828731 23.929571 22 40 22
-4.509192 3.837610 23.985064 25 21 17
-4.469838 3.845022 24.031389 17 18 43
-4.429956 3.852136 24.075850 38 40 26
-4.391037 3.860252 24.126575 36 42 25
-4.347893 3.864794 24.154963 32 30 25
-4.308001 3.872361 24.202255 39 21 21
-4.266501 3.878637 24.241482 15 38 26
-4.225036 3.885091 24.281816 27 40 16
-4.185240 3.893246 24.332790 29 35 25
-4.142174 3.898517 24.365730 30 30 31
-4.102500 3.907143 24.419645 25 18 31
-4.060618 3.913849 24.461554 39 16 24
-4.019362 3.921329 24.508307 20 18 43
-3.981233 3.932082 24.575512 40 33 40
-3.940045 3.940045 24.625278 33 43 22
-3.901874 3.951265 24.695404 35 44 34
-3.860156 3.959135 24.744591 32 41 33
-3.818136 3.966894 24.793089 23 32 29
-3.779076 3.977975 24.862345 19 17 33
-3.736646 3.985756 24.910975 34 19 16
-3.696402 3.996111 24.975691 38 20 38
-3.653583 4.003926 25.024540 25 16 28
-3.608756 4.009729 25.060808 17 15 38
-7.579151 3.548620 21.905060 21 17 38
-7.546721 3.553979 21.938143 31 40 21
-7.513481 3.559017 21.969242 41 39 29
-7.473782 3.561037 21.981712 28 44 39
-7.438901 3.565390 22.008583 32 28 34
-7.403406 3.569499 22.033947 18 44 40
-7.369078 3.574223 22.063107 24 41 24
-7.337553 3.580372 22.101063 33 16 17
-7.302097 3.584666 22.127567 36 30 19
-7.271796 3.591558 22.170109 42 26 39
-7.238609 3.597100 22.204321 44 41 20
-7.205651 3.602825 22.239662 41 17 34
-7.175923 3.610247 22.285475 23 40 37
-7.141107 3.615186 22.315960 23 38 36
-7.110034 3.622093 22.358599 15 37 33
-7.075134 3.627126 22.389664 37 41 42
-7.039138 3.631657 22.417637 40 17 16
-7.005410 3.637424 22.453236 17 27 26
-6.967182 3.640915 22.474781 25 26 23
-6.931679 3.645883 22.505451 24 33 41
-6.893358 3.649425 22.527315 39 27 39
-6.854705 3.652836 22.548372 32 24 21
-6.818570 3.657643 22.578045 20 36 19
-6.779517 3.660939 22.598389 29 17 33
-6.743010 3.665663 22.627550 25 44 28
-6.703885 3.669018 22.648260 41 39 18
-6.664668 3.672368 22.668938 38 22 39
-6.627916 3.677132 22.698343 31 23 29
-6.588500 3.680472 22.718966 32 24 42
-6.551475 3.685205 22.748177 31 17 40
-6.512058 3.688648 22.769432 41 39 22
-6.472160 3.691866 22.789297 19 23 44
-6.433981 3.696117 22.815535 23 23 40
-6.393065 3.698845 22.832376 30 25 16
-6.353623 3.702471 22.854757 34 40 38
-6.312156 3.704961 22.870129 44 22 17
-6.270042 3.707105 22.883364 29 44 33
-6.228895 3.709856 22.900349 42 32 22
-6.185793 3.711476 22.910345 30 34 20
-6.144726 3.714349 22.928082 20 37 39
-6.103381 3.717096 22.945040 19 17 22
-6.061533 3.719577 22.960354 31 42 23
-6.019235 3.721817 22.974180 43 21 35
-5.974592 3.722630 22.979200 15 43 39
-5.931031 3.724136 22.988491 44 34 21
-5.886973 3.725350 22.995987 28 28 28
-5.843264 3.726806 23.004978 16 27 24
-5.800713 3.729030 23.018702 30 35 40
-5.757339 3.730756 23.029358 26 41 26
-5.715724 3.733658 23.047274 21 15 31
-5.673303 3.736077 23.062206 24 15 30
-5.631001 3.738615 23.077873 17 17 15
-5.589804 3.741935 23.098364 23 20 35
-5.546949 3.744191 23.112288 44 38 24
-5.504179 3.746542 23.126801 35 19 42
-5.459576 3.747675 23.133797 28 40 20
-5.414123 3.748239 23.137276 35 34 33
-5.369106 3.749117 23.142696 30 35 40
-5.323370 3.749504 23.145086 30 35 40
-5.278627 3.750603 23.151873 30 35 40
-5.233571 3.751498 23.157393 30 35 40
-5.189400 3.753048 23.166964 30 35 40
-5.146472 3.755533 23.182304 30 35 40
-5.102998 3.757662 23.195444 30 35 40
-5.063060 3.762458 23.225048 32 34 28
-5.022801 3.767101 23.253708 120 120 120
-4.983565 3.772605 23.287687 120 120 120
-4.945809 3.779345 23.329288 120 120 120
-4.905055 3.783900 23.357405 42 18 25
-4.867529 3.791056 23.401583 19 27 27
-4.827261 3.796195 23.433304 42 43 17
-4.788008 3.802242 23.470627 30 18 27
-4.753062 3.811861 23.530008 33 27 23
-4.715492 3.819549 23.577461 40 31 16
-4.680910 3.829835 23.640959 37 42 27
-4.642006 3.836760 23.683706 42 27 39
-4.602336 3.843187 23.723379 43 22 44
-4.565254 3.851933 23.777367 37 39 19
-4.524391 3.857638 23.812582 24 33 34
-4.487279 3.866698 23.868507 20 23 17
-4.448194 3.874234 23.915024 20 18 37
-4.408524 3.881418 23.959370 17 41 44
-4.369791 3.889594 24.009840 38 21 15
-4.326820 3.894138 24.037888 33 44 28
-4.287039 3.901687 24.084486 32 25 36
-4.245636 3.907915 24.122932 24 44 26
-4.204293 3.914341 24.162601 17 37 42
-4.164641 3.922511 24.213030 24 33 36
-4.121790 3.927823 24.245823 44 42 38
-4.082412 3.936612 24.300072 20 39 33
-4.040875 3.943504 24.342619 27 21 32
-4.000004 3.951223 24.390268 31 28 39
-3.962265 3.962265 24.458427 43 42 37
-3.921404 3.970422 24.508778 26 34 38
-3.883603 3.981922 24.579765 16 41 15
-3.842226 3.990004 24.629656 26 31 35
-3.800525 3.997955 24.678732 41 16 27
-3.761947 4.009443 24.749651 25 21 17
-3.719994 4.017593 24.799959 35 21 21
-3.679353 4.027400 24.860493 32 29 25
-3.635363 4.033759 24.899744 24 30 42
-7.518322 3.584316 21.855587 26 18 20
-7.484863 3.589232 21.885563 39 29 17
-7.444849 3.591045 21.896616 20 22 18
-7.409487 3.595136 21.921558 44 32 34
-7.373719 3.599077 21.945591 22 26 35
-7.339132 3.603645 21.973448 31 32 39
-7.307171 3.609567 22.009552 26 16 39
-7.271463 3.613697 22.034737 30 36 43
-7.240945 3.620472 22.076052 42 30 27
-7.207764 3.625992 22.109705 42 23 25
-7.174978 3.631779 22.144995 32 20 41
-7.145396 3.639270 22.190670 36 22 18
-7.110804 3.644287 22.221262 22 30 40
-7.080133 3.651389 22.264568 41 37 17
-7.045635 3.656596 22.296314 36 33 23
-7.010217 3.661387 22.325533 39 27 41
-6.977343 3.667577 22.363277 44 38 20
-6.939902 3.671432 22.386782 41 32 24
-6.905325 3.676862 22.419888 30 31 44
-6.867695 3.680726 22.443449 28 36 15
-6.829584 3.684381 22.465738 43 36 16
-6.793972 3.689442 22.496597 36 43 30
-6.755188 3.692836 22.517292 41 20 43
-6.718919 3.697660 22.546709 21 32 22
-6.679989 3.701075 22.567530 15 41 39
-6.640870 3.704431 22.587994 38 26 37
-6.604141 3.709175 22.616922 30 40 38
-6.564725 3.712465 22.636982 35 20 29
-6.527636 3.717126 22.665403 39 37 21
-6.488217 3.720516 22.686073 35 44 38
-6.448328 3.723683 22.705381 26 18 42
-6.410119 3.727870 22.730917 21 26 18
-6.369253 3.730562 22.747332 23 18 28
-6.329774 3.734111 22.768970 26 42 26
-6.288306 3.736530 22.783718 43 42 28
-6.246178 3.738588 22.796270 15 22 31
-6.204944 3.741216 22.812294 18 22 40
-6.161833 3.742743 22.821604 44 20 33
-6.120753 3.745535 22.838629 27 40 20
-6.079509 3.748269 22.855297 21 18 16
-6.037785 3.750746 22.870399 17 21 16
-5.995545 3.752937 22.883760 15 32 36
-5.950986 3.753699 22.888409 37 33 17
-5.907411 3.755098 22.896940 34 15 28
-5.863382 3.756229 22.903835 21 41 36
-5.819642 3.757564 22.911978 32 15 24
-5.776929 3.759589 22.924322 28 37 18
-5.733454 3.761146 22.933815 30 33 41
-5.691691 3.763860 22.950369 35 25 33
-5.649260 3.766173 22.964470 29 36 33
-5.607020 3.768653 22.979589 21 44 39
-5.565853 3.771900 22.999392 30 41 17
-5.523127 3.774136 23.013027 33 37 44
-5.480532 3.776501 23.027445 28 21 34
-5.436165 3.777674 23.034595 44 31 43
-5.390988 3.778299 23.038410 34 41 18
-5.346243 3.779241 23.044151 30 35 40
-5.300761 3.779673 23.046785 30 35 40
-5.256207 3.780781 23.053541 30 35 40
-5.211258 3.781621 23.058664 30 35 40
-5.167199 3.783128 23.067852 30 35 40
-5.124436 3.785620 23.083046 30 35 40
-5.081177 3.787787 23.096260 30 35 40
-5.041606 3.792767 23.126631 30 40 18
-5.001780 3.797648 23.156387 120 120 120
-4.963004 3.803424 23.191608 120 120 120
-4.925661 3.810417 23.234251 120 120 120
-4.885186 3.815098 23.262791 35 38 28
-4.848046 3.822498 23.307913 40 42 18
-4.808178 3.827870 23.340672 26 37 30
-4.769316 3.834156 23.378998 23 20 31
-4.734744 3.844050 23.439329 42 21 27
-4.697435 3.851896 23.487173 18 24 26
-4.663194 3.862443 23.551483 44 39 23
-4.624623 3.869582 23.595015 18 34 25
-4.585280 3.876216 23.635462 33 22 30
-4.548545 3.885216 23.690340 21 31 37
-4.507951 3.891073 23.726057 17 21 19
-4.471093 3.900315 23.782412 30 28 42
-4.432218 3.907977 23.829128 19 36 40
-4.392698 3.915231 23.873360 25 18 22
-4.354087 3.923463 23.923553 36 26 36
-4.311221 3.928002 23.951229 25 21 22
-4.271484 3.935524 23.997099 36 17 35
-4.230131 3.941713 24.034838 16 27 26
-4.188836 3.948098 24.073771 25 44 15
-4.149224 3.956237 24.123394 37 39 15
-4.106474 3.961540 24.155731 39 36 42
-4.067236 3.970397 24.209736 17 35 31
-4.025894 3.977389 24.252373 40 41 32
-3.985265 3.985265 24.300398 41 40 20
-3.947762 3.996500 24.368900 44 34 35
-3.907126 4.004804 24.419537 38 23 31
-3.869625 4.016573 24.491299 38 30 16
-3.828514 4.024848 24.541758 32 22 37
-3.787158 4.033078 24.591938 38 24 20
-3.749227 4.045218 24.665964 35 33 28
-3.707941 4.054015 24.719604 41 40 21
-3.667257 4.063718 24.778767 38 35 30
-7.457435 3.619691 21.805365 15 37 22
-7.417509 3.621490 21.816202 34 37 33
-7.381811 3.625387 21.839678 40 32 27
-7.345577 3.629065 21.861835 29 30 36
-7.310377 3.633301 21.887356 25 37 44
-7.277681 3.638841 21.920727 19 23 30
-7.241548 3.642718 21.944086 15 43 22
-7.210559 3.649246 21.983412 43 29 23
-7.177203 3.654649 22.015961 41 36 20
-7.144435 3.660421 22.050726 34 25 37
-7.114840 3.667899 22.095778 26 39 36
-7.080388 3.672951 22.126213 31 23 31
-7.050089 3.680235 22.170090 25 27 43
-7.016008 3.685624 22.202557 19 44 36
-6.981234 3.690716 22.233231 15 16 15
-6.949276 3.697371 22.273321 33 35 33
-6.912668 3.701622 22.298929 44 34 15
-6.879116 3.707576 22.334793 34 33 28
-6.842273 3.711821 22.360369 20 43 43
-6.804798 3.715778 22.384203 30 40 20
-6.769822 3.721161 22.416630 38 39 31
-6.731371 3.724692 22.437902 35 29 33
-6.695416 3.729661 22.467838 39 30 24
-6.656728 3.733165 22.488945 19 21 44
-6.617719 3.736535 22.509247 18 23 20
-6.581011 3.741260 22.537708 21 17 40
-6.541567 3.744483 22.557129 20 30 32
-6.504374 3.749049 22.584631 35 38 28
-6.464929 3.752371 22.604647 27 16 25
-6.424999 3.755457 22.623236 19 21 17
-6.386678 3.759534 22.647793 38 33 18
-6.345783 3.762143 22.663511 35 38 25
-6.306168 3.765554 22.684057 32 39 22
-6.264617 3.767849 22.697887 29 41 33
-6.222442 3.769801 22.709642 42 20 22
-6.181165 3.772329 22.724873 15 30 15
-6.138132 3.773815 22.733824 30 42 36
-6.097088 3.776555 22.750330 29 18 15
-6.055924 3.779261 22.766632 41 36 24
-6.014275 3.781703 22.781345 37 24 25
-5.972070 3.783830 22.794159 31 33 44
-5.927586 3.784536 22.798409 17 29 18
-5.883940 3.785791 22.805969 32 34 34
-5.839854 3.786781 22.811932 15 41 41
-5.795988 3.787929 22.818851 29 18 44
-5.753014 3.789684 22.829422 17 35 43
-5.709378 3.791027 22.837511 18 33 44
-5.667397 3.793499 22.852406 20 24 43
-5.624907 3.795669 22.865475 17 24 34
-5.582677 3.798051 22.879826 15 39 29
-5.541452 3.801161 22.898561 31 17 16
-5.498772 3.803317 22.911549 33 30 24
-5.456270 3.805633 22.925503 38 22 19
-5.412102 3.806818 22.932636 33 34 22
-5.367184 3.807490 22.936686 23 18 42
-5.322687 3.808474 22.942616 33 44 31
-5.277448 3.808941 22.945427 30 35 40
-5.233074 3.810045 22.952078 30 35 40
-5.188231 3.810824 22.956774 30 35 40
-5.144281 3.812280 22.965542 30 35 40
-5.101697 3.814783 22.980618 30 35 40
-5.058678 3.817003 22.993992 16 15 42
-5.019466 3.822162 23.025074 16 19 32
-4.980050 3.827261 23.055788 120 120 120
-4.941718 3.833296 23.092142 120 120 120
-4.904794 3.840546 23.135820 120 120 120
-4.864628 3.845372 23.164894 15 15 21
-4.827910 3.853043 23.211105 34 43 41
-4.788468 3.858668 23.244989 34 18 42
-4.750014 3.865207 23.284382 36 39 24
-4.715827 3.875383 23.345680 25 37 22
-4.678777 3.883385 23.393887 30 38 19
-4.644827 3.894148 23.458723 34 15 29
-4.606522 3.901442 23.502665 43 22 37
-4.567432 3.908215 23.543463 31 36 18
-4.530983 3.917412 23.598869 31 23 22
-4.490646 3.923407 23.634979 43 29 25
-4.454037 3.932820 23.691689 33 26 35
-4.415356 3.940586 23.738472 24 32 32
-4.376015 3.947927 23.782692 17 27 21
-4.337611 3.956282 23.833025 21 41 29
-4.294948 3.960897 23.860825 31 26 25
-4.255392 3.968511 23.906694 25 32 18
-4.214187 3.974744 23.944242 22 38 31
-4.173034 3.981170 23.982954 38 33 34
-4.133572 3.989378 24.032396 30 24 25
-4.090990 3.994732 24.064648 22 32 40
-4.051949 4.003712 24.118746 31 38 38
-4.010837 4.010837 24.161671 21 24 23
-3.970425 4.018845 24.209911 39 20 32
-3.933075 4.030188 24.278242 30 40 18
-3.892554 4.038525 24.328463 41 39 18
-3.855240 4.050442 24.400255 28 25 44
-3.814402 4.058915 24.451298 44 30 36
-3.773331 4.067357 24.502150 44 41 22
-3.735713 4.079792 24.577061 35 16 20
-3.694708 4.088811 24.631390 24 35 25
-7.384053 3.648591 21.717802 19 22 24
-7.348589 3.652553 21.741388 41 42 19
-7.311621 3.655810 21.760777 16 30 17
-7.275255 3.659410 21.782200 20 30 42
-7.241464 3.664355 21.811640 41 44 20
-7.204752 3.667874 21.832581 38 21 41
-7.173104 3.674029 21.869221 44 21 39
-7.139470 3.679236 21.900215 37 21 19
-7.106652 3.684931 21.934111 44 16 19
-7.076876 3.692283 21.977877 34 40 15
-7.042455 3.697289 22.007671 17 20 41
-7.012434 3.704682 22.051680 31 24 36
-6.978781 3.710238 22.084749 20 30 22
-6.944730 3.715652 22.116974 35 32 41
-6.913758 3.722793 22.159481 37 41 41
-6.878068 3.727469 22.187317 35 40 36
-6.845673 3.734004 22.226212 19 44 39
-6.809747 3.738684 22.254074 27 41 31
-6.773051 3.743002 22.279772 27 34 26
-6.738884 3.748783 22.314186 18 41 24
-6.700907 3.752508 22.336357 35 43 43
-6.665377 3.757662 22.367037 43 42 18
-6.626968 3.761252 22.388405 41 20 42
-6.588089 3.764622 22.408466 17 18 40
-6.551474 3.769341 22.436556 32 39 35
-6.512085 3.772518 22.455467 35 32 43
-6.474888 3.777018 22.482250 35 35 32
-6.435515 3.780302 22.501801 23 26 34
-6.395653 3.783344 22.519903 27 26 33
-6.357353 3.787359 22.543804 36 26 29
-6.316546 3.789927 22.559092 39 18 36
-6.276905 3.793238 22.578796 39 41 16
-6.235344 3.795427 22.591825 36 32 31
-6.193146 3.797258 22.602724 29 30 16
-6.151814 3.799650 22.616962 39 44 17
-6.108833 3.801052 22.625307 36 21 42
-6.067779 3.803682 22.640966 23 23 29
-6.026676 3.806322 22.656677 32 18 27
-5.985090 3.808694 22.670797 20 39 21
-5.942901 3.810715 22.682829 21 30 16
-5.898509 3.811344 22.686573 23 40 19
-5.854749 3.812395 22.692827 27 22 44
-5.810562 3.813182 22.697510 43 38 40
-5.766521 3.814077 22.702839 21 30 27
-5.723249 3.815499 22.711304 17 35 29
-5.679456 3.816595 22.717825 21 35 32
-5.637232 3.818770 22.730776 42 30 21
-5.594687 3.820762 22.742632 24 28 37
-5.552459 3.823004 22.755978 36 36 20
-5.511104 3.825891 22.773159 41 30 22
-5.468420 3.827894 22.785082 33 29 20
-5.425927 3.830066 22.798012 34 37 44
-5.381921 3.831198 22.804749 38 20 35
-5.337227 3.831855 22.808661 38 21 29
-5.292901 3.832791 22.814230 18 41 19
-5.247865 3.833223 22.816803 24 36 42
-5.203572 3.834211 22.822685 15 26 29
-5.158750 3.834823 22.826326 30 35 40
-5.114849 3.836137 22.834148 23 39 34
-5.072384 3.838561 22.848576 39 20 34
-5.029609 3.840793 22.861860 29 31 39
-4.990767 3.846096 22.893427 31 20 26
-4.951795 3.851396 22.924978 120 120 120
-4.913938 3.857671 22.962328 120 120 120
-4.877414 3.865120 23.006668 120 120 120
-4.837539 3.870031 23.035898 39 15 36
-4.801199 3.877892 23.082689 16 39 41
-4.762193 3.883730 23.117443 42 43 38
-4.724150 3.890476 23.157597 40 36 15
-4.690287 3.900832 23.219240 22 43 19
-4.653455 3.908902 23.267275 42 44 42
-4.619753 3.919790 23.332085 22 34 43
-4.581722 3.927190 23.376133 44 43 35
-4.542928 3.934082 23.417152 20 22 36
-4.506799 3.943450 23.472914 25 36 29
-4.466773 3.949568 23.509331 24 23 31
-4.430471 3.959144 23.566334 16 35 19
-4.392036 3.967000 23.613098 42 33 35
-4.352972 3.974453 23.657455 23 36 34
-4.314940 3.983022 23.708464 33 40 17
-4.272674 3.987829 23.737080 37 27 36
-4.233529 3.995690 23.783871 24 24 33
-4.192654 4.002079 23.821899 20 19 20
-4.151824 4.008657 23.861055 16 41 40
-4.112743 4.017098 23.911295 27 16 32
-4.070508 4.022620 23.944164 26 33 15
-4.031862 4.031862 23.999178 41 22 34
-3.991160 4.039246 24.043133 21 44 33
-3.951070 4.047438 24.091890 42 26 16
-3.913873 4.058832 24.159712 34 43 40
-3.873391 4.067061 24.208696 23 27 24
-3.836178 4.078974 24.279608 17 32 20
-3.795733 4.087713 24.331623 34 21 29
-3.754868 4.096220 24.382261 37 18 44
-7.328962 3.686164 21.683319 34 35 41
-7.291332 3.689067 21.700392 29 21 21
-7.253817 3.692062 21.718014 37 39 41
-7.219088 3.696521 21.744242 17 42 42
-7.181901 3.699767 21.763336 15 41 42
-7.149686 3.705630 21.797823 37 21 24
-7.115772 3.710679 21.827522 24 20 28
-7.082828 3.716299 21.860580 16 41 25
-7.052789 3.723522 21.903072 27 20 36
-7.018278 3.728460 21.932119 26 16 35
-6.988330 3.735900 21.975880 43 18 44
-6.954911 3.741566 22.009211 44 28 16
-6.921300 3.747201 22.042356 37 42 34
-6.890905 3.754660 22.086235 29 16 20
-6.855763 3.759612 22.115366 15 30 19
-6.824088 3.766542 22.156130 26 16 32
-6.788751 3.771528 22.185461 22 27 26
-6.752585 3.776117 22.212452 37 29 31
-6.718989 3.782212 22.248308 34 30 41
-6.681369 3.786109 22.271229 35 39 19
-6.646152 3.791429 22.302523 39 23 28
-6.607926 3.795093 22.324074 31 42 43
-6.569130 3.798476 22.343979 31 27 36
-6.532602 3.803227 22.371923 23 38 20
-6.493285 3.806408 22.390636 18 41 44
-6.456142 3.810917 22.417160 32 39 35
-6.416858 3.814216 22.436565 30 33 44
-6.377078 3.817265 22.454500 21 42 23
-6.338847 3.821291 22.478182 38 25 35
-6.298129 3.823864 22.493319 42 20 16
-6.258505 3.827144 22.512609 26 17 17
-6.216954 3.829283 22.525196 38 38 24
-6.174744 3.831046 22.535563 30 41 34
-6.133397 3.833373 22.549255 22 42 42
-6.090467 3.834738 22.557283 41 43 16
-6.049392 3.837301 22.572359 31 25 20
-6.008300 3.839891 22.587595 15 32 19
-5.966715 3.842203 22.601192 23 44 24
-5.924513 3.844150 22.612646 24 30 32
-5.880168 3.844725 22.616030 42 16 17
-5.836304 3.845626 22.621332 16 36 24
-5.792001 3.846251 22.625006 24 16 40
-5.747798 3.846952 22.629128 43 21 44
-5.704299 3.848138 22.636108 44 33 41
-5.660409 3.849078 22.641638 27 19 37
-5.618016 3.851060 22.653292 29 30 22
-5.575431 3.852940 22.664352 38 30 26
-5.533171 3.855078 22.676931 24 39 29
-5.491667 3.857783 22.692841 39 24 41
-5.448910 3.859645 22.703793 25 16 43
-5.406328 3.861663 22.715662 39 28 23
-5.362367 3.862722 22.721895 40 27 25
-5.317755 3.863326 22.725447 35 17 36
-5.273450 3.864166 22.730389 44 42 41
-5.228486 3.864533 22.732546 15 26 35
-5.184164 3.865385 22.737560 28 42 34
-5.139293 3.865840 22.740236 37 19 19
-5.095371 3.867023 22.747192 16 42 33
-5.052934 3.869364 22.760963 43 23 16
-5.010296 3.871593 22.774075 33 38 44
-4.971640 3.876967 22.805687 29 41 36
-4.932916 3.882388 22.837574 120 120 120
-4.895314 3.888801 22.875301 120 120 120
-4.858983 3.896354 22.919729 120 120 120
-4.819252 3.901299 22.948818 41 30 22
-4.783093 3.909259 22.995642 44 30 37
-4.744327 3.915221 23.030714 44 26 17
-4.706497 3.922081 23.071066 44 26 31
-4.672762 3.932522 23.132484 30 37 35
-4.636016 3.940614 23.180080 21 40 31
-4.602391 3.951548 23.244398 29 29 24
-4.564476 3.958985 23.288145 15 31 26
-4.525824 3.965928 23.328989 21 22 21
-4.489856 3.975394 23.384668 19 38 22
-4.450018 3.981595 23.421146 34 30 19
-4.413910 3.991302 23.478247 40 24 24
-4.375632 3.999234 23.524904 33 25 17
-4.336781 4.006809 23.569462 29 41 28
-4.299091 4.015634 23.621378 17 19 21
-4.257193 4.020682 23.651073 32 31 20
-4.218473 4.028879 23.699287 29 25 40
-4.177928 4.035499 23.738228 28 18 23
-4.137422 4.042309 23.778286 25 28 30
-4.098730 4.051071 23.829828 36 25 22
-4.056817 4.056817 23.863632 38 26 17
-4.018528 4.066368 23.919809 26 17 40
-3.978170 4.074030 23.964882 33 17 27
-3.938302 4.082386 24.014034 22 29 25
-3.901140 4.093789 24.081110 36 32 28
-3.860577 4.101863 24.128605 29 41 38
-3.823304 4.113681 24.198126 43 15 33
-3.783148 4.122661 24.250946 15 41 35
-7.187559 3.723675 21.649273 44 17 43
-7.149757 3.726540 21.665932 25 44 28
-7.116573 3.731861 21.696869 24 29 19
-7.081951 3.736489 21.723776 41 19 15
-7.048392 3.741739 21.754295 31 44 19
-7.017613 3.748539 21.793829 20 31 29
-6.982787 3.753248 21.821211 35 18 27
-6.952751 3.760607 21.863997 25 17 41
-6.919598 3.766363 21.897461 24 19 34
-6.886569 3.772261 21.931747 19 39 29
-6.856811 3.780037 21.976957 25 44 33
-6.822276 3.785263 22.007341 23 41 30
-6.791481 3.792645 22.050262 16 43 33
-6.756935 3.798016 22.081488 25 41 20
-6.721565 3.802991 22.110411 20 33 26
-6.688833 3.809534 22.148453 39 39 16
-6.651804 3.813701 22.172680 27 17 16
-6.617247 3.819351 22.205526 43 25 25
-6.579554 3.823254 22.228224 36 35 27
-6.541118 3.826776 22.248699 33 31 28
-6.504836 3.831616 22.276836 26 20 20
-6.465583 3.834759 22.295113 29 16 21
-6.428487 3.839235 22.321135 34 33 29
-6.389327 3.842533 22.340305 16 22 37
-6.349660 3.845569 22.357958 28 31 15
-6.311496 3.849565 22.381191 22 22 23
-6.270872 3.852107 22.395973 43 26 28
-6.231248 3.855304 22.414560 38 23 21
-6.189716 3.857359 22.426506 30 28 20
-6.147502 3.859016 22.436140 23 41 35
-6.106101 3.861211 22.448902 27 35 20
-6.063197 3.862481 22.456284 20 15 35
-6.022056 3.864902 22.470360 43 36 17
-5.980954 3.867384 22.484789 26 42 22
-5.939359 3.869583 22.497574 44 35 30
-5.897127 3.871397 22.508120 35 23 21
-5.852864 3.871895 22.511017 38 20 19
-5.808828 3.872552 22.514835 32 31 28
-5.764311 3.872896 22.516838 35 26 15
-5.719841 3.873278 22.519060 28 28 32
-5.676018 3.874108 22.523882 17 36 34
-5.632015 3.874826 22.528059 31 21 41
-5.589394 3.876515 22.537880 24 43 30
-5.546743 3.878211 22.547737 15 40 23
-5.504423 3.880167 22.559111 39 22 19
-5.462691 3.882574 22.573105 34 15 19
-5.419820 3.884205 22.582584 24 30 42
-5.377110 3.885978 22.592897 16 32 19
-5.333228 3.886929 22.598423 32 31 20
-5.288750 3.887458 22.601498 27 21 23
-5.244494 3.888159 22.605576 44 42 25
-5.199645 3.888430 22.607151 23 16 19
-5.155296 3.889083 22.610949 33 18 35
-5.110383 3.889318 22.612312 41 15 16
-5.066450 3.890310 22.618080 21 22 38
-5.024071 3.892523 22.630949 31 25 16
-4.981650 3.894744 22.643862 37 30 40
-4.943198 3.900138 22.675219 26 41 20
-4.904694 3.905590 22.706917 120 120 120
-4.867324 3.912055 22.744507 120 120 120
-4.831192 3.919646 22.788641 120 120 120
-4.791670 3.924606 22.817474 44 36 19
-4.755740 3.932631 22.864134 28 32 24
-4.717284 3.938703 22.899439 15 33 36
-4.679712 3.945640 22.939766 28 32 22
-4.646052 3.956044 23.000257 34 23 39
-4.609330 3.964023 23.046648 39 19 24
-4.575759 3.974902 23.109894 25 35 38
-4.538083 3.982399 23.153484 38 19 18
-4.499694 3.989420 23.194300 44 17 26
-4.463870 3.998884 23.249325 15 39 18
-4.424168 4.005037 23.285097 33 40 22
-4.388199 4.014735 23.341482 22 32 32
-4.350083 4.022658 23.387545 40 43 21
-4.311506 4.030321 23.432100 29 39 25
-4.274237 4.039389 23.484821 38 44 23
-4.232836 4.044710 23.515757 35 18 27
-4.194689 4.053295 23.565670 37 23 34
-4.154605 4.060183 23.605713 33 41 19
