ply
format ascii 1.0
element vertex 1255
property float x
property float y
property float z
property uchar red
property uchar green
property uchar blue
end_header
-6.455302 1.218833 22.570988 36 39 26
-6.420273 1.220756 22.606594 22 18 30
-6.388346 1.223300 22.653709 38 32 30
-6.351897 1.225009 22.685345 42 18 35
-6.318814 1.227396 22.729548 23 29 34
-6.282205 1.229127 22.761614 17 37 29
-6.244637 1.230695 22.790648 32 17 34
-6.209058 1.232681 22.827417 41 24 42
-6.169391 1.233878 22.849596 37 29 21
-6.132997 1.235753 22.884317 28 20 36
-6.094715 1.237273 22.912464 33 24 16
-6.056037 1.238735 22.939535 23 35 20
-6.018773 1.240510 22.972416 27 25 19
-5.977975 1.241579 22.992212 18 17 33
-5.939642 1.243181 23.021870 43 31 36
-5.899135 1.244349 23.043497 40 42 28
-5.858770 1.245565 23.066025 24 26 19
-5.820717 1.247296 23.098082 36 43 32
-5.780218 1.248527 23.120872 44 32 37
-5.743279 1.250553 23.158382 42 19 20
-5.704668 1.252244 23.189707 41 41 42
-5.666013 1.253954 23.221363 26 23 35
-5.628852 1.256025 23.259718 42 38 35
-5.588029 1.257307 23.283455 21 24 44
-5.549649 1.259164 23.317852 32 39 20
-5.508805 1.260489 23.342396 26 37 30
-5.467892 1.261821 23.367058 32 29 33
-5.429680 1.263805 23.403795 15 33 41
-5.389037 1.265252 23.430595 37 34 18
-5.349311 1.266942 23.461889 28 32 37
-5.304896 1.267542 23.472992 41 22 36
-5.261835 1.268478 23.490334 30 37 30
-5.223746 1.270641 23.530386 28 15 15
-5.184944 1.272668 23.567926 39 23 18
-5.157967 1.277662 23.660398 44 18 37
-5.129930 1.282482 23.749674 120 120 120
-5.107203 1.288733 23.865435 120 120 120
-5.092431 1.297129 24.020899 120 120 120
-5.068819 1.303411 24.137232 15 42 40
-5.057513 1.313008 24.314966 23 43 19
-5.038076 1.320661 24.456678 44 41 29
-5.016988 1.328026 24.593079 26 33 25
-5.001173 1.336947 24.758282 38 19 24
-4.971419 1.342283 24.857096 40 23 37
-4.950094 1.350026 25.000477 20 40 33
-4.921076 1.355807 25.107533 21 21 28
-4.890346 1.361230 25.207968 16 43 36
-4.865503 1.368423 25.341162 34 21 41
-4.831096 1.373048 25.426819 18 26 16
-4.803504 1.379730 25.550552 35 39 23
-4.770105 1.384869 25.645723 20 18 36
-4.734394 1.389442 25.730402 23 37 27
-4.701187 1.394858 25.830700 38 43 22
-4.659512 1.397853 25.886175 41 36 40
-6.971011 1.235369 22.060162 32 33 21
-6.934705 1.236763 22.085049 33 20 38
-6.899938 1.238450 22.115187 21 21 23
-6.861862 1.239562 22.135040 26 21 23
-6.825309 1.240965 22.160095 36 35 23
-6.785365 1.241766 22.174397 20 36 41
-6.745372 1.242568 22.188723 21 44 15
-6.708334 1.243930 22.213028 35 28 22
-6.669562 1.244985 22.231874 40 39 32
-6.635228 1.246889 22.265867 22 22 20
-6.599209 1.248499 22.294624 19 42 31
-6.564255 1.250334 22.327396 32 38 31
-6.532196 1.252750 22.370535 31 16 26
-6.496239 1.254446 22.400824 26 41 16
-6.464763 1.257037 22.447092 27 16 36
-6.430037 1.259028 22.482647 27 36 20
-6.395258 1.261037 22.518515 38 23 31
-6.363581 1.263690 22.565891 22 36 17
-6.327302 1.265460 22.597507 40 43 36
-6.294478 1.267952 22.642008 27 35 42
-6.258189 1.269777 22.674597 36 23 23
-6.220953 1.271436 22.704208 23 26 32
-6.185693 1.273525 22.741520 19 17 37
-6.146273 1.274783 22.763973 36 40 36
-6.110116 1.276741 22.798941 27 18 26
-6.072015 1.278319 22.827124 36 28 20
-6.033505 1.279834 22.854185 36 15 37
-5.996483 1.281691 22.887339 34 23 39
-5.955940 1.282818 22.907461 22 16 16
-5.917821 1.284488 22.937292 43 21 40
-5.877461 1.285695 22.958834 23 22 36
-5.837220 1.286946 22.981180 36 43 36
-5.799319 1.288738 23.013172 38 39 26
-5.758995 1.290015 23.035980 34 35 25
-5.722240 1.292119 23.073547 15 23 39
-5.683836 1.293881 23.105024 42 44 21
-5.645365 1.295658 23.136742 29 18 27
-5.608338 1.297797 23.174952 43 25 22
-5.567628 1.299113 23.198448 42 33 35
-5.529267 1.301004 23.232214 39 20 20
-5.488471 1.302349 23.256235 39 20 36
-5.447537 1.303684 23.280071 26 42 31
-5.409173 1.305662 23.315401 43 16 40
-5.368429 1.307096 23.340994 29 21 29
-5.328541 1.308764 23.370794 33 39 29
-5.284114 1.309338 23.381037 24 35 16
-5.241075 1.310269 23.397657 18 29 18
-5.202914 1.312447 23.436550 36 33 34
-5.164123 1.314504 23.473288 33 18 40
-5.137133 1.319631 23.564831 34 38 36
-5.109218 1.324612 23.653786 120 120 120
-5.086588 1.331070 23.769102 120 120 120
-5.071777 1.339715 23.923475 120 120 120
-5.048152 1.346174 24.038820 19 42 15
-5.036501 1.355981 24.213949 17 31 38
-5.016700 1.363763 24.352913 20 38 28
-4.995140 1.371215 24.485981 24 29 40
-4.978742 1.380245 24.647238 36 16 19
-4.948690 1.385633 24.743448 16 27 18
-4.926664 1.393400 24.882143 16 39 44
-4.896866 1.399105 24.984011 44 18 36
-4.865639 1.404514 25.080614 34 26 24
-4.840826 1.411908 25.212635 16 23 41
-4.807059 1.416817 25.300308 20 42 36
-4.780094 1.423858 25.426031 24 20 44
-4.747159 1.429252 25.522358 34 33 15
-4.711774 1.434018 25.607470 35 29 34
-4.678727 1.439608 25.707291 16 21 31
-4.637083 1.442648 25.761574 15 39 22
-4.600242 1.447267 25.844057 20 36 21
-4.559850 1.450861 25.908237 39 44 34
-6.998865 1.268544 21.871452 34 22 37
-6.963049 1.269990 21.896381 43 24 37
-6.926222 1.271269 21.918425 41 28 15
-6.889890 1.272655 21.942324 43 30 24
-6.855274 1.274378 21.972031 25 40 15
-6.817403 1.275514 21.991621 33 16 25
-6.781343 1.277006 22.017347 27 44 22
-6.741947 1.277885 22.032507 29 25 36
-6.702808 1.278825 22.048710 42 15 36
-6.666960 1.280410 22.076027 18 17 19
-6.629271 1.281659 22.097570 21 18 22
-6.596627 1.283907 22.136332 38 15 25
-6.562090 1.285815 22.169222 37 18 36
-6.528689 1.287973 22.206425 18 17 21
-6.498566 1.290811 22.255362 17 15 27
-6.464006 1.292801 22.289675 20 18 28
-6.433736 1.295683 22.339361 18 37 16
-6.399483 1.297797 22.375816 18 19 16
-6.364792 1.299852 22.411238 16 27 28
-6.333347 1.302603 22.458677 32 25 28
-6.297224 1.304425 22.490086 29 29 38
-6.264657 1.307015 22.534737 18 38 35
-6.228709 1.308932 22.567785 16 15 43
-6.191843 1.310682 22.597967 20 36 38
-6.156938 1.312876 22.635801 43 32 29
-6.117797 1.314193 22.658508 25 28 17
-6.081883 1.316228 22.693592 29 18 25
-6.043942 1.317852 22.721586 33 43 20
-6.005588 1.319409 22.748438 30 19 19
-5.968790 1.321335 22.781641 30 26 15
-5.928511 1.322514 22.801966 34 20 16
-5.890596 1.324243 22.831768 41 34 37
-5.850372 1.325475 22.853016 43 44 39
-5.810243 1.326748 22.874973 15 43 24
-5.772469 1.328584 22.906622 39 34 42
-5.732311 1.329896 22.929243 31 40 19
-5.695721 1.332064 22.966616 26 15 43
-5.657533 1.333890 22.998100 16 33 16
-5.619251 1.335724 23.029718 39 15 28
-5.582337 1.337916 23.067509 16 34 30
-5.541727 1.339251 23.090528 28 23 31
-5.503347 1.341152 23.123306 21 29 26
-5.462523 1.342484 23.146284 38 16 37
-5.421567 1.343807 23.169088 25 41 43
-5.383242 1.345810 23.203629 31 39 35
-5.342676 1.347284 23.229027 23 23 19
-5.302778 1.348952 23.257799 36 37 42
-5.258272 1.349468 23.266691 28 41 40
-5.215111 1.350341 23.281746 42 41 32
-5.176796 1.352496 23.318903 19 23 24
-5.138010 1.354566 23.354591 35 29 23
-5.110981 1.359802 23.444866 38 41 43
-5.083190 1.364931 23.533287 120 120 120
-5.060657 1.371580 23.647932 120 120 120
-5.045817 1.380459 23.801023 120 120 120
-5.022208 1.387086 23.915276 24 32 17
-5.010034 1.397029 24.086702 29 30 43
-4.989545 1.404823 24.221094 28 25 33
-4.967224 1.412250 24.349138 28 38 24
-4.950216 1.421349 24.506021 28 18 17
-4.920095 1.426828 24.600475 33 31 17
-4.897241 1.434545 24.733541 29 33 18
-4.866337 1.440039 24.828251 29 17 28
-4.834040 1.445228 24.917730 26 42 44
-4.808335 1.452518 25.043413 22 41 31
-4.774415 1.457453 25.128498 17 42 22
-4.747520 1.464661 25.252768 35 23 36
-4.714944 1.470251 25.349163 37 17 24
-4.680285 1.475307 25.436333 32 42 19
-4.648227 1.481303 25.539711 34 25 28
-4.607594 1.484669 25.597744 32 38 34
-4.571459 1.489577 25.682356 28 17 23
-4.531235 1.493248 25.745653 19 21 38
-4.490085 1.496695 25.805086 38 28 41
-4.452019 1.501262 25.883829 21 24 28
-7.046103 1.304834 21.747231 40 41 23
-7.009449 1.306109 21.768476 25 28 17
-6.971274 1.307114 21.785231 32 18 33
-6.935995 1.308678 21.811304 43 27 20
-6.898804 1.309900 21.831659 23 38 16
-6.861693 1.311152 21.852526 20 33 36
-6.826431 1.312775 21.879585 21 31 39
-6.788220 1.313849 21.897484 30 33 16
-6.752065 1.315337 21.922289 16 33 27
-6.712831 1.316241 21.937355 16 34 22
-6.674298 1.317296 21.954927 37 34 20
-6.639390 1.319084 21.984735 37 15 23
-6.602681 1.320536 22.008936 32 17 43
-6.571659 1.323153 22.052546 20 28 40
-6.538546 1.325381 22.089684 25 43 32
-6.506706 1.327899 22.131653 22 35 32
-6.478630 1.331225 22.187088 23 28 27
-6.445574 1.333567 22.226118 32 28 23
-6.416521 1.336775 22.279587 34 41 32
-6.382593 1.339005 22.316757 20 15 29
-6.347758 1.341076 22.351261 19 21 16
-6.316366 1.343908 22.398462 18 28 35
-6.280261 1.345770 22.429504 25 16 25
-6.247758 1.348437 22.473951 30 19 30
-6.211964 1.350427 22.507114 17 41 26
-6.175274 1.352250 22.537497 28 30 40
-6.140525 1.354528 22.575459 44 26 38
-6.101518 1.355893 22.598215 36 36 21
-6.065678 1.357988 22.633127 21 36 19
-6.027764 1.359646 22.660769 19 16 16
-5.989427 1.361233 22.687223 27 28 26
-5.952679 1.363209 22.720148 31 27 23
-5.912504 1.364424 22.740400 35 32 29
-5.874625 1.366192 22.769863 41 24 25
-5.834408 1.367439 22.790655 18 16 42
-5.794273 1.368726 22.812098 42 42 15
-5.756472 1.370588 22.843142 18 44 25
-5.716344 1.371923 22.865376 42 40 32
-5.679760 1.374136 22.902260 40 36 17
-5.641640 1.376010 22.933495 28 39 17
-5.603406 1.377887 22.964777 43 22 18
-5.566466 1.380116 23.001926 27 35 34
-5.525857 1.381464 23.024405 21 22 32
-5.487372 1.383371 23.056185 42 18 24
-5.446415 1.384682 23.078032 20 42 41
-5.405402 1.386000 23.100008 36 28 20
-5.367216 1.388073 23.134550 19 22 30
-5.326960 1.389642 23.160694 36 30 38
-5.287171 1.391361 23.189346 33 36 25
-5.242588 1.391838 23.197292 39 39 31
-5.199253 1.392657 23.210953 26 23 30
-5.160767 1.394802 23.246698 37 19 32
-5.121922 1.396888 23.281466 27 24 19
-5.094802 1.402239 23.370651 24 15 42
-5.067044 1.407512 23.458536 120 120 120
-5.044543 1.414358 23.572630 120 120 120
-5.029677 1.423493 23.724892 120 120 120
-5.006099 1.430314 23.838568 33 17 17
-4.993459 1.440421 24.007015 25 29 42
-4.972250 1.448228 24.137135 21 44 21
-4.949184 1.455642 24.260704 40 23 27
-4.931781 1.464885 24.414757 36 25 22
-4.901801 1.470540 24.509003 38 38 38
-4.878373 1.478295 24.638248 34 15 42
-4.846573 1.483645 24.727413 25 33 41
-4.813183 1.488613 24.810221 19 28 42
-4.786222 1.495694 24.928240 16 40 20
-4.751572 1.500496 25.008274 42 20 29
-4.724228 1.507732 25.128874 36 33 37
-4.691726 1.513460 25.224335 36 18 29
-4.657737 1.518827 25.313787 44 37 25
-4.626816 1.525324 25.422064 37 44 24
-4.587464 1.529155 25.485912 42 19 36
-4.552244 1.534464 25.574406 38 23 36
-4.512137 1.538229 25.637142 37 17 33
-4.470797 1.541654 25.694235 33 22 16
-4.432761 1.546312 25.771868 18 21 31
-4.389739 1.549320 25.821993 43 40 35
-4.350881 1.553886 25.898102 19 43 44
-7.044164 1.339688 21.607864 29 23 33
-7.006823 1.340812 21.625998 41 25 27
-6.971171 1.342275 21.649599 41 35 24
-6.933756 1.343415 21.667988 41 37 18
-6.899063 1.345100 21.695166 16 24 16
-6.862027 1.346347 21.715275 29 22 29
-6.824975 1.347607 21.735590 42 36 40
-6.790018 1.349298 21.762878 36 43 26
-6.752203 1.350441 21.781301 40 22 40
-6.716804 1.352084 21.807806 26 39 24
-6.678310 1.353122 21.824541 39 38 40
-6.640775 1.354369 21.844654 20 31 18
-6.607247 1.356455 21.878302 27 37 22
-6.571717 1.358155 21.905724 22 18 37
-6.542243 1.361138 21.953835 19 25 40
-6.510392 1.363663 21.994568 32 41 24
-6.479592 1.366445 22.039429 40 23 29
-6.452504 1.370052 22.097616 34 24 37
-6.419902 1.372531 22.137592 18 32 21
-6.391249 1.375894 22.191835 23 43 17
-6.357569 1.378214 22.229263 20 42 43
-6.322824 1.380335 22.263466 27 26 17
-6.291478 1.383233 22.310205 33 40 38
-6.255378 1.385120 22.340637 20 20 34
-6.222948 1.387852 22.384705 38 21 42
-6.187358 1.389914 22.417963 24 17 26
-6.150918 1.391813 22.448605 44 17 28
-6.116386 1.394176 22.486713 44 28 27
-6.077575 1.395591 22.509537 40 25 24
-6.041831 1.397737 22.544144 37 19 16
-6.003953 1.399418 22.571251 39 38 29
-5.965621 1.401017 22.597048 33 39 39
-5.928925 1.403028 22.629484 35 15 33
-5.888885 1.404273 22.649559 29 39 19
-5.851020 1.406059 22.678371 19 25 21
-5.810794 1.407302 22.698416 34 20 35
-5.770618 1.408576 22.718967 41 34 43
-5.732741 1.410436 22.748972 40 25 41
-5.692629 1.411772 22.770517 25 28 16
-5.655997 1.413999 22.806438 40 28 34
-5.617918 1.415898 22.837065 24 44 16
-5.579703 1.417793 22.867636 23 31 36
-5.542677 1.420025 22.903625 41 32 37
-5.502042 1.421361 22.925177 40 36 27
-5.463369 1.423231 22.955334 23 22 19
-5.422241 1.424487 22.975599 32 43 20
-5.381112 1.425765 22.996206 17 34 20
-5.342889 1.427841 23.029694 32 35 24
-5.302794 1.429449 23.055626 37 25 33
-5.263141 1.431205 23.083954 31 42 40
-5.218766 1.431697 23.091885 27 39 44
-5.175566 1.432523 23.105204 21 29 23
-5.136988 1.434654 23.139587 43 23 17
-5.098016 1.436714 23.172800 24 24 42
-5.070741 1.442137 23.260279 43 25 40
-5.043055 1.447543 23.347475 120 120 120
-5.020626 1.454574 23.460867 120 120 120
-5.005757 1.463948 23.612062 120 120 120
-4.982260 1.470953 23.725046 16 42 32
-4.968897 1.481114 23.888929 26 34 37
-4.946483 1.488747 24.012054 41 22 19
-4.922248 1.495977 24.128666 35 31 27
-4.904239 1.505262 24.278412 18 33 16
-4.874516 1.511100 24.372581 44 43 38
-4.851035 1.519011 24.500177 32 43 38
-4.819155 1.524427 24.587524 20 26 26
-4.785430 1.529364 24.667164 40 15 41
-4.757562 1.536296 24.778969 20 30 38
-4.722085 1.540891 24.853079 28 30 15
-4.693858 1.547974 24.967329 19 19 16
-4.660942 1.553647 25.058830 22 41 44
-4.627001 1.559098 25.146744 24 18 24
-4.596456 1.565826 25.255253 16 20 42
-4.557896 1.569942 25.321646 36 34 34
-4.523371 1.575556 25.412195 15 39 26
-4.483673 1.579476 25.475412 31 28 42
-4.442600 1.582995 25.532183 16 40 38
-4.404784 1.587771 25.609207 36 20 23
-4.361933 1.590823 25.658430 20 25 18
-4.323244 1.595483 25.733597 37 27 42
-4.281376 1.599068 25.791422 26 42 40
-7.055513 1.376686 21.510712 33 26 21
-7.016977 1.377566 21.524469 28 18 30
-6.980165 1.378798 21.543720 27 25 31
-6.944544 1.380282 21.566908 16 28 21
-6.906717 1.381343 21.583490 22 20 16
-6.872048 1.383054 21.610212 29 34 41
-6.835482 1.384401 21.631271 27 21 42
-6.799286 1.385842 21.653776 34 16 43
-6.765425 1.387779 21.684053 36 23 15
-6.728569 1.389124 21.705061 44 34 21
-6.694424 1.391049 21.735144 32 42 27
-6.656824 1.392277 21.754326 20 34 38
-6.620154 1.393717 21.776821 33 42 30
-6.587824 1.396095 21.813986 34 17 19
-6.553185 1.398013 21.843950 19 44 37
-6.524508 1.401237 21.894321 41 25 32
-6.493218 1.403939 21.936548 42 38 19
-6.462381 1.406777 21.980886 27 23 28
-6.434498 1.410301 22.035954 22 25 38
-6.400758 1.412581 22.071581 21 21 39
-6.371228 1.415828 22.122318 39 30 24
-6.337546 1.418192 22.159250 16 40 38
-6.303101 1.420417 22.194017 32 33 18
-6.271758 1.423378 22.240278 29 41 18
-6.235658 1.425293 22.270208 27 35 43
-6.203276 1.428092 22.313944 15 26 26
-6.167852 1.430227 22.347290 18 40 34
-6.131622 1.432204 22.378181 40 43 24
-6.097276 1.434653 22.416456 40 33 29
-6.058639 1.436122 22.439405 24 42 21
-6.023009 1.438330 22.473913 33 42 18
-5.985190 1.440046 22.500713 38 40 35
-5.946894 1.441671 22.526115 40 23 26
-5.910269 1.443730 22.558279 15 24 37
-5.870352 1.445010 22.578276 36 42 37
-5.832525 1.446828 22.606688 17 38 41
-5.792313 1.448078 22.626225 27 16 34
-5.752117 1.449352 22.646132 38 24 38
-5.714194 1.451224 22.675371 30 17 16
-5.674102 1.452570 22.696407 43 22 17
-5.637423 1.454819 22.731544 27 20 27
-5.599363 1.456745 22.761637 33 40 28
-5.561144 1.458661 22.791573 39 17 34
-5.524030 1.460900 22.826569 30 41 40
-5.483357 1.462229 22.847322 20 31 16
-5.444515 1.464071 22.876112 41 39 20
-5.403266 1.465292 22.895193 26 30 43
-5.362009 1.466532 22.914568 27 39 38
-5.323568 1.468571 22.946415 26 39 32
-5.283374 1.470156 22.971193 15 41 19
-5.243789 1.471941 22.999073 35 37 23
-5.199778 1.472503 23.007866 38 35 39
-5.156942 1.473412 23.022064 18 26 30
-5.118415 1.475579 23.055925 41 19 31
-5.079336 1.477625 23.087891 40 16 21
-5.051970 1.483147 23.174173 37 19 30
-5.024391 1.488708 23.261068 120 120 120
-5.002066 1.495945 23.374138 120 120 120
-4.987251 1.505585 23.524771 120 120 120
-4.963847 1.512792 23.637367 34 31 18
-4.949929 1.523055 23.797737 26 26 21
-4.926498 1.530563 23.915039 23 19 33
-4.901341 1.537676 24.026182 17 21 19
-4.882930 1.547067 24.172918 29 38 40
-4.853507 1.553122 24.267534 23 27 22
-4.830711 1.561442 24.397532 36 17 24
-4.799897 1.567313 24.489269 42 29 26
-4.766987 1.572614 24.572096 32 21 33
-4.739072 1.579691 24.682667 34 16 42
-4.702967 1.584157 24.752460 40 23 32
-4.673716 1.591052 24.860191 31 39 39
-4.639971 1.596549 24.946083 15 24 36
-4.605350 1.601861 25.029076 34 34 18
-4.574236 1.608522 25.133163 25 43 44
-4.535639 1.612672 25.197996 37 26 36
-4.501363 1.618468 25.288557 33 19 39
-4.462285 1.622649 25.353891 40 38 21
-4.421888 1.626442 25.413149 23 38 33
-4.384404 1.631406 25.490723 31 15 31
-4.341631 1.634496 25.539005 27 18 26
-4.302991 1.639235 25.613041 20 35 31
-4.261249 1.642891 25.670176 21 15 28
-4.219298 1.646555 25.727427 35 44 38
-4.180184 1.651431 25.803606 22 24 22
-7.110557 1.413545 21.417341 39 16 21
-7.069309 1.413862 21.422148 23 24 18
-7.031321 1.414839 21.436954 38 20 39
-6.993690 1.415900 21.453035 34 39 32
-6.957391 1.417246 21.473429 36 20 24
-6.921898 1.418774 21.496578 28 37 20
-6.883748 1.419773 21.511713 21 39 39
-6.849445 1.421583 21.539135 34 23 39
-6.813766 1.423128 21.562551 37 39 23
-6.778880 1.424860 21.588791 18 39 20
-6.746569 1.427159 21.623619 23 18 41
-6.710903 1.428773 21.648073 32 27 37
-6.678231 1.431050 21.682570 43 22 22
-6.641710 1.432526 21.704933 18 32 36
-6.605861 1.434167 21.729807 25 36 17
-6.574455 1.436801 21.769718 39 42 28
-6.540296 1.438865 21.800985 41 41 18
-6.511743 1.442198 21.851488 41 39 25
-6.480382 1.444950 21.893183 26 16 38
-6.448917 1.447716 21.935091 32 15 39
-6.419659 1.451019 21.985134 40 19 29
-6.384509 1.453026 22.015547 42 16 41
-6.353892 1.456100 22.062126 22 37 40
-6.320174 1.458502 22.098509 24 18 34
-6.286084 1.460851 22.134100 37 44 27
-6.254736 1.463874 22.179916 16 25 35
-6.218606 1.465814 22.209309 38 26 37
-6.186236 1.468675 22.252647 42 43 42
-6.150917 1.470871 22.285931 41 32 25
-6.114829 1.472915 22.316895 26 26 23
-6.080601 1.475440 22.355150 36 23 24
-6.042084 1.476954 22.378090 30 30 18
-6.006483 1.479208 22.412249 35 34 22
-5.968647 1.480943 22.438524 28 41 26
-5.930310 1.482578 22.463297 20 29 32
-5.893654 1.484661 22.494862 37 39 29
-5.853782 1.485960 22.514545 16 42 43
-5.815896 1.487787 22.542233 22 32 28
-5.775624 1.489028 22.561031 30 22 26
-5.735343 1.490286 22.580091 16 24 17
-5.697289 1.492147 22.608292 40 35 34
-5.657151 1.493488 22.628603 29 27 17
-5.620342 1.495736 22.662670 30 32 19
-5.582232 1.497672 22.691999 18 31 32
-5.543960 1.499596 22.721146 40 20 15
-5.506707 1.501829 22.754988 27 38 41
-5.465982 1.503145 22.774923 31 22 41
-5.426971 1.504958 22.802401 38 41 25
-5.385621 1.506148 22.820429 27 15 43
-5.344252 1.507353 22.838684 28 21 42
-5.305541 1.509335 22.868711 42 29 27
-5.265171 1.510875 22.892046 29 34 20
-5.225676 1.512696 22.919630 21 19 16
-5.182175 1.513379 22.929979 17 20 42
-5.139857 1.514422 22.945789 29 43 23
-5.101432 1.516642 22.979425 26 34 35
-5.062200 1.518660 23.010002 32 42 18
-5.034682 1.524262 23.094873 22 26 20
-5.007154 1.529964 23.181267 120 120 120
-4.984880 1.537393 23.293831 120 120 120
-4.970086 1.547291 23.443804 120 120 120
-4.946765 1.554697 23.556023 40 17 43
-4.932272 1.565048 23.712845 43 35 34
-4.907810 1.572405 23.824322 25 38 32
-4.881691 1.579371 23.929857 25 28 21
-4.862794 1.588834 24.073236 35 38 28
-4.833578 1.595081 24.167891 38 31 34
-4.811477 1.603826 24.300388 41 31 22
-4.781798 1.610197 24.396931 23 33 30
-4.749893 1.615943 24.483982 42 15 15
-4.722296 1.623289 24.595289 23 41 38
-4.685918 1.627740 24.662725 15 24 37
-4.655856 1.634503 24.765194 20 35 16
-4.621322 1.639824 24.845819 29 27 20
-4.585785 1.644901 24.922743 43 18 21
-4.553561 1.651291 25.019567 27 41 44
-4.514314 1.655249 25.079523 27 24 30
-4.479764 1.661036 25.167215 43 42 37
-4.441158 1.665434 25.233854 34 38 44
-4.401474 1.669525 25.295826 38 21 34
-4.364303 1.674675 25.373857 23 27 26
-4.321640 1.677813 25.421413 28 34 17
-4.283081 1.682639 25.494532 20 19 44
-4.241499 1.686379 25.551199 34 21 40
-4.199682 1.690116 25.607819 36 18 43
-4.160667 1.695086 25.683128 29 38 34
-4.117338 1.698402 25.733364 24 42 27
-7.161697 1.449391 21.314573 15 16 23
-7.117644 1.449101 21.310312 32 28 38
-7.075922 1.449285 21.313017 20 20 21
-7.035908 1.449824 21.320934 28 40 35
-6.999287 1.451072 21.339289 28 20 32
-6.962412 1.452282 21.357092 35 34 35
-6.926819 1.453777 21.379072 39 27 24
-6.892494 1.455558 21.405262 26 40 23
-6.855309 1.456753 21.422840 41 26 38
-6.822540 1.458908 21.454527 28 42 23
-6.788194 1.460751 21.481627 39 17 28
-6.754711 1.462804 21.511820 31 21 44
-6.724087 1.465506 21.551561 15 32 31
-6.689571 1.467390 21.579262 37 31 24
-6.658454 1.470048 21.618359 34 18 21
-6.623290 1.471842 21.644739 21 24 21
-6.588401 1.473721 21.672373 23 24 36
-6.557651 1.476557 21.714077 23 20 40
-6.523497 1.478659 21.744989 44 34 16
-6.494580 1.481985 21.793894 31 44 19
-6.462726 1.484680 21.833534 36 28 28
-6.430633 1.487357 21.872902 30 32 40
-6.400727 1.490580 21.920298 41 39 34
-6.365233 1.492537 21.949080 17 16 22
-6.334414 1.495626 21.994493 30 16 27
-6.300864 1.498107 22.030993 44 36 29
-6.267051 1.500561 22.067080 24 24 41
-6.235735 1.503652 22.112535 32 37 16
-6.199568 1.505609 22.141315 38 24 19
-6.167171 1.508517 22.184069 36 42 39
-6.131955 1.510772 22.217230 43 35 22
-6.095984 1.512872 22.248116 35 25 23
-6.061818 1.515455 22.286097 31 21 42
-6.023371 1.516997 22.308783 42 28 42
-5.987680 1.519262 22.342091 23 41 27
-5.949729 1.520983 22.367403 38 35 29
-5.911226 1.522589 22.391008 29 41 34
-5.874397 1.524653 22.421362 40 17 32
-5.834489 1.525943 22.440342 32 22 43
-5.796399 1.527733 22.466661 38 24 18
-5.755961 1.528927 22.484224 35 42 31
-5.715490 1.530131 22.501930 36 30 20
-5.677174 1.531936 22.528467 21 38 40
-5.636920 1.533242 22.547682 30 29 25
-5.599898 1.535456 22.580233 30 30 17
-5.561687 1.537377 22.608484 27 42 28
-5.523338 1.539291 22.636629 25 23 31
-5.485924 1.541499 22.669109 28 22 28
-5.445156 1.542794 22.688148 24 16 31
-5.405987 1.544568 22.714230 27 24 32
-5.364554 1.545719 22.731159 23 35 35
-5.323110 1.546887 22.748335 17 35 40
-5.284202 1.548818 22.776733 41 31 38
-5.243733 1.550321 22.798838 16 19 39
-5.204414 1.552194 22.826378 15 24 44
-5.161494 1.553016 22.838469 16 43 18
-5.119719 1.554200 22.855888 24 24 31
-5.081369 1.556455 22.889048 42 31 32
-5.041925 1.558413 22.917839 22 29 22
-5.014143 1.564044 23.000654 41 15 21
-4.986579 1.569849 23.086016 120 120 120
-4.964273 1.577433 23.197538 120 120 120
-4.949418 1.587549 23.346313 120 120 120
-4.926160 1.595138 23.457907 29 23 39
-4.910938 1.605499 23.610281 36 20 22
-4.885292 1.612621 23.715012 19 20 27
-4.857975 1.619325 23.813601 15 35 30
-4.838264 1.628722 23.951801 17 30 20
-4.809025 1.635068 24.045124 24 31 22
-4.786885 1.643981 24.176186 44 25 33
-4.757293 1.650489 24.271904 43 31 41
-4.725611 1.656400 24.358822 42 43 25
-4.698286 1.663976 24.470240 42 44 18
-4.662276 1.668604 24.538294 29 43 22
-4.632161 1.675463 24.639154 18 18 42
-4.597434 1.680782 24.717388 18 30 38
-4.561332 1.685710 24.789848 15 26 22
-4.527977 1.691771 24.878992 35 26 23
-4.487744 1.695370 24.931911 41 28 19
-4.452394 1.700914 25.013447 39 38 35
-4.413807 1.705334 25.078447 22 20 38
-4.374485 1.709569 25.140717 21 24 37
-4.337444 1.714803 25.217697 24 30 27
-4.294992 1.717997 25.264660 18 44 43
-4.256627 1.722920 25.337065 26 43 23
-4.215284 1.726743 25.393276 26 32 37
-4.173737 1.730574 25.449614 43 36 41
-4.134995 1.735677 25.524660 42 32 17
-4.091980 1.739091 25.574875 39 20 26
-4.052243 1.744003 25.647106 44 36 37
-7.182882 1.487579 21.251131 28 17 34
-7.138113 1.487107 21.244385 37 38 20
-7.095090 1.486995 21.242785 29 33 33
-7.054464 1.487387 21.248386 22 17 27
-7.015241 1.488081 21.258307 25 26 28
-6.979462 1.489519 21.278849 39 36 38
-6.942876 1.490802 21.297165 42 15 33
-6.907761 1.492417 21.320250 33 22 20
-6.874779 1.494517 21.350245 42 34 21
-6.839000 1.496031 21.371876 44 17 32
-6.807961 1.498608 21.408682 28 15 18
-6.774774 1.500741 21.439159 30 37 21
-6.742264 1.503053 21.472179 25 27 32
-6.712798 1.506076 21.515377 28 28 36
-6.678941 1.508148 21.544971 24 33 31
-6.648783 1.511087 21.586958 33 40 33
-6.614590 1.513142 21.616308 28 29 23
-6.580272 1.515194 21.645632 26 41 21
-6.549548 1.518107 21.687246 35 28 34
-6.514891 1.520141 21.716303 34 18 20
-6.485144 1.523356 21.762228 31 31 42
-6.452468 1.525922 21.798880 16 39 38
-6.419793 1.528522 21.836031 34 31 20
-6.389803 1.531802 21.882887 22 31 22
-6.354757 1.533907 21.912954 37 17 41
-6.324354 1.537169 21.959562 29 24 16
-6.291015 1.539759 21.996557 31 22 26
-6.257306 1.542294 22.032766 37 28 15
-6.226032 1.545469 22.078127 35 31 39
-6.189823 1.547456 22.106512 19 29 44
-6.157375 1.550418 22.148830 19 24 42
-6.122180 1.552727 22.181812 23 34 18
-6.086217 1.554873 22.212471 36 22 44
-6.052015 1.557504 22.250053 38 23 25
-6.013550 1.559069 22.272408 33 35 40
-5.977701 1.561340 22.304855 16 38 26
-5.939587 1.563049 22.329273 33 29 39
-5.900883 1.564628 22.351831 35 30 40
-5.863827 1.566671 22.381018 32 23 37
-5.823809 1.567949 22.399265 18 22 26
-5.785478 1.569703 22.424332 35 41 43
-5.744851 1.570858 22.440825 41 25 15
-5.704184 1.572019 22.457418 22 20 17
-5.665603 1.573779 22.482553 34 15 17
-5.625221 1.575062 22.500883 35 44 20
-5.587995 1.577257 22.532238 41 33 30
-5.549674 1.579176 22.559650 16 23 32
-5.511250 1.581096 22.587091 30 30 44
-5.473717 1.583306 22.618664 32 24 18
-5.432922 1.584602 22.637177 44 38 27
-5.393682 1.586377 22.662529 44 15 31
-5.352227 1.587525 22.678926 43 34 18
-5.310779 1.588695 22.695639 17 30 37
-5.271797 1.590628 22.723263 16 41 36
-5.231298 1.592134 22.744772 24 33 40
-5.192132 1.594076 22.772509 23 30 19
-5.149619 1.595015 22.785927 39 39 19
-5.108200 1.596313 22.804466 15 36 21
-5.069892 1.598615 22.837351 29 23 30
-5.030281 1.600544 22.864914 15 28 16
-5.002267 1.606233 22.946180 24 30 34
-4.974611 1.612142 23.030605 120 120 120
-4.952210 1.619882 23.141169 120 120 120
-4.937257 1.630226 23.288946 120 120 120
-4.914014 1.638005 23.400068 43 25 23
-4.898307 1.648469 23.549551 17 30 38
-4.871951 1.655517 23.650249 19 32 41
-4.843845 1.662104 23.744339 44 29 17
-4.823465 1.671498 23.878540 25 43 29
-4.794015 1.677905 23.970074 18 28 22
-4.771367 1.686847 24.097815 30 36 32
-4.741132 1.693261 24.189447 19 43 43
-4.709113 1.699165 24.273779 26 42 37
-4.682064 1.707003 24.385752 22 24 27
-4.646847 1.711996 24.457088 27 17 20
-4.617323 1.719216 24.560230 29 16 27
-4.582931 1.724759 24.639414 35 33 39
-4.546675 1.729713 24.710188 41 18 42
-4.512500 1.735577 24.793959 25 18 24
-4.471263 1.738824 24.840349 19 22 19
-4.434922 1.744070 24.915291 33 16 43
-4.395975 1.748399 24.977131 35 29 26
-4.356614 1.752661 25.038010 32 24 29
-4.319498 1.757935 25.113361 27 28 25
-4.277229 1.761212 25.160168 15 42 27
-4.239043 1.766268 25.232399 29 17 36
-4.197883 1.770192 25.288450 39 34 44
-4.156557 1.774140 25.344858 17 29 43
-4.118054 1.779406 25.420086 18 33 30
-4.075294 1.782941 25.470591 41 15 40
-4.035720 1.787977 25.542532 38 17 39
-3.993064 1.791760 25.596567 26 32 40
-3.949334 1.795152 25.645023 33 19 40
-7.237998 1.523789 21.163738 19 27 42
-7.193983 1.523432 21.158773 15 24 20
-7.150366 1.523155 21.154930 41 17 32
-7.106971 1.522922 21.151699 23 39 31
-7.065569 1.523117 21.154398 18 40 19
-7.026678 1.523858 21.164694 33 27 40
-6.988602 1.524786 21.177582 27 25 19
-6.954038 1.526496 21.201336 39 38 17
-6.917935 1.527887 21.220659 39 32 27
-6.883406 1.529646 21.245079 16 21 34
-6.851927 1.532108 21.279278 42 21 34
-6.817647 1.533971 21.305147 35 26 29
-6.788524 1.537024 21.347559 23 25 39
-6.756755 1.539514 21.382135 38 39 37
-6.725372 1.542124 21.418383 43 23 40
-6.697016 1.545465 21.464794 42 33 25
-6.663629 1.547682 21.495579 26 27 27
-6.634069 1.550821 21.539185 39 22 39
-6.600456 1.553048 21.570118 17 21 23
-6.566447 1.555211 21.600153 21 41 41
-6.535750 1.558192 21.641558 28 17 36
-6.500847 1.560203 21.669491 39 42 19
-6.470581 1.563362 21.713358 40 19 30
-6.437304 1.565831 21.747648 42 15 32
-6.404208 1.568377 21.783020 15 29 20
-6.374228 1.571727 21.829548 38 42 22
-6.339615 1.573973 21.860741 15 35 25
-6.309656 1.577414 21.908529 20 24 29
-6.276615 1.580127 21.946205 36 39 29
-6.243100 1.582758 21.982748 43 40 18
-6.211929 1.586025 22.028118 26 28 27
-6.175718 1.588042 22.056137 30 15 26
-6.143218 1.591049 22.097906 34 20 41
-6.108029 1.593399 22.130541 44 41 42
-6.072041 1.595573 22.160732 32 24 42
-6.037758 1.598230 22.197641 32 42 33
-5.999257 1.599802 22.219469 23 42 36
-5.963186 1.602050 22.250694 26 19 16
-5.924838 1.603716 22.273827 23 19 31
-5.885863 1.605235 22.294935 44 25 34
-5.848473 1.607214 22.322416 22 31 21
-5.808293 1.608450 22.339588 40 28 29
-5.769642 1.610133 22.362955 24 33 22
-5.728797 1.611224 22.378113 25 36 39
-5.687898 1.612318 22.393299 34 40 33
-5.648964 1.613990 22.416525 36 41 41
-5.608382 1.615214 22.433527 39 39 43
-5.570827 1.617337 22.463013 30 26 34
-5.532300 1.619210 22.489023 30 20 28
-5.493723 1.621098 22.515257 43 15 19
-5.455986 1.623269 22.545399 37 40 33
-5.415146 1.624544 22.563108 22 29 38
-5.375794 1.626291 22.587370 17 29 32
-5.334298 1.627413 22.602959 22 17 20
-5.292855 1.628571 22.619038 43 22 16
-5.253819 1.630496 22.645771 23 28 35
-5.213341 1.632002 22.666698 33 20 43
-5.174396 1.634020 22.694719 24 24 25
-5.132402 1.635102 22.709743 17 36 42
-5.091397 1.636521 22.729452 38 37 21
-5.053061 1.638831 22.761536 41 19 27
-5.013170 1.640674 22.787134 18 17 24
-4.984725 1.646331 22.865709 43 23 42
-4.956829 1.652276 22.948282 120 120 120
-4.934195 1.660103 23.056986 120 120 120
-4.918987 1.670599 23.202770 120 120 120
-4.895706 1.678528 23.312883 21 24 44
-4.879334 1.689000 23.458336 17 29 19
-4.852079 1.695872 23.553783 17 16 44
-4.822995 1.702234 23.642134 22 16 21
-4.801737 1.711510 23.770977 18 16 16
-4.771994 1.717918 23.859972 38 35 20
-4.748755 1.726820 23.983612 25 42 31
-4.718017 1.733149 24.071514 20 20 40
-4.685651 1.739005 24.152842 24 33 25
-4.658375 1.746891 24.262371 22 42 15
-4.623324 1.751996 24.333282 27 28 39
-4.593718 1.759296 24.434671 37 35 28
-4.559290 1.764887 24.512314 28 28 40
-4.522758 1.769775 24.580208 44 34 19
-4.487761 1.775378 24.658030 16 27 17
-4.445768 1.778307 24.698709 32 21 35
-4.408642 1.783271 24.767651 27 42 30
-4.369402 1.787483 24.826149 33 36 32
-4.330110 1.791769 24.885687 17 42 43
-4.293182 1.797146 24.960361 19 44 18
-4.251390 1.800589 25.008179 29 37 35
-4.213725 1.805882 25.081697 40 15 19
-4.173057 1.810001 25.138897 40 23 38
-4.132134 1.814107 25.195936 35 19 22
-4.093900 1.819511 25.270990 40 35 37
-4.051307 1.823088 25.320669 34 28 24
-4.011693 1.828113 25.390459 36 16 32
-3.968978 1.831836 25.442167 42 39 31
-3.925160 1.835140 25.488050 21 32 30
-3.882815 1.839228 25.544838 29 22 41
-3.836696 1.841614 25.577972 42 15 25
-7.213706 1.560860 21.092709 35 36 19
-7.170354 1.560606 21.089275 28 25 40
-7.127928 1.560552 21.088543 41 22 44
-7.085664 1.560533 21.088285 38 25 39
-7.045463 1.560971 21.094200 17 39 16
-7.007946 1.562012 21.108271 34 38 30
-6.970774 1.563143 21.123556 18 19 21
-6.937147 1.565088 21.149839 31 42 19
-6.901443 1.566585 21.170071 24 16 21
-6.867291 1.568455 21.195341 44 20 20
-6.836697 1.571166 21.231979 41 25 25
-6.803240 1.573249 21.260124 15 35 44
-6.775261 1.576633 21.305853 36 23 19
-6.744486 1.579405 21.343311 38 44 38
-6.713855 1.582246 21.381704 24 37 22
-6.685998 1.585782 21.429482 41 44 19
-6.652619 1.588044 21.460060 28 43 23
-6.622930 1.591223 21.503019 20 36 26
-6.589108 1.593444 21.533031 18 30 25
-6.554912 1.595604 21.562212 44 30 21
-6.524259 1.598660 21.603508 23 41 22
-6.489586 1.600765 21.631954 35 38 25
-6.459482 1.604033 21.676115 34 36 41
-6.426213 1.606553 21.710178 36 16 41
-6.393131 1.609155 21.745342 17 18 17
-6.363272 1.612610 21.792028 18 26 31
-6.328833 1.614944 21.823563 19 29 33
-6.299100 1.618519 21.871874 16 17 16
-6.266285 1.621346 21.910088 42 30 25
-6.232960 1.624081 21.947041 26 19 20
-6.201899 1.627449 21.992548 29 28 19
-6.165711 1.629509 22.020397 31 24 34
-6.133185 1.632574 22.061815 19 27 39
-6.097983 1.634967 22.094143 42 31 20
-6.061956 1.637171 22.123928 40 35 24
-6.027605 1.639863 22.160311 24 21 33
-5.989077 1.641451 22.181767 44 15 24
-5.952831 1.643692 22.212057 42 30 35
-5.914307 1.645334 22.234238 26 36 32
-5.875115 1.646812 22.254223 34 18 33
-5.837470 1.648751 22.280418 19 18 36
-5.797158 1.649960 22.296761 18 30 40
-5.758275 1.651598 22.318897 39 34 32
-5.717295 1.652656 22.333183 36 40 27
-5.676254 1.653712 22.347458 42 20 24
-5.637058 1.655326 22.369276 24 36 43
-5.596311 1.656508 22.385244 22 23 34
-5.558482 1.658579 22.413235 30 35 40
-5.519775 1.660420 22.438110 35 21 15
-5.481050 1.662286 22.463320 17 44 21
-5.443132 1.664429 22.492281 26 16 15
-5.402250 1.665694 22.509375 38 15 26
-5.362800 1.667425 22.532772 31 33 15
-5.321253 1.668528 22.547682 31 44 43
-5.279809 1.669683 22.563286 44 39 30
-5.240755 1.671620 22.589460 19 34 29
-5.200326 1.673148 22.610111 30 22 26
-5.161572 1.675247 22.638472 42 25 21
-5.119973 1.676451 22.654747 24 25 17
-5.079278 1.677976 22.675346 19 35 40
-5.040904 1.680301 22.706776 38 22 36
-5.000770 1.682077 22.730774 42 17 25
-4.971961 1.687730 22.807159 25 38 15
-4.943845 1.693725 22.888170 120 120 120
-4.920993 1.701652 22.995296 120 120 120
-4.905561 1.712319 23.139441 120 120 120
-4.882234 1.720406 23.248734 41 34 15
-4.865343 1.730939 23.391073 25 36 32
-4.837396 1.737705 23.482504 19 36 26
-4.807577 1.743925 23.566555 17 15 44
-4.785657 1.753161 23.691370 27 28 21
-4.755693 1.759607 23.778467 17 18 17
-4.732109 1.768566 23.899538 31 33 32
-4.701282 1.774974 23.986134 18 31 38
-4.668731 1.780856 24.065622 38 31 15
-4.640809 1.788645 24.170881 22 36 21
-4.605161 1.793589 24.237690 35 21 41
-4.574785 1.800713 24.333961 27 29 22
-4.539938 1.806212 24.408268 15 28 37
-4.503130 1.811041 24.473532 21 43 28
-4.467759 1.816561 24.548128 41 26 22
-4.425675 1.819444 24.587082 16 32 24
-4.388447 1.824411 24.654198 31 44 22
-4.349180 1.828633 24.711250 39 16 42
-4.310081 1.833023 24.770582 27 16 27
-4.273586 1.838636 24.846430 43 31 40
-4.232376 1.842329 24.896332 44 21 28
-4.195377 1.847964 24.972485 23 15 37
-4.155318 1.852371 25.032034 23 37 30
-4.114777 1.856667 25.090101 44 34 24
-4.076614 1.862157 25.164284 30 26 28
-4.033846 1.865654 25.211540 40 32 43
-3.993860 1.870542 25.277596 25 35 33
-3.950890 1.874140 25.326218 44 27 44
-3.906833 1.877309 25.369043 16 40 18
-3.864218 1.881264 25.422485 16 36 40
-3.818068 1.883580 25.453785 43 30 22
-3.773646 1.886823 25.497610 35 37 25
-7.234292 1.598274 21.029919 31 43 29
-7.191942 1.598209 21.029070 44 20 17
-7.149334 1.598086 21.027452 25 25 28
-7.108279 1.598311 21.030411 41 28 19
-7.067370 1.598572 21.033840 36 26 17
-7.028526 1.599305 21.043491 38 32 22
-6.992414 1.600673 21.061487 29 34 26
-6.956029 1.601995 21.078876 30 36 17
-6.923226 1.604162 21.107395 16 38 19
-6.887928 1.605775 21.128613 18 32 22
-6.854058 1.607742 21.154499 20 17 19
-6.824030 1.610641 21.192638 31 43 24
-6.791042 1.612873 21.222008 32 19 21
-6.763718 1.616486 21.269552 42 39 24
-6.733598 1.619473 21.308853 29 21 15
-6.703386 1.622476 21.348364 20 37 37
-6.675628 1.626115 21.396244 17 38 23
-6.642006 1.628363 21.425825 41 39 29
-6.611857 1.631497 21.467068 15 24 25
-6.577537 1.633637 21.495220 34 18 36
-6.542986 1.635746 21.522980 22 23 25
-6.512297 1.638856 21.563898 40 39 19
-6.477925 1.641074 21.593084 26 21 19
-6.448130 1.644490 21.638021 43 31 16
-6.415050 1.647107 21.672466 18 23 38
-6.382119 1.649799 21.707888 41 35 32
-6.352427 1.653372 21.754889 24 21 35
-6.318109 1.655780 21.786583 22 28 42
-6.288547 1.659478 21.835232 17 20 34
-6.255927 1.662414 21.873871 33 41 28
-6.222772 1.665249 21.911169 42 31 26
-6.191842 1.668724 21.956888 24 37 36
-6.155724 1.670839 21.984730 18 26 17
-6.123192 1.673966 22.025871 26 38 15
-6.087952 1.676393 22.057798 29 21 26
-6.051845 1.678614 22.087025 38 26 41
-6.017396 1.681331 22.122780 39 30 34
-5.978837 1.682932 22.143841 40 37 35
-5.942429 1.685166 22.173243 25 40 15
-5.903754 1.686787 22.194565 22 28 31
-5.864388 1.688233 22.213593 25 24 23
-5.826511 1.690133 22.238592 42 43 38
-5.786077 1.691315 22.254141 22 40 26
-5.746992 1.692912 22.275164 36 41 27
-5.705927 1.693947 22.288776 24 21 21
-5.664785 1.694975 22.302303 29 37 38
-5.625372 1.696541 22.322905 25 24 34
-5.584472 1.697679 22.337887 30 35 40
-5.546370 1.699694 22.364393 30 35 40
-5.507467 1.701494 22.388077 30 35 40
-5.468581 1.703328 22.412216 37 31 15
-5.430479 1.705440 22.439997 21 25 35
-5.389563 1.706695 22.456512 39 22 30
-5.350037 1.708415 22.479145 29 29 16
-5.308458 1.709504 22.493467 23 22 42
-5.267037 1.710661 22.508703 20 40 32
-5.228019 1.712627 22.534565 30 32 28
-5.187691 1.714194 22.555180 35 36 17
-5.149081 1.716360 22.583687 23 26 44
-5.107731 1.717644 22.600580 16 16 35
-5.067167 1.719217 22.621281 44 22 42
-5.028652 1.721520 22.651585 35 36 28
-4.988266 1.723219 22.673937 41 19 21
-4.959030 1.728836 22.747845 43 31 37
-4.930609 1.734844 22.826895 120 120 120
-4.907466 1.742838 22.932085 120 120 120
-4.891705 1.753630 23.074081 120 120 120
-4.868265 1.761848 23.182215 21 37 42
-4.850976 1.772472 23.322001 40 43 17
-4.822619 1.779219 23.410772 20 25 28
-4.792371 1.785393 23.492016 35 30 35
-4.769971 1.794643 23.613720 30 17 20
-4.739798 1.801123 23.698988 39 36 42
-4.715941 1.810159 23.817884 31 16 27
-4.685193 1.816707 23.904045 15 35 30
-4.652528 1.822640 23.982105 25 41 29
-4.623777 1.830245 24.082170 18 16 44
-4.587219 1.834888 24.143259 35 34 16
-4.555816 1.841713 24.233065 30 15 30
-4.520434 1.847059 24.303410 20 15 17
-4.483400 1.851839 24.366304 30 23 39
-4.447880 1.857356 24.438900 20 40 20
-4.406017 1.860318 24.477875 32 32 19
-4.368922 1.865382 24.544504 23 34 20
-4.329654 1.869624 24.600309 34 37 28
-4.290684 1.874092 24.659103 43 24 25
-4.254573 1.879928 24.735889 43 23 37
-4.213900 1.883861 24.787647 42 32 26
-4.177502 1.889822 24.866085 41 25 35
-4.137981 1.894497 24.927597 19 24 24
-4.097810 1.898985 24.986645 44 32 38
-4.059806 1.904600 25.060532 18 40 29
-4.017015 1.908082 25.106344 19 20 18
-3.976799 1.912891 25.169617 18 26 43
-3.933651 1.916394 25.215714 33 34 43
-3.889375 1.919432 25.255680 15 36 37
-3.846471 1.923235 25.305729 34 43 24
-3.800221 1.925445 25.334805 38 25 37
-3.755593 1.928548 25.375631 25 37 22
-3.708949 1.930686 25.403761 27 40 21
-7.246000 1.633491 20.942196 39 30 37
-7.205443 1.633792 20.946056 32 20 17
-7.163802 1.633850 20.946791 17 15 38
-7.121539 1.633765 20.945702 35 34 28
-7.081963 1.634299 20.952553 25 43 18
-7.043108 1.635007 20.961630 15 25 32
-7.006452 1.636237 20.977400 27 22 31
-6.972264 1.638062 21.000795 17 42 16
-6.936798 1.639607 21.020601 31 40 16
-6.904976 1.642037 21.051756 38 15 33
-6.870243 1.643800 21.074364 17 35 30
-6.836737 1.645881 21.101040 26 29 25
-6.807302 1.648974 21.140688 20 35 20
-6.774739 1.651343 21.171061 21 18 19
-6.747936 1.655154 21.219925 31 44 41
-6.718279 1.658309 21.260378 39 37 15
-6.688354 1.661438 21.300489 35 19 19
-6.660663 1.665166 21.348280 43 39 27
-6.626900 1.667414 21.377096 40 39 30
-6.596518 1.670547 21.417265 22 35 17
-6.562049 1.672679 21.444605 40 24 29
-6.527380 1.674788 21.471645 28 24 26
-6.496620 1.677935 21.511988 18 26 44
-6.462315 1.680202 21.541050 20 31 17
-6.432500 1.683674 21.585569 22 29 18
-6.399350 1.686315 21.619427 27 41 17
-6.366391 1.689042 21.654390 42 33 17
-6.336738 1.692690 21.701159 39 29 26
-6.302557 1.695171 21.732956 44 41 33
-6.273175 1.698985 21.781857 43 32 41
-6.240753 1.702024 21.820814 27 30 33
-6.207785 1.704955 21.858397 30 37 35
-6.177014 1.708536 21.904305 19 16 31
-6.141007 1.710709 21.932167 23 44 29
-6.108489 1.713892 21.972980 21 15 27
-6.073222 1.716345 22.004429 26 32 18
-6.037033 1.718571 22.032967 44 31 42
-6.002482 1.721300 22.067947 38 44 16
-5.963888 1.722901 22.088472 26 38 31
-5.927319 1.725115 22.116863 35 32 36
-5.888524 1.726710 22.137308 33 24 43
-5.849006 1.728115 22.155325 35 16 28
-5.810897 1.729962 22.178995 39 20 42
-5.770337 1.731101 22.193605 20 31 38
-5.731046 1.732642 22.213358 20 38 39
-5.689896 1.733640 22.226156 41 29 33
-5.648662 1.734628 22.238825 16 24 36
-5.609016 1.736124 22.258001 30 35 40
-5.567967 1.737206 22.271870 30 35 40
-5.529566 1.739138 22.296638 30 35 40
-5.490428 1.740867 22.318813 30 35 40
-5.451347 1.742644 22.341587 30 35 40
-5.413046 1.744701 22.367958 38 17 29
-5.372111 1.745936 22.383797 40 39 15
-5.332519 1.747632 22.405540 20 28 40
-5.290926 1.748696 22.419180 29 21 30
-5.249546 1.749849 22.433956 31 32 20
-5.210590 1.751836 22.459438 28 17 26
-5.170412 1.753444 22.480053 18 33 42
-5.131895 1.755648 22.508310 17 41 23
-5.090698 1.756966 22.525211 26 17 19
-5.050145 1.758533 22.545290 27 15 29
-5.011358 1.760748 22.573687 16 22 17
-4.970667 1.762327 22.593939 32 33 21
-4.940883 1.767839 22.664600 40 21 17
-4.912066 1.773802 22.741047 120 120 120
-4.888538 1.781803 22.843634 120 120 120
-4.872322 1.792647 22.982651 120 120 120
-4.848709 1.800949 23.089090 31 42 29
-4.831043 1.811641 23.226168 44 24 17
-4.802429 1.818395 23.312761 34 15 29
-4.771927 1.824560 23.391798 42 41 43
-4.749101 1.833811 23.510403 18 18 40
-4.718700 1.840293 23.593502 33 26 34
-4.694560 1.849372 23.709900 20 17 42
-4.663905 1.856044 23.795435 18 37 17
-4.631177 1.862020 23.872047 21 19 33
-4.601712 1.869445 23.967249 44 38 33
-4.564386 1.873801 24.023087 31 27 32
-4.532079 1.880331 24.106802 22 43 17
-4.496260 1.885529 24.173443 38 32 32
-4.459027 1.890240 24.233843 21 29 28
-4.423284 1.895693 24.303761 20 23 34
-4.381532 1.898664 24.341845 40 41 42
-4.344368 1.903712 24.406563 17 16 26
-4.304980 1.907889 24.460114 44 35 31
-4.265981 1.912336 24.517130 18 21 18
-4.229986 1.918249 24.592939 18 17 26
-4.189648 1.922309 24.644989 37 43 17
-4.153599 1.928456 24.723801 21 25 24
-4.114364 1.933256 24.785328 15 31 41
-4.074553 1.937897 24.844833 17 39 19
-4.037101 1.943789 24.920378 34 40 36
-3.994899 1.947513 24.968117 18 29 36
-3.955019 1.952478 25.031767 30 34 23
-3.911951 1.955975 25.076609 22 29 34
-3.867545 1.958887 25.113930 31 29 23
-3.824425 1.962534 25.160688 29 33 41
-3.778055 1.964589 25.187035 39 22 22
-3.733213 1.967504 25.224411 36 41 40
-3.686511 1.969506 25.250078 28 40 43
-7.268508 1.670921 20.886518 21 26 44
-7.227890 1.671188 20.889854 37 18 44
-7.187820 1.671586 20.894827 24 33 17
-7.146420 1.671677 20.895964 40 32 29
-7.104049 1.671541 20.894262 38 37 26
-7.065372 1.672277 20.903467 17 32 30
-7.028136 1.673366 20.917072 40 27 42
-6.993252 1.675031 20.937881 40 42 24
-6.960425 1.677211 20.965136 21 23 26
-6.925460 1.678899 20.986242 28 38 38
-6.894200 1.681512 21.018904 43 17 40
-6.859862 1.683402 21.042521 39 28 21
-6.826547 1.685567 21.069590 27 25 39
-6.797294 1.688769 21.109608 27 40 40
-6.764769 1.691192 21.139904 42 17 37
-6.737919 1.695074 21.188425 26 26 37
-6.708217 1.698283 21.228535 30 22 17
-6.678189 1.701449 21.268118 22 24 43
-6.650335 1.705214 21.315176 34 39 21
-6.616455 1.707472 21.343403 20 25 32
-6.585972 1.710642 21.383026 44 15 43
-6.551537 1.712820 21.410252 42 30 32
-6.516902 1.714974 21.437178 22 32 28
-6.486046 1.718158 21.476974 32 38 21
-6.451637 1.720437 21.505457 44 35 43
-6.421649 1.723933 21.549158 24 28 27
-6.388371 1.726587 21.582335 42 35 30
-6.355331 1.729342 21.616772 19 16 24
-6.325627 1.733049 21.663107 24 23 36
-6.291504 1.735587 21.694841 25 23 17
-6.262192 1.739498 21.743723 29 19 40
-6.229857 1.742617 21.782717 15 31 32
-6.196992 1.745631 21.820393 17 30 31
-6.166326 1.749312 21.866404 21 33 31
-6.130422 1.751549 21.894365 35 37 17
-6.097930 1.754800 21.935001 15 19 35
-6.062652 1.757290 21.966129 41 22 30
-6.026408 1.759535 21.994190 41 34 41
-5.991792 1.762292 22.028648 25 42 40
-5.953175 1.763904 22.048798 23 19 44
-5.916536 1.766130 22.076628 38 41 34
-5.877715 1.767734 22.096672 26 31 27
-5.838153 1.769137 22.114218 27 28 22
-5.799941 1.770974 22.137180 40 29 22
-5.759323 1.772099 22.151243 21 17 28
-5.719935 1.773623 22.170292 41 25 23
-5.678771 1.774616 22.182697 32 26 21
-5.637507 1.775593 22.194910 37 33 17
-5.597759 1.777066 22.213327 29 17 15
-5.556646 1.778127 22.226583 30 35 40
-5.518073 1.780023 22.250294 30 35 40
-5.478786 1.781719 22.271486 30 35 40
-5.439576 1.783468 22.293344 28 18 37
-5.401162 1.785508 22.318851 21 31 26
-5.360234 1.786745 22.334309 43 36 29
-5.320623 1.788445 22.355560 30 27 29
-5.279039 1.789505 22.368811 41 39 28
-5.237701 1.790667 22.383337 27 26 27
-5.198818 1.792696 22.408697 30 18 39
-5.158768 1.794354 22.429428 24 32 38
-5.120246 1.796578 22.457220 28 36 33
-5.078998 1.797876 22.473444 17 35 21
-5.038292 1.799390 22.492374 36 18 15
-4.999242 1.801529 22.519110 26 29 33
-4.958353 1.803038 22.537970 31 42 30
-4.928193 1.808511 22.606392 42 24 34
-4.899073 1.814471 22.680893 120 120 120
-4.875263 1.822528 22.781601 120 120 120
-4.858699 1.833471 22.918390 120 120 120
-4.834927 1.841877 23.023460 38 22 17
-4.817134 1.852744 23.159298 25 44 38
-4.788612 1.859655 23.245687 33 17 15
-4.758225 1.865971 23.324635 30 27 34
-4.735297 1.875365 23.442062 41 30 27
-4.704769 1.881908 23.523844 18 36 36
-4.680509 1.891115 23.638935 26 35 23
-4.649985 1.897953 23.724411 16 31 35
-4.617291 1.904038 23.800470 21 19 15
-4.587457 1.911441 23.893007 41 15 23
-4.549704 1.915665 23.945810 41 40 15
-4.516907 1.922088 24.026102 35 29 17
-4.480888 1.927264 24.090796 15 43 37
-4.443590 1.931996 24.149946 38 22 41
-4.407777 1.937485 24.218557 39 34 40
-4.366138 1.940506 24.256321 42 38 40
-4.328904 1.945575 24.319683 32 20 21
-4.289386 1.949721 24.371513 17 39 19
-4.250238 1.954132 24.426655 40 35 19
-4.214100 1.960046 24.500580 21 24 29
-4.173776 1.964130 24.551626 23 29 39
-4.137710 1.970338 24.629229 15 18 27
-4.098417 1.975141 24.689257 19 22 41
-4.058773 1.979889 24.748615 32 20 21
-4.021912 1.986129 24.826618 40 37 19
-3.980493 1.990246 24.878080 32 29 20
-3.941228 1.995558 24.944481 34 43 25
-3.898399 1.999179 24.989735 35 22 39
-3.853984 2.002070 25.025871 15 32 33
-3.810779 2.005673 25.070913 21 40 44
-3.764301 2.007627 25.095337 43 27 39
-3.719288 2.010426 25.130325 18 36 30
-3.672550 2.012356 25.154449 18 22 43
-3.625784 2.014324 25.179056 42 33 43
-7.283994 1.706536 20.811411 33 23 30
-7.242575 1.706584 20.811996 28 32 26
-7.202286 1.706900 20.815857 38 18 16
-7.162564 1.707355 20.821407 34 30 38
-7.122211 1.707665 20.825178 20 41 42
-7.080927 1.707753 20.826256 31 40 44
-7.043829 1.708858 20.839731 37 27 17
-7.007962 1.710276 20.857029 43 41 36
-6.974274 1.712247 20.881060 41 19 44
-6.942548 1.714726 20.911289 43 27 24
-6.908058 1.716548 20.933508 33 38 16
-6.877329 1.719332 20.967466 19 44 27
-6.843387 1.721343 20.991985 16 21 36
-6.810304 1.723595 21.019457 41 15 25
-6.781250 1.726902 21.059784 44 37 25
-6.748774 1.729373 21.089918 23 37 38
-6.721958 1.733335 21.138231 31 24 18
-6.692317 1.736614 21.178217 25 30 33
-6.662324 1.739843 21.217592 44 17 28
-6.634456 1.743671 21.264282 24 26 26
-6.600578 1.745959 21.292187 26 31 17
-6.570105 1.749184 21.331511 19 39 29
-6.535789 1.751421 21.358788 34 31 23
-6.501240 1.753624 21.385658 38 35 37
-6.470322 1.756842 21.424908 28 19 24
-6.435820 1.759124 21.452732 37 15 22
-6.405655 1.762630 21.495487 36 27 31
-6.372254 1.765286 21.527884 31 19 29
-6.339145 1.768061 21.561716 29 19 20
-6.309424 1.771825 21.607616 41 19 18
-6.275402 1.774424 21.639318 31 27 28
-6.246189 1.778429 21.688156 19 20 17
-6.213941 1.781619 21.727066 43 16 34
-6.181167 1.784703 21.764673 42 22 27
-6.150610 1.788475 21.810675 21 21 34
-6.114829 1.790771 21.838675 16 40 19
-6.082306 1.794061 21.878798 43 21 39
-6.046932 1.796552 21.909174 30 24 25
-6.010524 1.798770 21.936218 31 17 43
-5.975699 1.801497 21.969481 30 20 28
-5.936978 1.803082 21.988808 31 38 27
-5.900151 1.805270 22.015488 43 43 21
