ply
format ascii 1.0
element vertex 1247
property float x
property float y
property float z
property uchar red
property uchar green
property uchar blue
end_header
-10.209531 4.041273 35.449760 22 19 43
-10.145159 4.043875 35.472584 18 44 15
-10.079504 4.045998 35.491211 39 33 31
-10.017710 4.049713 35.523796 24 35 20
-9.953344 4.052433 35.547657 20 34 42
-9.893900 4.057211 35.589569 42 44 17
-9.833863 4.061813 35.629940 33 30 32
-9.772448 4.065909 35.665867 20 27 29
-9.709532 4.069436 35.696808 40 23 39
-9.640777 4.070550 35.706581 39 41 31
-9.573215 4.072188 35.720951 36 38 42
-9.504819 4.073494 35.732403 31 39 15
-9.435726 4.074518 35.741386 31 44 26
-9.367366 4.075877 35.753304 39 22 21
-9.297645 4.076660 35.760174 30 30 39
-9.227569 4.077298 35.765770 34 42 40
-9.155450 4.077036 35.763477 15 19 23
-9.084064 4.077099 35.764030 43 43 15
-9.015605 4.078488 35.776211 24 23 33
-8.947839 4.080214 35.791355 22 26 34
-8.883227 4.083419 35.819462 25 37 15
-8.818301 4.086530 35.846752 32 40 33
-8.752982 4.089508 35.872875 26 19 24
-8.687748 4.092575 35.899784 22 42 36
-8.619229 4.094134 35.913452 35 32 22
-8.547785 4.094317 35.915062 35 23 30
-8.474522 4.093625 35.908993 33 28 32
-8.397110 4.090900 35.885086 42 25 20
-8.315415 4.086023 35.842308 30 35 40
-8.233969 4.081185 35.799866 30 35 40
-8.150850 4.075425 35.749340 30 35 40
-8.072032 4.071733 35.716957 30 35 40
-7.995448 4.069112 35.693962 30 35 40
-7.917064 4.065519 35.662449 31 44 17
-7.841623 4.063387 35.643742 25 18 36
-7.773993 4.065299 35.660519 28 35 44
-7.710472 4.069416 35.696629 120 120 120
-7.653492 4.077094 35.763981 120 120 120
-7.601236 4.087457 35.854889 120 120 120
-7.545250 4.095993 35.929760 37 44 34
-7.498854 4.109949 36.052185 40 24 18
-7.446011 4.120608 36.145683 31 35 44
-7.395899 4.133002 36.254406 15 21 21
-7.356229 4.151535 36.416977 42 40 39
-7.308522 4.165858 36.542610 39 27 25
-7.266435 4.183705 36.699165 35 34 15
-7.211332 4.194346 36.792511 32 18 27
-7.154088 4.203949 36.876743 23 42 38
-7.105691 4.219004 37.008808 16 29 41
-7.049661 4.229796 37.103477 15 23 32
-7.001973 4.245877 37.244537 39 28 22
-6.947264 4.258001 37.350883 19 17 25
-6.891988 4.270036 37.456459 16 35 41
-6.841683 4.285450 37.591663 15 20 34
-6.782047 4.295297 37.678040 32 27 31
-6.734046 4.312816 37.831718 29 36 35
-6.682284 4.328297 37.967522 33 19 29
-6.631005 4.344452 38.109226 31 36 44
-6.584481 4.364133 38.281868 38 30 44
-6.526517 4.376606 38.391277 23 21 38
-6.475449 4.394055 38.544338 33 31 24
-6.416886 4.406777 38.655937 36 30 37
-6.355978 4.418180 38.755966 40 39 21
-6.299949 4.433298 38.888577 36 21 36
-6.235547 4.442828 38.972172 42 23 26
-6.173059 4.453979 39.069992 44 17 16
-6.103918 4.460556 39.127682 20 15 40
-6.031838 4.465127 39.167782 26 41 21
-5.961739 4.471304 39.221966 40 22 28
-5.887539 4.474530 39.250259 20 25 17
-5.817980 4.481417 39.310673 41 43 32
-5.748165 4.488293 39.370991 22 19 29
-5.678563 4.495529 39.434467 17 43 26
-5.609842 4.503676 39.505932 29 28 43
-5.536746 4.508493 39.548183 15 39 15
-5.465639 4.515093 39.606079 28 17 15
-5.391520 4.519362 39.643528 32 21 22
-5.317350 4.523716 39.681717 24 20 22
-5.246194 4.530804 39.743896 22 43 23
-5.172932 4.536263 39.791782 41 27 30
-5.101885 4.543866 39.858475 44 21 18
-5.027964 4.549111 39.904480 25 17 42
-4.953766 4.554268 39.949722 37 22 21
-4.882388 4.562231 40.019573 15 28 39
-4.808618 4.568187 40.071815 34 15 15
-4.733317 4.572865 40.112854 43 20 36
-4.654188 4.573943 40.122311 28 21 25
-4.572424 4.572424 40.108986 18 15 27
-4.490422 4.570608 40.093052 18 15 44
-11.997642 3.909344 33.701241 20 26 27
-11.926430 3.908096 33.690479 29 16 16
-11.846498 3.903960 33.654823 34 41 35
-11.765582 3.899450 33.615948 30 28 25
-11.683450 3.894483 33.573132 22 43 30
-11.604302 3.890460 33.538445 42 22 32
-11.534330 3.889483 33.530029 30 31 28
-11.476708 3.892684 33.557625 44 25 39
-11.426813 3.898560 33.608273 19 22 17
-11.380428 3.905709 33.669907 39 44 17
-11.324169 3.909535 33.702885 20 18 42
-11.268512 3.913615 33.738060 26 41 30
-11.219784 3.920165 33.794529 15 22 39
-11.166514 3.925199 33.837921 15 33 42
-11.125718 3.934705 33.919872 25 26 39
-11.082432 3.943442 33.995190 38 36 28
-11.040578 3.952800 34.075859 36 30 25
-11.002812 3.963746 34.170223 20 40 41
-10.953170 3.970524 34.228657 38 30 18
-10.912342 3.980603 34.315540 22 43 37
-10.864245 3.988141 34.380524 26 22 27
-10.815663 3.995595 34.444786 35 26 36
-10.773937 4.005694 34.531849 29 32 21
-10.723015 4.012483 34.590370 17 21 21
-10.680728 4.022612 34.677689 30 28 41
-10.631834 4.030369 34.744556 15 44 35
-10.581901 4.037831 34.808884 15 19 16
-10.537205 4.047403 34.891407 34 31 18
-10.483123 4.053474 34.943745 20 18 19
-10.434989 4.061942 35.016743 41 31 43
-10.380742 4.068129 35.070076 43 36 30
-10.324451 4.073593 35.117180 17 16 30
-10.272020 4.080665 35.178150 38 26 24
-10.212463 4.084985 35.215389 15 44 22
-10.154767 4.090115 35.259609 26 23 16
-10.091218 4.092941 35.283978 21 16 43
-10.026419 4.095298 35.304291 20 39 20
-9.965586 4.099319 35.338959 36 42 16
-9.901963 4.102242 35.364155 18 23 28
-9.843187 4.107229 35.407146 27 36 23
-9.783781 4.112024 35.448483 41 38 27
-9.722531 4.116108 35.483688 26 36 39
-9.658883 4.119230 35.510601 15 30 19
-9.589120 4.119770 35.515259 15 20 34
-9.521384 4.121196 35.527554 25 25 21
-9.454078 4.122831 35.541645 42 39 19
-9.386538 4.124388 35.555069 37 35 15
-9.319342 4.126121 35.570007 40 31 28
-9.250329 4.127070 35.578190 20 37 44
-9.181175 4.127970 35.585949 25 37 16
-9.109882 4.127915 35.585476 31 32 29
-9.039300 4.128184 35.587795 32 31 27
-8.971735 4.129846 35.602123 22 38 24
-8.904645 4.131755 35.618580 40 44 25
-8.840979 4.135297 35.649109 25 28 42
-8.776901 4.138701 35.678459 20 40 32
-8.712509 4.142013 35.707005 39 17 21
-8.648392 4.145510 35.737156 27 22 22
-8.580759 4.147367 35.753162 40 15 37
-8.510559 4.148004 35.758652 21 30 32
-8.438304 4.147641 35.755527 26 43 20
-8.362027 4.145278 35.735157 38 22 20
-8.281928 4.140964 35.697964 30 35 40
-8.201803 4.136562 35.660015 30 35 40
-8.120152 4.131305 35.614700 30 35 40
-8.042362 4.127938 35.585670 30 35 40
-7.966532 4.125526 35.564877 30 35 40
-7.888978 4.122169 35.535938 20 39 17
-7.814041 4.120131 35.518368 39 41 42
-7.746679 4.122086 35.535225 34 21 28
-7.683256 4.126193 35.570629 120 120 120
-7.626098 4.133773 35.635971 120 120 120
-7.573489 4.143985 35.724007 120 120 120
-7.517235 4.152377 35.796356 31 33 34
-7.470109 4.166022 35.913986 41 43 39
-7.416712 4.176401 36.003456 15 27 29
-7.365861 4.188431 36.107162 40 28 18
-7.325025 4.206450 36.262501 24 29 36
-7.276508 4.220374 36.382538 31 27 15
-7.233237 4.237654 36.531502 29 20 30
-7.177516 4.247918 36.619980 20 33 44
-7.119640 4.257105 36.699177 28 37 20
-7.070052 4.271490 36.823189 21 31 39
-7.013226 4.281759 36.911716 36 17 40
-6.964270 4.297103 37.043991 22 38 40
-6.908650 4.308620 37.143280 20 44 28
-6.852734 4.320202 37.243118 18 33 16
-6.801831 4.335233 37.372696 41 40 43
-6.742259 4.345011 37.456993 37 16 34
-6.694273 4.362560 37.608276 32 28 32
-6.642623 4.378092 37.742176 37 16 40
-6.591728 4.394485 37.883495 42 20 33
-6.545755 4.414579 38.056717 24 27 17
-6.488521 4.427461 38.167770 24 31 41
-6.438503 4.445633 38.324421 27 43 16
-6.380987 4.459003 38.439678 27 15 41
-6.321157 4.471062 38.543640 37 38 41
-6.266195 4.486905 38.680214 16 20 17
-6.202551 4.496849 38.765942 30 16 24
-6.140880 4.508494 38.866329 18 36 15
-6.072331 4.515323 38.925198 38 36 28
-6.000856 4.520125 38.966595 33 19 42
-5.931643 4.526780 39.023964 24 36 33
-5.858288 4.530410 39.055256 37 17 28
-5.789598 4.537793 39.118904 30 20 26
-5.720394 4.544970 39.180779 21 38 16
-5.651361 4.552485 39.245564 34 38 25
-5.583346 4.561043 39.319336 39 19 42
-5.510858 4.566140 39.363274 29 32 20
-5.440659 4.573308 39.425068 33 23 44
-5.367555 4.578209 39.467316 26 23 38
-5.294273 4.583102 39.509499 15 27 22
-5.223719 4.590541 39.573627 15 43 22
-5.150687 4.595997 39.620667 42 23 19
-5.079917 4.603674 39.686848 30 39 26
-5.006366 4.609035 39.733063 19 21 19
-4.932548 4.614319 39.778614 21 22 41
-4.861545 4.622453 39.848732 22 42 35
-4.788127 4.628522 39.901054 39 38 27
-4.713264 4.633378 39.942917 40 23 18
-4.634770 4.634770 39.954910 16 37 31
-4.553413 4.633298 39.942223 27 24 42
-4.471312 4.631002 39.922432 32 29 15
-11.919968 3.951001 33.483055 33 34 18
-11.850632 3.950211 33.476360 34 33 39
-11.773424 3.946773 33.447227 21 44 25
-11.695003 3.942887 33.414295 25 17 23
-11.616956 3.939083 33.382057 42 20 39
-11.542192 3.936354 33.358936 22 21 34
-11.475474 3.936354 33.358936 41 26 21
-11.419121 3.939931 33.389244 26 32 15
-11.368205 3.945436 33.435898 19 30 25
-11.319591 3.951810 33.489914 28 27 23
-11.261006 3.954758 33.514900 32 16 18
-11.203274 3.958043 33.542736 23 43 31
-11.153418 3.964166 33.594631 34 28 36
-11.100545 3.969286 33.638016 38 41 15
-11.060037 3.978916 33.719624 17 30 36
-11.017013 3.987753 33.794518 25 19 26
-10.975405 3.997215 33.874706 20 16 30
-10.937657 4.008210 33.967880 33 24 28
-10.888051 4.014969 34.025158 15 37 34
-10.846978 4.024979 34.109993 39 43 42
-10.798834 4.032476 34.173527 22 19 19
-10.749989 4.039805 34.235634 34 36 35
-10.707573 4.049659 34.319145 40 41 33
-10.656157 4.056214 34.374699 22 38 26
-10.612737 4.065919 34.456940 18 40 30
-10.562881 4.073268 34.519218 17 40 30
-10.512100 4.080355 34.579277 39 30 24
-10.466509 4.089563 34.657314 23 30 23
-10.412224 4.095475 34.707413 22 24 34
-10.363983 4.103859 34.778465 43 29 32
-10.309993 4.110065 34.831059 28 31 31
-10.254277 4.115662 34.878494 27 20 43
-10.202441 4.122904 34.939865 40 20 20
-10.143564 4.127381 34.977806 32 43 39
-10.086818 4.132794 35.023674 39 17 37
-10.024185 4.135853 35.049599 21 25 40
-9.960390 4.138472 35.071796 40 29 24
-9.900838 4.142904 35.109356 24 22 28
-9.838337 4.146156 35.136917 22 35 24
-9.779858 4.151163 35.179344 27 22 24
-9.719826 4.155578 35.216763 30 23 34
-9.657758 4.159180 35.247292 30 19 30
-9.593813 4.162022 35.271370 35 37 36
-9.524381 4.162507 35.275486 36 26 43
-9.457476 4.164113 35.289089 33 38 31
-9.391282 4.166058 35.305573 43 25 42
-9.325101 4.168038 35.322353 44 16 16
-9.259245 4.170194 35.340630 33 17 16
-9.191213 4.171397 35.350819 22 36 23
-9.123328 4.172685 35.361736 20 25 26
-9.053148 4.172936 35.363861 29 30 43
-8.983642 4.173503 35.368668 32 25 15
-8.917210 4.175519 35.385754 32 16 31
-8.850925 4.177637 35.403702 26 24 22
-8.788347 4.181552 35.436882 22 35 29
-8.725251 4.185283 35.468498 19 30 22
-8.661886 4.188945 35.499531 43 39 29
-8.598977 4.192890 35.532963 21 28 37
-8.532298 4.195047 35.551243 26 36 39
-8.463475 4.196176 35.560818 29 42 16
-8.392374 4.196187 35.560905 16 34 30
-8.317428 4.194258 35.544563 30 35 40
-8.239172 4.190613 35.513672 30 35 40
-8.160573 4.186729 35.480751 30 35 40
-8.080704 4.182119 35.441685 30 35 40
-8.004204 4.179186 35.416832 30 35 40
-7.929407 4.177098 35.399139 30 35 40
-7.853015 4.174125 35.373943 30 35 40
-7.778812 4.172272 35.358238 33 35 41
-7.711945 4.174355 35.375893 42 43 43
-7.648763 4.178491 35.410942 120 120 120
-7.591507 4.185971 35.474331 120 120 120
-7.538651 4.196041 35.559673 120 120 120
-7.482186 4.204276 35.629456 24 41 43
-7.434337 4.217557 35.742004 35 26 37
-7.380370 4.227590 35.827038 42 37 21
-7.328725 4.239164 35.925121 26 18 40
-7.286612 4.256535 36.072334 40 21 24
-7.237195 4.269945 36.185974 35 38 18
-7.192701 4.286559 36.326771 43 28 26
-7.136431 4.296423 36.410362 26 38 43
-7.078046 4.305203 36.484772 20 38 27
-7.027362 4.318900 36.600845 28 44 28
-6.969820 4.328625 36.683266 25 32 27
-6.919643 4.343180 36.806614 38 42 38
-6.863135 4.354032 36.898575 21 42 41
-6.806572 4.365084 36.992241 43 42 22
-6.755064 4.379657 37.115734 38 39 38
-6.695577 4.389323 37.197651 24 26 27
-6.647478 4.406755 37.345383 32 16 37
-6.595786 4.422175 37.476059 41 37 34
-6.545045 4.438594 37.615204 43 44 35
-6.499329 4.458842 37.786797 18 18 41
-6.442635 4.471946 37.897850 42 17 36
-6.393425 4.490620 38.056103 31 21 22
-6.336857 4.504513 38.173840 29 31 30
-6.278062 4.517142 38.280865 38 34 24
-6.224075 4.533585 38.420216 29 38 16
-6.161175 4.543867 38.507343 35 18 27
-6.100305 4.555924 38.609528 16 44 24
-6.032412 4.562978 38.669308 29 33 22
-5.961627 4.568000 38.711861 23 30 37
-5.893333 4.575087 38.771927 26 18 31
-5.820875 4.579089 38.805836 29 39 22
-5.753040 4.586884 38.871895 26 20 37
-5.684457 4.594287 38.934639 24 22 19
-5.615941 4.601951 38.999588 39 30 25
-5.548447 4.610681 39.073570 33 19 42
-5.476429 4.615847 39.117348 16 41 19
-5.406935 4.623321 39.180687 18 15 23
-5.334754 4.628684 39.226131 28 21 23
-5.262324 4.633987 39.271072 17 36 18
-5.192309 4.641609 39.335670 38 34 20
-5.119549 4.646975 39.381145 42 23 27
-5.049098 4.654637 39.446079 21 21 43
-4.975978 4.660043 39.491886 32 39 41
-4.902676 4.665450 39.537708 23 29 23
-4.832209 4.673776 39.608273 17 39 29
-4.759349 4.680027 39.661243 33 42 27
-4.685276 4.685276 39.705730 16 38 38
-4.607814 4.687259 39.722534 24 31 35
-4.527243 4.686094 39.712662 38 18 39
-4.445299 4.683441 39.690174 20 19 26
-11.869901 4.001090 33.342419 42 23 22
-11.801696 4.000575 33.338123 38 19 26
-11.726694 3.997737 33.314472 25 30 39
-11.650572 3.994482 33.287350 20 28 34
-11.575609 3.991589 33.263245 43 34 34
-11.504017 3.989832 33.248604 43 30 15
-11.438932 3.990325 33.252708 18 25 25
-11.381359 3.993459 33.278828 35 40 40
-11.327301 3.997871 33.315590 31 31 24
-11.276258 4.003405 33.361710 36 21 24
-11.217661 4.006307 33.385895 42 39 41
-11.160596 4.009795 33.414959 44 36 42
-11.110547 4.015860 33.465504 15 43 25
-11.057402 4.020873 33.507278 16 44 35
-11.016630 4.030475 33.587288 32 20 35
-10.973646 4.039379 33.661491 17 19 35
-10.932223 4.048971 33.741428 21 20 19
-10.894603 4.060101 33.834171 28 20 24
-10.845232 4.066962 33.891350 22 43 30
-10.804337 4.077108 33.975903 26 44 30
-10.756431 4.084720 34.039337 18 41 20
-10.707709 4.092118 34.100983 16 38 24
-10.665209 4.102003 34.183361 15 24 22
-10.613698 4.108528 34.237736 27 42 29
-10.569748 4.118084 34.317364 23 21 35
-10.519349 4.125235 34.376957 41 39 33
-10.467993 4.132103 34.434189 29 40 41
-10.421826 4.141123 34.509357 16 25 17
-10.367380 4.146952 34.557934 30 20 41
-10.319058 4.155325 34.627712 27 29 40
-10.265241 4.161584 34.679867 28 33 32
-10.209908 4.167309 34.727577 40 16 39
-10.158453 4.174707 34.789223 16 40 40
-10.099988 4.179305 34.827545 19 27 30
-10.043829 4.184929 34.874405 18 28 42
-9.981795 4.188166 34.901382 39 19 30
-9.918668 4.190987 34.924889 27 24 28
-9.860081 4.195779 34.964825 16 39 30
-9.798478 4.199348 34.994564 30 34 15
-9.739863 4.204257 35.035477 28 28 30
-9.678463 4.208027 35.066895 21 24 40
-9.615154 4.211017 35.091805 24 39 31
-9.551354 4.213833 35.115273 32 25 19
-9.483136 4.214727 35.122726 21 36 44
-9.417529 4.216804 35.140034 20 32 27
-9.352086 4.218986 35.158218 34 31 42
-9.286618 4.221190 35.176582 15 17 24
-9.221624 4.223644 35.197037 36 42 26
-9.154276 4.225051 35.208755 32 30 16
-9.087273 4.226639 35.221989 20 27 24
-9.017894 4.227138 35.226147 42 31 35
-8.949118 4.227930 35.232750 25 30 34
-8.883436 4.230208 35.251732 28 26 19
-8.817642 4.232468 35.270569 23 42 21
-8.755716 4.236637 35.305305 22 32 22
-8.693210 4.240590 35.338253 44 37 34
-8.630457 4.244487 35.370724 36 15 34
-8.568233 4.248711 35.405922 33 23 36
-8.502085 4.251042 35.425354 22 19 41
-8.434017 4.252446 35.437046 28 19 15
-8.363531 4.252643 35.438690 40 24 23
-8.289368 4.250958 35.424648 38 29 39
-8.212258 4.247720 35.397663 30 35 40
-8.134678 4.244180 35.368164 30 35 40
-8.056068 4.240036 35.333633 30 35 40
-7.980508 4.237438 35.311981 30 35 40
-7.906532 4.235642 35.297020 30 35 40
-7.831108 4.233031 35.275261 31 17 22
-7.757544 4.231387 35.261562 19 29 42
-7.691233 4.233706 35.280884 43 31 15
-7.628382 4.237990 35.316586 120 120 120
-7.571217 4.245542 35.379520 120 120 120
-7.518390 4.255692 35.464104 120 120 120
-7.461905 4.263945 35.532879 38 19 31
-7.413695 4.277132 35.642765 38 41 22
-7.359394 4.287025 35.725212 43 18 37
-7.307236 4.298374 35.819782 19 41 39
-7.264317 4.315436 35.961967 31 38 18
-7.214328 4.328597 36.071640 26 44 18
-7.169085 4.344900 36.207500 41 20 42
-7.112504 4.354595 36.288288 21 25 41
-7.053849 4.363206 36.360046 28 31 30
-7.002553 4.376596 36.471630 19 15 29
-6.944617 4.386074 36.550617 31 20 17
-6.893742 4.400261 36.668839 42 41 17
-6.836734 4.410796 36.756634 24 36 44
-6.779772 4.421590 36.846584 22 28 44
-6.727878 4.435963 36.966362 39 16 29
-6.668385 4.445590 37.046585 41 27 24
-6.620045 4.462952 37.191265 34 17 22
-6.568124 4.478266 37.318886 18 32 32
-6.517203 4.494623 37.455189 42 17 26
-6.471294 4.514856 37.623802 28 41 15
-6.414664 4.527998 37.733318 41 29 31
-6.365611 4.546865 37.890541 19 42 26
-6.309383 4.561000 38.008331 43 17 37
-6.251030 4.573925 38.116039 35 41 19
-6.197424 4.590684 38.255703 29 42 43
-6.134887 4.601165 38.343044 40 42 39
-6.074434 4.613494 38.445786 32 35 32
-6.006931 4.620716 38.505970 29 19 21
-5.936588 4.625913 38.549274 18 24 22
-5.868881 4.633327 38.611057 24 27 30
-5.796988 4.637590 38.646587 19 29 36
-5.729662 4.645672 38.713932 34 23 38
-5.661439 4.653238 38.776981 34 20 27
-5.593171 4.660976 38.841465 17 42 24
-5.525835 4.669720 38.914333 43 34 35
-5.453943 4.674808 38.956734 26 28 42
-5.384671 4.682323 39.019356 16 39 39
-5.312918 4.687868 39.065571 38 42 35
-5.240912 4.693354 39.111286 22 16 43
-5.171110 4.701010 39.175079 42 16 18
-5.098477 4.706287 39.219055 24 19 21
-5.028187 4.713925 39.282711 24 19 15
-4.955395 4.719424 39.328529 22 38 17
-4.882413 4.724916 39.374302 28 21 18
-4.812074 4.733188 39.443230 41 21 24
-4.739299 4.739299 39.494160 22 33 20
-4.665687 4.744767 39.539722 24 22 16
-4.589131 4.747376 39.561470 26 28 39
-4.509397 4.746734 39.556114 19 41 20
-4.427772 4.744042 39.533680 23 41 19
-11.796498 4.042620 33.136230 33 34 40
-11.729947 4.042524 33.135445 18 38 24
-11.658899 4.040868 33.121872 26 44 16
-11.586981 4.038890 33.105659 24 35 23
-11.516293 4.037321 33.092796 44 25 44
-11.447642 4.036452 33.085670 37 17 20
-11.383408 4.037139 33.091301 32 17 31
-11.324229 4.039637 33.111782 29 25 42
-11.266889 4.042825 33.137909 36 30 34
-11.213252 4.047387 33.175301 23 19 19
-11.154563 4.050169 33.198105 19 39 16
-11.098139 4.053811 33.227962 15 38 23
-11.047826 4.059743 33.276585 20 39 43
-10.994413 4.064601 33.316402 41 26 15
-10.953424 4.074139 33.394585 16 27 43
-10.910574 4.083098 33.468018 43 40 22
-10.869478 4.092828 33.547771 15 37 40
-10.832188 4.104121 33.640335 26 23 22
-10.783252 4.111115 33.697662 30 31 38
-10.742672 4.121402 33.781986 33 34 25
-10.695088 4.129116 33.845215 43 21 24
-10.646464 4.136524 33.905937 38 32 30
-10.603762 4.146343 33.986416 42 27 41
-10.552024 4.152732 34.038788 29 22 33
-10.507243 4.161960 34.114426 33 30 42
-10.456002 4.168733 34.169941 39 17 30
-10.403817 4.175216 34.223083 15 17 22
-10.356812 4.183878 34.294079 42 27 38
-10.302153 4.189542 34.340511 42 41 34
-10.253801 4.197865 34.408730 31 25 26
-10.200332 4.204191 34.460583 20 31 37
-10.145705 4.210123 34.509201 26 19 36
-10.094963 4.217759 34.571793 22 20 26
-10.037242 4.222564 34.611179 44 19 37
-9.982163 4.228555 34.660290 39 32 20
-9.921329 4.232175 34.689960 27 18 40
-9.859250 4.235311 34.715668 24 34 17
-9.801474 4.240354 34.757000 21 19 37
-9.740270 4.243975 34.786678 18 33 43
-9.681413 4.248678 34.825226 19 30 23
-9.619143 4.251940 34.851967 42 19 33
-9.555252 4.254528 34.873184 35 20 35
-9.492016 4.257448 34.897118 15 40 26
-9.425196 4.258792 34.908134 42 25 35
-9.361186 4.261435 34.929798 26 17 29
-9.296830 4.263960 34.950489 29 32 43
-9.232419 4.266497 34.971283 36 21 37
-9.168731 4.269409 34.995155 17 36 42
-9.102383 4.271118 35.009167 41 19 19
-9.036789 4.273210 35.026314 37 34 33
-8.968668 4.274131 35.033859 42 15 15
-8.901116 4.275339 35.043762 30 35 40
-8.836692 4.278081 35.066238 29 35 27
-8.771718 4.280598 35.086872 27 25 26
-8.710894 4.285198 35.124573 37 30 31
-8.649363 4.289521 35.160011 23 28 36
-8.587559 4.293780 35.194916 32 31 18
-8.526398 4.298432 35.233051 18 39 25
-8.461018 4.301018 35.254242 42 43 24
-8.393999 4.302806 35.268902 42 31 23
-8.324303 4.303241 35.272469 24 42 36
-8.251138 4.301875 35.261272 17 42 29
-8.175618 4.299248 35.239735 30 35 40
-8.099480 4.296246 35.215130 30 35 40
-8.022654 4.292824 35.187080 30 35 40
-7.948383 4.290720 35.169834 30 35 40
-7.875578 4.289377 35.158829 30 35 40
-7.801585 4.287357 35.142273 23 29 20
-7.729010 4.286087 35.131863 20 20 39
-7.663654 4.288834 35.154377 34 17 28
-7.601415 4.293392 35.191738 120 120 120
-7.544544 4.301095 35.254879 120 120 120
-7.491955 4.311408 35.339409 120 120 120
-7.435543 4.319697 35.407349 16 25 25
-7.386894 4.332697 35.513912 23 25 30
-7.332131 4.342330 35.592869 27 28 26
-7.279182 4.353236 35.682266 40 28 25
-7.235014 4.369662 35.816902 27 15 22
-7.184068 4.382282 35.920341 29 37 21
-7.137626 4.397931 36.048618 20 41 28
-7.080533 4.407270 36.125168 21 38 38
-7.021459 4.415557 36.193089 33 43 17
-6.969261 4.428385 36.298237 25 33 20
-6.910750 4.437429 36.372368 42 24 26
-6.858911 4.450996 36.483570 43 15 17
-6.801266 4.461045 36.565945 28 34 24
-6.743770 4.471413 36.650925 25 30 30
-6.691229 4.485329 36.764996 25 22 39
-6.631589 4.494743 36.842159 23 28 29
-6.582575 4.511653 36.980759 42 43 33
-6.530065 4.526522 37.102642 32 36 34
-6.478503 4.542399 37.232777 30 32 36
-6.431735 4.562045 37.393810 28 21 42
-6.374735 4.574810 37.498440 36 27 26
-6.325157 4.593269 37.649742 19 29 19
-6.268797 4.607188 37.763840 29 44 31
-6.210529 4.620028 37.869080 42 37 21
-6.156919 4.636692 38.005672 28 19 40
-6.094656 4.647175 38.091599 38 17 19
-6.034535 4.659578 38.193260 19 24 16
-5.967425 4.666833 38.252728 43 27 34
-5.897713 4.672214 38.296837 20 24 44
-5.830925 4.680085 38.361351 44 43 44
-5.760040 4.684832 38.400265 38 17 39
-5.693781 4.693523 38.471497 39 38 33
-5.626418 4.701527 38.537109 15 21 24
-5.558839 4.709572 38.603050 22 34 19
-5.492076 4.718544 38.676590 28 33 30
-5.420549 4.723621 38.718208 34 28 26
-5.351789 4.731292 38.781082 30 40 43
-5.280789 4.737178 38.829330 19 21 34
-5.209422 4.742907 38.876286 36 25 31
-5.139891 4.750506 38.938572 27 41 16
-5.067324 4.755489 38.979416 27 42 24
-4.997080 4.762842 39.039688 22 34 37
-4.924569 4.768233 39.083878 38 42 30
-4.851891 4.773635 39.128155 30 22 28
-4.781676 4.781676 39.194065 34 37 17
-4.709087 4.787572 39.242390 16 18 29
-4.635892 4.793040 39.287216 36 39 36
-4.560154 4.796024 39.311668 23 15 33
-4.481215 4.795686 39.308903 33 18 32
-4.399962 4.792816 39.285378 41 34 39
-11.742065 4.089933 32.983330 22 20 33
-11.676874 4.090204 32.985519 35 23 42
-11.609701 4.089781 32.982105 35 27 37
-11.542048 4.089183 32.977280 39 23 41
-11.474689 4.088682 32.973244 17 24 24
-11.406990 4.088054 32.968178 21 26 23
-11.342057 4.088416 32.971096 33 15 33
-11.281550 4.090387 32.986988 41 32 25
-11.222490 4.092908 33.007324 24 15 18
-11.167371 4.096905 33.039558 31 19 32
-11.108462 4.099551 33.060898 17 36 32
-11.052224 4.103221 33.090492 19 42 27
-11.001664 4.109055 33.137543 25 19 39
-10.948134 4.113844 33.176163 28 40 33
-10.907134 4.123429 33.253456 36 32 15
-10.864512 4.132514 33.326725 22 15 26
-10.823812 4.142446 33.406826 20 33 17
-10.786975 4.153991 33.499924 28 24 15
-10.738523 4.161178 33.557884 16 38 20
-10.698316 4.171670 33.642502 20 38 44
-10.651036 4.179521 33.705811 19 23 19
-10.602489 4.186970 33.765888 24 23 32
-10.559606 4.196766 33.844891 20 17 22
-10.507662 4.203065 33.895683 38 43 19
-10.462182 4.212047 33.968124 42 27 34
-10.410232 4.218525 34.020367 24 29 36
-10.357356 4.224711 34.070251 28 23 16
-10.309640 4.233097 34.137882 29 27 39
-10.254769 4.238638 34.182564 21 35 42
-10.206332 4.246930 34.249435 29 26 19
-10.153114 4.253331 34.301060 34 21 32
-10.099023 4.259452 34.350418 15 37 22
-10.048852 4.267321 34.413876 25 43 41
-9.991726 4.272324 34.454227 42 27 15
-9.937605 4.278691 34.505573 20 38 43
-9.877995 4.282767 34.538445 39 40 19
-9.816826 4.286220 34.566288 18 23 42
-9.759120 4.291244 34.606808 44 15 36
-9.697395 4.294561 34.633553 23 25 35
-9.638151 4.299032 34.669609 43 39 22
-9.575966 4.302246 34.695530 43 40 22
-9.512482 4.304919 34.717087 28 21 28
-9.449830 4.308011 34.742023 33 17 31
-9.383734 4.309567 34.754570 33 15 19
-9.320650 4.312540 34.778545 37 44 24
-9.257057 4.315320 34.800964 16 37 43
-9.193461 4.318141 34.823715 28 15 38
-9.130762 4.321429 34.850235 27 33 18
-9.065199 4.323403 34.866150 30 35 40
-9.000764 4.325948 34.886681 30 35 40
-8.933712 4.327267 34.897312 30 35 40
-8.867223 4.328881 34.910328 30 35 40
-8.803926 4.332091 34.936214 30 35 40
-8.739700 4.334891 34.958801 30 35 40
-8.679877 4.339939 34.999504 30 35 40
-8.619217 4.344646 35.037468 43 40 28
-8.558221 4.349260 35.074677 38 21 24
-8.497959 4.354326 35.115532 44 22 30
-8.433181 4.357144 35.138256 16 26 37
-8.366951 4.359252 35.155258 27 43 29
-8.297812 4.359867 35.160221 39 31 26
-8.225336 4.358725 35.151009 40 19 43
-8.150918 4.356525 35.133266 15 17 26
-8.075782 4.353900 35.112095 26 37 39
-8.000222 4.350998 35.088692 30 35 40
-7.926880 4.349262 35.074692 34 37 37
-7.854935 4.348267 35.066673 21 37 23
-7.782036 4.346723 35.054218 39 21 30
-7.710248 4.345776 35.046581 15 38 24
-7.645705 4.348933 35.072041 22 28 32
-7.584030 4.353795 35.111252 120 120 120
-7.527485 4.361720 35.175163 120 120 120
-7.475214 4.372295 35.260445 120 120 120
-7.418944 4.380710 35.328304 17 28 20
-7.370055 4.393687 35.432957 20 25 40
-7.314985 4.403195 35.509636 34 41 44
-7.261428 4.413809 35.595238 42 35 36
-7.216286 4.429799 35.724186 26 42 34
-7.164561 4.442028 35.822803 33 35 16
-7.117166 4.457215 35.945282 15 19 36
-7.059655 4.466313 36.018650 21 41 34
-7.000246 4.474384 36.083740 24 43 33
-6.947350 4.486830 36.184116 18 33 32
-6.888380 4.495574 36.254631 28 34 37
-6.835791 4.508713 36.360588 27 28 36
-6.777669 4.518446 36.439083 23 21 35
-6.719744 4.528523 36.520348 17 22 40
-6.666612 4.542087 36.629734 44 25 36
-6.606733 4.551305 36.704071 22 15 44
-6.556973 4.567779 36.836929 35 38 18
-6.503820 4.582237 36.953526 24 41 24
-6.451508 4.597626 37.077633 32 30 26
-6.403692 4.616615 37.230770 22 34 37
-6.346081 4.628906 37.329887 40 30 41
-6.295622 4.646769 37.473942 26 24 16
-6.238739 4.660263 37.582767 39 43 44
-6.180166 4.672809 37.683941 15 18 17
-6.126164 4.689163 37.815830 40 42 15
-6.063918 4.699536 37.899487 43 37 29
-6.003854 4.711886 37.999077 27 23 42
-5.936898 4.719073 38.057037 22 43 20
-5.867642 4.724595 38.101574 39 33 28
-5.801617 4.732898 38.168533 41 35 23
-5.731649 4.738163 38.210995 33 35 22
-5.666458 4.747573 38.286880 34 40 38
-5.599970 4.756139 38.355961 20 31 22
-5.533153 4.764659 38.424671 24 40 40
-5.467079 4.774069 38.500557 42 22 30
-5.395970 4.779287 38.542641 24 41 16
-5.327755 4.787258 38.606918 20 32 32
-5.257432 4.793541 38.657589 41 44 32
-5.186564 4.799507 38.705700 21 31 19
-5.117166 4.807035 38.766411 22 18 29
-5.044518 4.811694 38.803986 22 28 42
-4.974103 4.818662 38.860176 20 40 25
-4.901642 4.823838 38.901920 37 39 25
-4.829045 4.829045 38.943913 37 36 42
-4.758805 4.836818 39.006599 36 33 34
-4.686320 4.842531 39.052666 20 21 16
-4.613273 4.847846 39.095531 29 32 36
-4.537871 4.850828 39.119579 24 22 24
-4.459304 4.850471 39.116703 24 25 18
-4.378264 4.847363 39.091640 16 39 21
-11.689057 4.137138 32.834431 20 28 41
-11.624989 4.137708 32.838951 29 23 17
-11.561183 4.138378 32.844269 27 16 43
-11.497222 4.139000 32.849205 28 24 33
-11.432495 4.139352 32.851997 31 17 34
-11.365098 4.138735 32.847103 43 21 27
-11.299197 4.138660 32.846504 23 31 20
-11.237711 4.140209 32.858803 15 39 20
-11.177702 4.142325 32.875595 24 18 29
-11.121814 4.146001 32.904774 16 15 29
-11.062943 4.148604 32.925426 17 41 28
-11.006987 4.152336 32.955051 16 26 30
-10.956329 4.158125 33.000992 36 26 24
-10.902726 4.162859 33.038563 25 19 35
-10.861667 4.172470 33.114838 40 36 22
-10.819170 4.181642 33.187637 15 30 37
-10.778734 4.191730 33.267696 31 18 32
-10.742215 4.203475 33.360916 32 19 30
-10.694167 4.210828 33.419273 26 19 33
-10.654200 4.221475 33.503773 32 16 22
-10.607100 4.229413 33.566772 41 24 30
-10.558517 4.236857 33.625851 31 26 29
-10.515389 4.246600 33.703171 31 38 38
-10.463234 4.252798 33.752369 34 28 25
-10.417116 4.261547 33.821804 25 22 38
-10.364562 4.267761 33.871117 26 43 21
-10.311130 4.273692 33.918190 44 22 40
-10.262880 4.281864 33.983047 33 37 35
-10.207924 4.287328 34.026413 31 17 26
-10.159628 4.295682 34.092712 17 34 29
-10.106813 4.302224 34.144638 21 25 44
-10.053411 4.308605 34.195274 33 33 40
-10.003996 4.316793 34.260262 18 42 34
-9.947572 4.322048 34.301971 43 30 23
-9.894463 4.328828 34.355774 23 42 29
-9.836010 4.333347 34.391644 29 32 22
-9.775633 4.337076 34.421242 19 29 32
-9.717914 4.342047 34.460690 27 16 39
-9.655588 4.345014 34.484241 42 44 35
-9.596213 4.349363 34.518753 26 35 44
-9.534603 4.352753 34.545662 26 40 15
-9.472029 4.355751 34.569450 43 31 18
-9.410230 4.359151 34.596436 39 32 39
-9.344827 4.360919 34.610470 37 24 28
-9.282655 4.364233 34.636772 21 18 39
-9.219827 4.367286 34.661003 44 38 21
-9.157031 4.370401 34.685722 37 39 21
-9.095283 4.374067 34.714821 30 35 40
-9.030446 4.376293 34.732483 30 35 40
-8.967092 4.379278 34.756172 30 35 40
-8.901051 4.380986 34.769730 30 35 40
-8.835553 4.382991 34.785641 30 35 40
-8.773295 4.386648 34.814663 30 35 40
-8.709748 4.389713 34.838993 30 35 40
-8.650833 4.395182 34.882393 30 35 40
-8.590930 4.400233 34.922482 30 35 40
-8.530655 4.405174 34.961700 35 31 25
-8.471162 4.410605 35.004803 42 38 33
-8.406899 4.413622 35.028748 44 39 18
-8.341304 4.415985 35.047497 44 22 30
-8.272578 4.416715 35.053295 38 36 38
-8.200663 4.415741 35.045567 39 38 38
-8.127283 4.413955 35.031391 15 44 25
-8.053158 4.411730 35.013729 25 18 27
-7.978831 4.409354 34.994873 32 25 18
-7.906333 4.407956 34.983776 34 17 33
-7.835175 4.407286 34.978458 35 35 21
-7.763333 4.406216 34.969967 41 20 26
-7.692321 4.405602 34.965096 40 44 32
-7.628638 4.409213 34.993752 41 33 18
-7.567575 4.414419 35.035069 120 120 120
-7.511431 4.422618 35.100143 120 120 120
-7.459550 4.433506 35.186558 120 120 120
-7.403465 4.442079 35.254597 33 34 21
-7.354362 4.455046 35.357510 32 21 33
-7.298970 4.464418 35.431892 24 20 31
-7.244781 4.474717 35.513630 27 24 42
-7.198633 4.490237 35.636799 24 24 28
-7.146098 4.502042 35.730492 35 29 32
-7.097739 4.516743 35.847168 42 15 43
-7.039792 4.525580 35.917305 30 16 33
-6.980058 4.533440 35.979683 35 21 42
-6.926524 4.545531 36.075645 34 18 37
-6.867171 4.554019 36.143005 31 19 22
-6.813990 4.566823 36.244625 20 40 39
-6.755558 4.576346 36.320206 36 34 15
-6.697333 4.586217 36.398548 23 26 34
-6.643689 4.599477 36.503784 21 32 39
-6.583544 4.608481 36.575245 44 36 33
-6.532967 4.624460 36.702065 37 30 21
-6.479091 4.638440 36.813019 21 40 21
-6.425888 4.653230 36.930393 37 35 34
-6.376811 4.671385 37.074482 43 41 25
-6.318393 4.683044 37.167015 18 40 35
-6.266728 4.700046 37.301952 31 36 44
-6.209033 4.712881 37.403816 40 24 43
-6.149878 4.724906 37.499256 19 42 43
-6.095229 4.740734 37.624870 38 25 27
-6.032896 4.750905 37.705597 24 41 37
-5.972773 4.763097 37.802361 21 42 44
-5.905909 4.770157 37.858391 17 38 20
-5.837091 4.775802 37.903187 25 21 26
-5.771774 4.784497 37.972195 17 40 24
-5.702687 4.790257 38.017910 24 25 38
-5.638584 4.800416 38.098537 26 22 30
-5.573051 4.809619 38.171581 19 20 24
-5.507079 4.818694 38.243603 42 33 34
-5.441746 4.828592 38.322155 24 36 42
-5.371078 4.833970 38.364841 32 16 28
-5.303404 4.842238 38.430462 28 22 44
-5.233722 4.848889 38.483250 28 35 21
-5.163324 4.855066 38.532269 26 32 27
-5.094070 4.862521 38.591438 32 30 28
-5.021378 4.866874 38.625984 29 21 44
-4.950813 4.873457 38.678230 30 25 27
-4.878369 4.878369 38.717216 21 15 31
-4.805835 4.883349 38.756737 21 31 28
-4.735630 4.890897 38.816643 28 18 24
-4.663360 4.896528 38.861332 29 32 41
-4.590346 4.901556 38.901237 31 35 29
-4.514932 4.904150 38.921829 28 22 34
-4.436432 4.903425 38.916069 18 43 34
-4.355595 4.900045 38.889244 19 28 35
-11.620417 4.178127 32.641621 16 16 18
-11.557517 4.178989 32.648354 38 21 23
-11.496302 4.180474 32.659950 39 20 39
-11.434935 4.181919 32.671242 28 44 18
-11.372587 4.183021 32.679848 16 31 15
-11.306466 4.182739 32.677647 33 42 26
-11.240877 4.182652 32.676968 37 37 39
-11.179103 4.183992 32.687435 30 32 27
-11.118283 4.185707 32.700832 44 29 31
-11.061764 4.189070 32.727112 34 31 33
-11.003085 4.191651 32.747276 33 39 26
-10.947465 4.195436 32.776840 21 32 44
-10.896700 4.201137 32.821384 41 23 42
-10.842991 4.205766 32.857548 22 36 26
-10.801647 4.215277 32.931850 29 26 31
-10.759045 4.224410 33.003204 44 23 24
-10.718555 4.234491 33.081959 42 37 16
-10.682008 4.246264 33.173939 39 29 29
-10.634175 4.253670 33.231796 25 17 30
-10.594108 4.264295 33.314804 35 42 40
-10.546892 4.272159 33.376240 16 33 41
-10.498043 4.279457 33.433258 43 23 15
-10.454408 4.288988 33.507717 24 36 40
-10.401954 4.295000 33.554691 34 31 24
-10.355102 4.303419 33.620461 44 22 22
-10.301902 4.309292 33.666348 24 19 19
-10.247974 4.314937 33.710442 27 16 18
-10.199307 4.322885 33.772541 16 22 28
-10.144453 4.328300 33.814842 21 24 39
-10.096586 4.336789 33.881161 16 30 37
-10.044484 4.343561 33.934067 32 31 30
-9.992098 4.350301 33.986729 20 19 42
-9.943827 4.358938 34.054203 40 34 16
-9.888402 4.364536 34.097939 30 29 34
-9.836490 4.371773 34.154480 15 19 35
-9.779101 4.376661 34.192661 22 15 27
-9.719533 4.380635 34.223709 24 44 22
-9.662303 4.385726 34.263485 38 21 37
-9.600077 4.388606 34.285988 36 40 18
-9.541084 4.393017 34.320446 28 37 31
-9.480089 4.396563 34.348148 31 38 22
-9.418397 4.399835 34.373711 17 21 39
-9.357739 4.403642 34.403454 25 25 43
-9.293396 4.405758 34.419987 44 27 35
-9.232572 4.409586 34.449894 28 35 17
-9.170827 4.413029 34.476791 16 26 24
-9.109092 4.416529 34.504135 24 21 21
-9.048555 4.420668 34.536469 30 35 40
-8.984582 4.423179 34.556084 30 35 40
-8.922440 4.426637 34.583099 30 35 40
-8.857492 4.428746 34.599579 30 35 40
-8.793034 4.431135 34.618244 30 35 40
-8.731832 4.435216 34.650127 30 35 40
-8.668950 4.438502 34.675800 30 35 40
-8.610893 4.444332 34.721344 30 35 40
-8.551738 4.449685 34.763161 30 35 40
-8.492172 4.454910 34.803986 19 32 18
-8.433437 4.460661 34.848911 19 22 35
-8.369720 4.463851 34.873833 18 42 20
-8.304820 4.466458 34.894203 24 39 16
-8.236529 4.467270 34.900547 27 35 31
-8.165332 4.466506 34.894581 20 34 34
-8.093409 4.465329 34.885384 35 43 28
-8.020783 4.463740 34.872971 30 24 35
-7.948121 4.462103 34.860180 23 19 22
-7.876633 4.461102 34.852360 26 23 29
-7.806361 4.460778 34.849827 29 18 16
-7.735783 4.460271 34.845871 32 27 33
-7.665739 4.460066 34.844269 28 33 41
-7.603098 4.464204 34.876595 30 18 40
-7.542780 4.469795 34.920277 120 120 120
-7.487079 4.478253 34.986351 120 120 120
-7.435590 4.489413 35.073540 120 120 120
-7.379663 4.498081 35.141254 20 31 21
-7.330169 4.510873 35.241196 42 25 17
-7.274291 4.519948 35.312092 28 17 39
-7.219239 4.529719 35.388428 30 26 31
-7.171771 4.544488 35.503815 28 23 29
-7.118214 4.555657 35.591072 44 31 15
-7.068610 4.569606 35.700050 29 17 15
-7.010091 4.578019 35.765770 24 44 21
-6.949955 4.585537 35.824509 37 36 16
-6.895635 4.597090 35.914764 39 26 32
-6.835862 4.605212 35.978222 15 42 27
-6.782057 4.617571 36.074772 42 32 17
-6.723367 4.626833 36.147133 43 32 15
-6.664923 4.636468 36.222408 43 15 40
-6.610825 4.649372 36.323215 20 37 37
-6.550492 4.658127 36.391621 35 24 28
-6.499123 4.673526 36.511925 19 15 44
-6.444542 4.686939 36.616714 29 22 30
-6.390458 4.701026 36.726768 42 30 30
-6.340160 4.718259 36.861397 25 36 33
-6.281030 4.729246 36.947235 35 16 42
-6.228248 4.745332 37.072906 42 41 16
-6.169810 4.757444 37.167530 20 42 23
-6.110176 4.768918 37.257172 28 31 21
-6.055026 4.784218 37.376701 24 40 23
-5.992767 4.794213 37.454792 25 15 40
-5.932754 4.806282 37.549076 25 27 34
-5.866156 4.813256 37.603565 18 38 23
-5.797893 4.819028 37.648655 33 35 15
-5.733329 4.828067 37.719273 27 43 44
-5.665129 4.834244 37.767529 42 28 41
-5.602098 4.845058 37.852016 25 21 35
-5.537569 4.854855 37.928555 21 33 15
-5.472480 4.864427 38.003334 15 38 31
-5.407838 4.874671 38.083366 41 20 42
-5.337580 4.880073 38.125568 34 36 34
-5.270400 4.888487 38.191307 27 26 25
-5.201384 4.895420 38.245472 35 39 30
-5.131535 4.901765 38.295036 23 21 38
-5.062544 4.909133 38.352604 19 27 27
-4.989983 4.913214 38.384487 39 30 41
-4.919426 4.919426 38.433018 30 30 43
-4.847118 4.924056 38.469189 32 39 19
-4.774783 4.928808 38.506313 38 29 21
-4.704831 4.936216 38.564186 19 25 17
-4.633003 4.941870 38.608360 26 17 29
-4.560113 4.946563 38.645023 24 39 23
-4.484617 4.948543 38.660492 17 15 16
-4.406117 4.947219 38.650150 17 17 22
-4.325569 4.943507 38.621151 43 44 17
-11.576041 4.227206 32.516968 39 33 34
-11.513670 4.228184 32.524490 33 19 36
-11.453042 4.229817 32.537052 31 36 21
-11.392007 4.231317 32.548592 23 41 21
-11.330389 4.232617 32.558590 24 40 43
-11.265296 4.232626 32.558659 28 30 41
-11.200604 4.232786 32.559895 32 26 29
-11.139300 4.234237 32.571053 36 38 41
-11.078486 4.235892 32.583782 41 16 15
-11.022025 4.239241 32.609543 15 24 26
-10.963653 4.241890 32.629921 28 32 41
-10.908269 4.245734 32.659489 16 20 44
-10.857520 4.251438 32.703373 15 30 39
-10.803732 4.256016 32.738583 37 40 35
-10.762067 4.265453 32.811180 29 37 24
-10.719195 4.274526 32.880966 36 15 21
-10.678418 4.284550 32.958080 24 19 40
-10.641562 4.296283 33.048328 36 23 20
-10.593677 4.303681 33.105240 25 35 19
-10.553260 4.314226 33.186352 25 33 31
-10.505748 4.321985 33.246037 21 44 26
-10.456553 4.329146 33.301125 23 23 36
-10.412436 4.338515 33.373192 16 18 40
-10.359776 4.344422 33.418633 29 42 28
-10.312510 4.352683 33.482174 31 39 38
-10.258998 4.358398 33.526138 41 43 37
-10.204912 4.363943 33.568790 18 43 43
-10.156182 4.371866 33.629742 15 39 33
-10.101557 4.377341 33.671856 32 33 32
-10.054181 4.386052 33.738861 33 17 37
-10.002705 4.393080 33.792923 18 34 40
-9.951107 4.400149 33.847301 35 23 34
-9.903757 4.409207 33.916977 30 35 37
-9.849093 4.415111 33.962391 33 18 22
-9.797934 4.422678 34.020603 29 19 30
-9.740987 4.427721 34.059395 34 36 28
-9.681796 4.431808 34.090832 31 24 17
-9.625101 4.437103 34.131565 30 35 40
-9.563351 4.440127 34.154823 36 34 22
-9.505011 4.444789 34.190685 40 38 36
-9.444547 4.448518 34.219372 44 26 21
-9.383505 4.452028 34.246368 44 19 17
-9.323736 4.456198 34.278442 26 21 42
-9.260169 4.458600 34.296921 30 31 43
-9.200307 4.462835 34.329502 19 41 17
-9.139337 4.466593 34.358410 32 19 25
-9.078301 4.470376 34.387505 27 35 27
-9.018527 4.474842 34.421860 30 35 40
-8.955064 4.477532 34.442554 30 35 40
-8.893583 4.481263 34.471252 30 35 40
-8.829243 4.483600 34.489231 30 35 40
-8.765310 4.486182 34.509094 30 35 40
-8.704596 4.490466 34.542049 30 35 40
-8.642035 4.493858 34.568138 30 35 40
-8.584323 4.499847 34.614204 30 35 40
-8.525503 4.505347 34.656517 30 35 40
-8.466235 4.510699 34.697685 17 23 44
-8.407819 4.516597 34.743053 42 29 39
-8.344362 4.519863 34.768173 37 41 32
-8.279781 4.522569 34.788994 32 28 36
-8.211659 4.523372 34.795166 32 31 27
-8.140886 4.522715 34.790112 41 29 24
-8.069945 4.521952 34.784245 16 36 39
-7.998416 4.520844 34.775723 42 39 21
-7.926865 4.519704 34.766953 36 29 35
-7.855955 4.518912 34.760864 23 25 36
-7.786158 4.518753 34.759636 16 42 16
-7.716340 4.518578 34.758289 31 16 39
-7.646930 4.518641 34.758774 35 43 42
-7.584945 4.523132 34.793324 16 21 29
-7.525117 4.529006 34.838505 120 120 120
-7.469706 4.537672 34.905167 120 120 120
-7.418454 4.549052 34.992706 120 120 120
-7.362607 4.557804 35.060032 20 27 19
-7.312806 4.570504 35.157722 25 35 22
-7.256571 4.579389 35.226070 18 28 17
-7.200917 4.588819 35.298611 33 22 30
-7.152549 4.603126 35.408661 26 43 32
-7.098324 4.613910 35.491619 30 22 32
-7.047902 4.627411 35.595467 25 19 24
-6.988985 4.635551 35.658085 32 24 38
-6.928603 4.642878 35.714447 18 18 28
-6.873819 4.654148 35.801140 44 31 35
-6.813837 4.662099 35.862301 39 16 35
-6.759760 4.674302 35.956169 17 31 24
-6.701035 4.683519 36.027069 24 38 26
-6.642598 4.693140 36.101078 35 44 44
-6.588337 4.705955 36.199654 33 27 17
-6.527960 4.714638 36.266445 15 23 23
-6.476175 4.729790 36.383003 29 25 33
-6.421212 4.742940 36.484158 33 39 17
-6.366639 4.756684 36.589878 32 27 29
-6.315668 4.773470 36.718998 24 37 30
-6.256163 4.784124 36.800957 36 36 15
-6.202737 4.799737 36.921051 44 24 41
-6.143860 4.811456 37.011204 39 42 43
-6.083941 4.822636 37.097202 16 29 44
-6.028530 4.837710 37.213150 18 15 34
-5.966385 4.847688 37.289909 33 20 33
-5.906489 4.859770 37.382843 20 43 29
-5.840117 4.866764 37.436649 44 42 27
-5.772199 4.872635 37.481812 21 16 44
-5.708025 4.881863 37.552795 29 28 27
-5.640257 4.888223 37.601715 18 33 31
-5.577762 4.899386 37.687584 31 39 19
-5.513804 4.909551 37.765778 15 30 28
-5.449215 4.919431 37.841774 25 18 15
-5.384910 4.929847 37.921898 33 32 44
-5.314832 4.935201 37.963085 40 34 21
-5.247865 4.943640 38.028004 32 33 28
-5.179179 4.950686 38.082199 22 44 18
-5.109646 4.957119 38.131683 38 33 37
-5.040864 4.964487 38.188362 27 21 38
-4.968496 4.968496 38.219196 31 18 31
-4.898044 4.974576 38.265968 43 35 36
-4.825865 4.979067 38.300514 33 31 26
-4.753698 4.983716 38.336273 35 22 26
-4.684033 4.991182 38.393711 40 32 31
-4.612615 4.996999 38.438457 25 31 23
-4.539795 5.001469 38.472839 40 36 40
-4.464068 5.002834 38.483341 34 28 26
-4.385403 5.000898 38.468445 41 42 28
-4.305044 4.996926 38.437893 42 23 15
-11.444648 4.267496 32.329514 40 32 29
-11.384609 4.269228 32.342640 42 32 42
-11.323992 4.270763 32.354263 32 39 26
-11.263371 4.272313 32.366009 25 24 33
-11.199634 4.272693 32.368885 17 38 40
-11.136282 4.273225 32.372913 35 37 22
-11.075934 4.274922 32.385773 16 38 23
-11.015534 4.276619 32.398628 42 20 27
-10.959556 4.280063 32.424721 31 33 21
-10.901769 4.282838 32.445740 26 44 33
-10.846875 4.286789 32.475674 28 34 22
-10.796488 4.292580 32.519543 31 32 25
-10.742964 4.297186 32.554436 40 26 15
-10.701248 4.306600 32.625755 19 26 38
-10.658253 4.315612 32.694027 44 17 15
-10.617218 4.325533 32.769192 37 40 36
-10.579979 4.337134 32.857079 28 38 39
-10.531971 4.344438 32.912411 42 19 24
-10.491157 4.354820 32.991058 43 17 40
-10.443431 4.362446 33.048832 19 20 16
-10.394027 4.369464 33.101997 18 34 21
-10.349557 4.378659 33.171658 22 42 35
-10.296811 4.384449 33.215519 40 31 42
-10.249195 4.392512 33.276608 21 40 33
-10.195358 4.397998 33.318165 36 42 20
-10.141187 4.403410 33.359169 17 19 43
-10.092607 4.411338 33.419228 37 19 22
-10.038533 4.416955 33.461777 29 36 21
-9.992124 4.426041 33.530617 28 27 33
-9.941706 4.433464 33.586845 43 17 20
-9.891346 4.441013 33.644035 31 21 42
-9.845399 4.450660 33.717121 43 42 22
-9.791824 4.456968 33.764912 21 19 39
-9.741647 4.464922 33.825165 44 29 21
-9.685123 4.470057 33.864067 30 35 40
-9.626329 4.474209 33.895523 30 35 40
-9.570568 4.479840 33.938183 30 35 40
-9.509834 4.483207 33.963692 30 35 40
-9.452632 4.488300 34.002274 30 35 40
-9.392911 4.492262 34.032288 25 15 43
-9.332648 4.496020 34.060760 28 27 31
-9.274080 4.500656 34.095882 42 40 29
-9.211597 4.503448 34.117027 27 44 20
-9.153052 4.508220 34.153179 26 35 28
-9.093115 4.512373 34.184643 30 24 39
-9.032997 4.516498 34.215897 30 35 40
-8.974188 4.521346 34.252625 30 35 40
-8.911351 4.524224 34.274426 30 35 40
-8.850675 4.528252 34.304943 30 35 40
-8.787060 4.530828 34.324451 30 35 40
-8.723774 4.533615 34.345566 30 35 40
-8.663685 4.538121 34.379704 30 35 40
-8.601530 4.541608 34.406120 30 35 40
-8.544294 4.547769 34.452797 30 35 40
-8.485920 4.553420 34.495609 30 35 40
-8.427099 4.558923 34.537292 30 35 40
-8.369165 4.564999 34.583328 41 31 25
-8.306131 4.568372 34.608879 30 38 36
-8.242096 4.571247 34.630657 17 38 40
-8.174361 4.572100 34.637123 41 16 22
-8.104237 4.571621 34.633492 38 15 27
-8.034505 4.571357 34.631489 33 17 31
-7.964220 4.570770 34.627045 42 20 35
-7.894167 4.570307 34.623539 16 37 44
-7.824334 4.569965 34.620945 24 25 36
-7.755462 4.570183 34.622597 17 28 35
-7.686686 4.570462 34.624710 38 26 30
-7.617956 4.570773 34.627071 18 28 33
-7.556643 4.575582 34.663502 22 36 43
-7.497341 4.581708 34.709911 120 120 120
-7.442200 4.590516 34.776634 120 120 120
-7.391105 4.602009 34.863705 120 120 120
-7.335288 4.610752 34.929943 29 16 22
-7.284996 4.623171 35.024021 26 17 44
-7.228227 4.631680 35.088482 29 17 27
-7.171774 4.640560 35.155754 25 40 30
-7.122211 4.654118 35.258469 15 26 15
-7.067138 4.664311 35.335690 43 34 19
-7.015658 4.677105 35.432617 38 26 37
-6.956241 4.684815 35.491024 41 42 19
-6.895575 4.691835 35.544201 19 34 22
-6.840289 4.702699 35.626507 33 41 36
-6.780173 4.710436 35.685123 38 29 22
-6.725889 4.722433 35.776005 25 15 33
-6.667284 4.731621 35.845615 42 38 34
-6.608956 4.741208 35.918240 27 37 42
-6.554538 4.753840 36.013943 39 44 40
-6.494086 4.762330 36.078255 16 40 41
-6.441657 4.776959 36.189083 43 28 25
-6.386123 4.789592 36.284790 43 33 16
-6.330737 4.802628 36.383549 40 31 40
-6.278524 4.818402 36.503048 31 19 38
-6.218219 4.828264 36.577759 32 42 36
-6.163496 4.842746 36.687473 22 33 26
-6.103716 4.853557 36.769375 28 34 36
-6.043156 4.864003 36.848511 40 32 33
-5.987045 4.878333 36.957069 16 41 24
-5.924866 4.888014 37.030411 28 44 15
-5.864985 4.899861 37.120155 32 41 16
-5.798867 4.906734 37.172226 27 36 25
-5.731510 4.912723 37.217598 19 19 37
-5.668008 4.922218 37.289528 26 36 42
-5.601037 4.928913 37.340248 24 37 31
-5.539541 4.940672 37.429333 23 41 16
-5.476584 4.951432 37.510849 36 33 32
-5.412923 4.961846 37.589745 43 37 29
-5.349392 4.972674 37.671772 19 36 28
-5.279819 4.978115 37.712990 19 30 33
-5.213478 4.986805 37.778824 41 24 26
-5.145492 4.994154 37.834503 38 20 37
-5.076653 5.000882 37.885471 37 31 25
-5.008531 5.008531 37.943420 34 29 22
-4.936713 5.012663 37.974716 29 41 20
-4.866870 5.018959 38.022419 19 19 23
-4.795245 5.023590 38.057503 25 42 33
-4.723715 5.028471 38.094475 15 37 20
-4.655008 5.036566 38.155804 39 16 36
-4.584584 5.043043 38.204868 27 31 39
-4.512092 5.047425 38.238071 22 27 23
-4.435882 5.047728 38.240364 30 22 32
-4.356781 5.044693 38.217373 29 25 39
-11.389878 4.311423 32.174797 35 40 28
-11.330193 4.313199 32.188049 34 27 22
-11.269938 4.314776 32.199821 42 25 29
-11.210146 4.316550 32.213062 21 42 34
-11.147475 4.317230 32.218136 21 43 38
-11.085267 4.318098 32.224613 23 17 24
-11.025946 4.320108 32.239609 28 30 30
-10.966180 4.321965 32.253471 27 40 41
-10.910906 4.325626 32.280788 27 27 35
-10.853666 4.328545 32.302578 32 19 28
-10.799209 4.332617 32.332962 19 26 24
-10.749345 4.338591 32.377544 18 30 32
-10.696247 4.343324 32.412868 17 27 17
-10.654724 4.352844 32.483913 41 42 29
-10.611801 4.361906 32.551537 25 31 24
-10.570664 4.371818 32.625507 38 27 30
-10.533202 4.383382 32.711807 29 15 23
-10.485081 4.390627 32.765877 31 30 25
-10.444084 4.400966 32.843033 34 32 31
-10.396378 4.408590 32.899929 39 30 19
-10.347063 4.415626 32.952431 26 43 21
-10.302572 4.424823 33.021065 18 42 36
-10.249946 4.430622 33.064342 16 16 41
-10.202265 4.438648 33.124237 32 37 35
-10.148302 4.444028 33.164387 41 18 22
-10.094155 4.449397 33.204456 31 42 27
-10.045854 4.457432 33.264416 38 38 37
-9.992308 4.463231 33.307693 23 16 29
-9.946781 4.472714 33.378460 15 41 19
-9.897253 4.480513 33.436665 23 22 22
-9.847915 4.488506 33.496311 42 30 35
-9.803172 4.498716 33.572506 32 16 16
-9.750546 4.505425 33.622574 31 32 28
-9.701051 4.513683 33.684204 43 40 36
-9.644562 4.518781 33.722244 30 35 40
-9.585803 4.522879 33.752827 30 35 40
-9.530770 4.528806 33.797058 30 35 40
-9.471030 4.532564 33.825108 30 35 40
-9.414808 4.538073 33.866215 30 35 40
-9.355582 4.542203 33.897038 35 31 21
-9.295805 4.546124 33.926296 33 40 27
-9.238086 4.551116 33.963551 44 22 19
-9.176389 4.554208 33.986626 27 26 22
-9.118801 4.559400 34.025375 23 16 15
-9.059612 4.563865 34.058693 27 36 17
-9.000140 4.568253 34.091438 31 20 15
-8.941997 4.573388 34.129761 30 35 40
-8.879594 4.576406 34.152287 30 35 40
-8.819428 4.580633 34.183830 30 35 40
-8.756310 4.583381 34.204334 30 35 40
-8.693470 4.586319 34.226261 30 35 40
-8.633792 4.590984 34.261078 30 35 40
-8.571919 4.594549 34.287678 30 35 40
