ply
format ascii 1.0
element vertex 1256
property float x
property float y
property float z
property uchar red
property uchar green
property uchar blue
end_header
-4.980668 3.194124 27.068848 17 22 36
-4.940606 3.203250 27.146185 42 15 27
-4.895306 3.209145 27.196142 38 27 26
-4.855397 3.218746 27.277512 39 39 39
-4.812886 3.226821 27.345943 28 20 42
-4.769858 3.234732 27.412979 35 17 43
-4.728807 3.244181 27.493061 35 42 22
-4.681991 3.249852 27.541122 28 37 25
-4.637964 3.257617 27.606926 22 19 35
-4.590400 3.263055 27.653011 32 25 19
-4.541907 3.267958 27.694557 23 35 42
-4.495798 3.274717 27.751837 20 35 39
-4.446273 3.279126 27.789207 27 16 15
-4.398877 3.285237 27.840992 36 42 33
-4.348693 3.289396 27.876236 31 22 17
-4.298268 3.293478 27.910831 30 35 30
-4.249867 3.299239 27.959650 18 42 35
-4.198968 3.303188 27.993122 31 43 27
-4.152174 3.310517 28.055233 21 44 19
-4.104404 3.317258 28.112354 16 42 17
-4.056715 3.324252 28.171631 33 24 24
-4.010033 3.332281 28.239670 15 20 28
-3.959245 3.337078 28.280319 40 43 44
-3.910683 3.343917 28.338284 25 29 37
-3.859666 3.348828 28.379894 17 44 15
-3.808243 3.353528 28.419725 23 26 20
-3.758812 3.360150 28.475849 41 28 20
-3.706853 3.364682 28.514254 28 20 18
-3.656507 3.370842 28.566462 39 26 29
-3.604026 3.375199 28.603378 20 22 28
-3.550845 3.379030 28.635849 40 16 20
-3.498500 3.383795 28.676228 28 29 40
-3.443941 3.386542 28.699511 32 39 32
-3.391417 3.391417 28.740826 34 17 26
-3.338079 3.395632 28.776543 27 17 33
-3.284833 3.400090 28.814323 34 33 41
-9.137618 3.062889 25.524073 18 37 43
-9.065812 3.055892 25.465765 37 17 23
-8.998748 3.050423 25.420191 44 20 30
-8.931541 3.044843 25.373695 27 29 18
-8.874280 3.042610 25.355085 44 28 21
-8.818645 3.040912 25.340933 44 18 36
-8.766811 3.040513 25.337605 32 19 26
-8.718558 3.041358 25.344646 44 29 15
-8.671069 3.042480 25.354004 38 37 43
-8.624085 3.043795 25.364956 35 22 38
-8.576303 3.044841 25.373676 40 37 30
-8.525482 3.044815 25.373459 18 37 36
-8.474486 3.044725 25.372711 26 19 38
-8.425449 3.045343 25.377859 20 44 32
-8.376750 3.046091 25.384090 23 28 16
-8.331339 3.048051 25.400425 22 18 43
-8.285989 3.050057 25.417145 21 27 33
-8.241841 3.052534 25.437782 27 38 15
-8.199163 3.055589 25.463240 19 31 21
-8.153901 3.057713 25.480942 43 34 18
-8.110974 3.060745 25.506207 17 27 43
-8.065785 3.062956 25.524635 20 37 35
-8.020232 3.065057 25.542139 18 32 34
-7.976537 3.067899 25.565825 26 39 32
-7.930265 3.069780 25.581499 29 22 16
-7.885055 3.072099 25.600828 25 16 20
-7.837484 3.073523 25.612694 17 17 22
-7.789188 3.074680 25.622330 38 44 42
-7.742179 3.076363 25.636354 17 28 23
-7.693597 3.077439 25.645323 20 42 23
-7.646307 3.079050 25.658749 23 30 19
-7.598022 3.080279 25.668995 29 31 44
-7.549584 3.081463 25.678858 20 36 21
-7.501936 3.082988 25.691563 21 16 15
-7.452898 3.083958 25.699648 24 19 42
-7.404861 3.085359 25.711323 17 23 32
-7.355776 3.086339 25.719496 33 37 36
-7.306733 3.087352 25.727934 36 34 42
-7.258957 3.088918 25.740982 43 40 21
-7.210230 3.090098 25.750820 21 25 42
-7.162028 3.091523 25.762691 44 23 24
-7.112542 3.092409 25.770079 35 28 15
-7.062522 3.093075 25.775627 20 30 28
-7.012904 3.093928 25.782736 15 17 38
-6.962355 3.094380 25.786501 42 39 43
-6.912382 3.095096 25.792469 24 26 41
-6.862170 3.095716 25.797630 25 40 28
-6.811749 3.096250 25.802080 29 43 29
-6.761125 3.096698 25.805820 34 41 15
-6.709745 3.096806 25.806713 36 25 23
-6.659710 3.097539 25.812828 18 17 33
-6.609712 3.098302 25.819187 40 30 26
-6.560777 3.099580 25.829830 42 28 29
-6.513249 3.101547 25.846228 19 42 38
-6.465021 3.103210 25.860083 18 16 19
-6.419415 3.106169 25.884739 38 39 15
-6.373179 3.108868 25.907230 44 22 21
-6.326813 3.111547 25.929560 44 36 35
-6.281086 3.114588 25.954901 31 30 20
-6.232724 3.116362 25.969685 32 24 34
-6.183522 3.117742 25.981184 23 41 39
-6.132180 3.118057 25.983812 25 20 15
-6.079189 3.117533 25.979439 21 39 36
-6.025978 3.116885 25.974045 25 25 25
-5.972525 3.116100 25.967501 15 30 30
-5.918911 3.115216 25.960136 21 42 42
-5.865726 3.114545 25.954540 17 43 33
-5.813344 3.114291 25.952429 21 27 18
-5.761170 3.114146 25.951218 30 30 40
-5.709499 3.114272 25.952269 18 31 43
-5.662014 3.116705 25.972542 43 20 40
-5.615400 3.119667 25.997221 120 120 120
-5.571617 3.124271 26.035593 120 120 120
-5.530666 3.130565 26.088045 120 120 120
-5.487236 3.135563 26.129694 37 22 30
-5.448944 3.143622 26.196846 22 37 19
-5.407009 3.149714 26.247616 15 18 37
-5.366424 3.156720 26.306000 30 35 40
-5.331169 3.167031 26.391926 30 35 40
-5.291442 3.174865 26.457209 30 35 40
-5.256406 3.185701 26.547506 30 35 40
-5.215870 3.193390 26.611580 30 35 40
-5.174154 3.200508 26.670897 30 35 40
-5.135625 3.209765 26.748045 30 35 40
-5.091307 3.215563 26.796354 30 35 40
-5.051753 3.224523 26.871025 30 35 40
-5.008882 3.231537 26.929474 30 35 40
-4.965731 3.238520 26.987667 20 23 17
-4.925309 3.247456 27.062136 18 16 26
-4.879791 3.253194 27.109949 43 17 15
-4.839520 3.262598 27.188314 16 40 16
-4.796804 3.270548 27.254566 19 31 24
-4.753612 3.278353 27.319611 35 44 19
-4.712285 3.287640 27.397003 40 16 26
-4.665367 3.293200 27.443335 44 32 31
-4.621218 3.300870 27.507250 40 17 41
-4.573641 3.306246 27.552052 15 28 24
-4.525278 3.311179 27.593157 20 19 29
-4.479368 3.318051 27.650421 37 27 40
-4.430147 3.322610 27.688417 35 29 18
-4.383193 3.329008 27.741730 39 16 31
-4.333427 3.333406 27.778379 18 39 37
-4.283496 3.337789 27.814911 36 36 29
-4.235705 3.343978 27.866482 27 43 37
-4.185318 3.348254 27.902119 35 31 40
-4.139134 3.356055 27.967121 43 25 32
-4.091856 3.363169 28.026411 16 35 37
-4.044580 3.370484 28.087364 36 35 19
-3.998293 3.378839 28.156992 25 44 37
-3.947738 3.383776 28.198132 22 39 40
-3.899476 3.390848 28.257071 23 42 43
-3.848754 3.395960 28.299664 42 18 34
-3.797617 3.400851 28.340425 17 15 37
-3.748498 3.407726 28.397715 29 23 43
-3.696788 3.412420 28.436834 38 44 35
-3.646656 3.418740 28.489500 28 33 28
-3.594291 3.423135 28.526121 39 40 41
-3.541242 3.427009 28.558407 35 20 21
-3.489166 3.431967 28.599724 40 35 40
-3.434924 3.434924 28.624363 24 34 15
-3.382668 3.440001 28.666676 39 28 22
-3.329494 3.444304 28.702534 34 19 33
-3.276351 3.448790 28.739920 19 35 37
-9.108789 3.104112 25.443544 25 41 28
-9.037425 3.097095 25.386024 25 34 33
-8.970049 3.091373 25.339121 33 36 20
-8.902688 3.085591 25.291727 22 33 26
-8.845203 3.083185 25.272009 42 24 38
-8.789157 3.081256 25.256199 37 15 27
-8.737258 3.080767 25.252190 18 31 44
-8.688592 3.081419 25.257536 38 33 40
-8.639750 3.082016 25.262426 38 35 25
-8.591373 3.082787 25.268745 24 44 38
-8.542263 3.083302 25.272968 20 41 27
-8.491041 3.083057 25.270956 20 43 30
-8.440008 3.082877 25.269485 39 27 25
-8.390641 3.083308 25.273016 18 31 23
-8.341840 3.083953 25.278303 27 19 44
-8.296297 3.085818 25.293589 28 43 25
-8.250975 3.087788 25.309740 41 29 17
-8.206968 3.090278 25.330147 15 18 24
-8.164423 3.093353 25.355350 33 26 19
-8.119377 3.095513 25.373055 33 15 16
-8.076757 3.098630 25.398605 30 20 32
-8.031933 3.100936 25.417511 38 17 26
-7.986737 3.103127 25.435467 42 44 19
-7.943278 3.106025 25.459223 29 39 44
-7.897148 3.107910 25.474670 19 34 36
-7.852125 3.110257 25.493914 29 41 37
-7.804768 3.111705 25.505779 16 36 23
-7.756782 3.112919 25.515732 19 36 38
-7.710241 3.114733 25.530600 25 18 44
-7.662156 3.115944 25.540522 40 16 35
-7.615402 3.117715 25.555040 22 17 35
-7.567516 3.119044 25.565931 40 20 36
-7.519420 3.120304 25.576260 20 30 19
-7.472159 3.121929 25.589584 34 43 41
-7.423418 3.122955 25.597994 24 40 40
-7.375603 3.124387 25.609732 23 35 19
-7.326695 3.125373 25.617813 44 24 43
-7.277700 3.126336 25.625706 15 18 31
-7.229843 3.127804 25.637741 19 15 32
-7.181030 3.128877 25.646536 15 40 44
-7.132634 3.130149 25.656958 40 18 24
-7.083046 3.130912 25.663210 27 43 39
-7.032974 3.131470 25.667789 22 32 20
-6.983283 3.132208 25.673834 26 27 34
-6.932813 3.132604 25.677086 25 22 18
-6.882935 3.133276 25.682592 39 21 39
-6.832902 3.133887 25.687601 34 21 15
-6.782699 3.134429 25.692043 26 28 22
-6.732227 3.134854 25.695524 23 35 36
-6.681008 3.134934 25.696184 41 17 39
-6.631142 3.135656 25.702101 44 17 32
-6.581341 3.136420 25.708364 17 31 22
-6.532657 3.137733 25.719124 34 25 17
-6.485438 3.139775 25.735865 37 43 16
-6.437545 3.141522 25.750181 43 17 21
-6.392373 3.144635 25.775696 18 23 15
-6.346529 3.147465 25.798897 41 32 39
-6.300622 3.150311 25.822220 41 40 22
-6.255479 3.153589 25.849089 22 15 44
-6.207634 3.155547 25.865141 21 22 38
-6.159054 3.157162 25.878380 42 27 36
-6.108152 3.157604 25.882002 16 37 21
-6.055667 3.157228 25.878918 37 35 44
-6.003193 3.156852 25.875834 16 31 36
-5.950391 3.156294 25.871265 26 40 35
-5.897790 3.155835 25.867498 27 25 23
-5.845599 3.155589 25.865480 31 17 32
-5.794112 3.155722 25.866573 40 44 40
-5.742675 3.155884 25.867905 23 35 18
-5.691311 3.156091 25.869596 35 20 32
-5.644198 3.158680 25.890816 44 34 16
-5.597968 3.161815 25.916519 120 120 120
-5.554448 3.166554 25.955362 120 120 120
-5.513665 3.172958 26.007853 120 120 120
-5.470287 3.177976 26.048985 22 36 23
-5.431775 3.185945 26.114304 23 22 38
-5.389579 3.191886 26.163004 39 37 39
-5.348610 3.198679 26.218678 16 38 44
-5.312867 3.208761 26.301321 30 35 40
-5.272860 3.216445 26.364300 30 35 40
-5.237329 3.227041 26.451157 30 35 40
-5.196511 3.234563 26.512810 30 35 40
-5.154479 3.241476 26.569477 30 35 40
-5.115362 3.250386 26.642511 30 35 40
-5.070662 3.255899 26.687695 30 35 40
-5.030473 3.264456 26.757833 30 35 40
-4.987242 3.271202 26.813131 30 35 40
-4.943709 3.277894 26.867983 32 37 36
-4.902614 3.286368 26.937441 29 17 29
-4.856673 3.291745 26.981516 29 33 36
-4.815708 3.300653 27.054537 28 43 20
-4.772554 3.308248 27.116783 19 41 21
-4.728989 3.315728 27.178097 36 30 29
-4.687108 3.324576 27.250626 16 21 16
-4.639954 3.329850 27.293850 40 36 41
-4.595552 3.337246 27.354479 28 41 25
-4.547945 3.342466 27.397259 35 32 28
-4.499784 3.347401 27.437710 20 25 27
-4.454157 3.354365 27.494797 24 24 43
-4.405381 3.359103 27.533628 42 37 30
-4.359113 3.365897 27.589323 34 38 29
-4.310016 3.370653 27.628307 39 23 37
-4.260899 3.375518 27.668177 33 38 17
-4.214118 3.382384 27.724463 29 18 42
-4.164576 3.387189 27.763842 30 30 30
-4.119394 3.395717 27.833744 17 44 29
-4.072889 3.403373 27.896502 37 37 38
-4.026268 3.411144 27.960197 31 42 43
-3.980667 3.420010 28.032866 24 38 44
-3.930550 3.425193 28.075354 39 37 37
-3.882792 3.432613 28.136173 38 27 32
-3.832510 3.437987 28.180220 29 21 27
-3.781760 3.443095 28.222088 42 27 17
-3.733069 3.450261 28.280825 42 25 31
-3.681703 3.455137 28.320795 22 33 29
-3.631767 3.461528 28.373178 18 44 15
-3.579413 3.465781 28.408043 24 37 21
-3.526383 3.469506 28.438570 20 23 30
-3.474534 3.474534 28.479790 43 29 33
-3.420667 3.477678 28.505556 36 23 36
-3.368744 3.482939 28.548677 38 20 35
-3.315809 3.487316 28.584558 34 17 42
-3.262871 3.491844 28.621674 42 20 28
-9.018367 3.141229 25.332493 24 44 15
-8.949403 3.134819 25.280800 31 28 41
-8.881123 3.128577 25.230463 41 26 36
-8.823272 3.125959 25.209349 23 22 40
-8.766565 3.123719 25.191278 20 18 18
-8.714234 3.123020 25.185648 33 30 25
-8.665028 3.123440 25.189034 28 31 26
-8.615162 3.123626 25.190533 30 21 28
-8.565945 3.124051 25.193956 18 26 15
-8.516013 3.124218 25.195305 41 39 26
-8.464504 3.123805 25.191977 35 30 26
-8.413477 3.123566 25.190052 19 24 37
-8.364040 3.123919 25.192892 37 28 16
-8.315353 3.124557 25.198040 17 23 30
-8.270008 3.126466 25.213438 16 25 22
-8.224946 3.128507 25.229897 15 15 23
-8.181249 3.131095 25.250769 28 41 17
-8.138993 3.134271 25.276377 15 32 44
-8.094174 3.136492 25.294292 27 39 44
-8.051829 3.139707 25.320217 17 42 18
-8.007313 3.142110 25.339598 28 33 24
-7.962351 3.144368 25.357807 17 31 25
-7.918982 3.147288 25.381351 32 16 34
-7.872845 3.149138 25.396275 36 23 40
-7.827801 3.151453 25.414940 34 22 17
-7.780462 3.152867 25.426346 17 17 17
-7.732598 3.154086 25.436178 44 24 31
-7.686327 3.155975 25.451414 27 37 31
-7.638608 3.157291 25.462027 26 30 22
-7.592252 3.159192 25.477354 27 34 23
-7.544661 3.160601 25.488720 23 15 20
-7.496841 3.161933 25.499458 28 20 41
-7.449933 3.163670 25.513468 18 40 29
-7.401498 3.164779 25.522408 23 33 26
-7.353965 3.166290 25.534599 41 34 35
-7.305271 3.167320 25.542906 39 35 21
-7.256391 3.168283 25.550673 33 42 37
-7.208560 3.169722 25.562271 30 22 40
-7.159725 3.170736 25.570448 26 25 21
-7.111249 3.171924 25.580032 30 39 32
-7.061638 3.172620 25.585644 20 37 23
-7.011554 3.173112 25.589613 34 40 28
-6.961844 3.173782 25.595015 38 42 30
-6.911430 3.174138 25.597887 35 35 16
-6.861606 3.174773 25.603008 34 34 32
-6.811706 3.175382 25.607918 27 16 21
-6.761630 3.175917 25.612236 27 22 30
-6.711200 3.176293 25.615269 41 35 29
-6.660017 3.176316 25.615452 29 24 43
-6.610161 3.176977 25.620779 28 34 25
-6.560408 3.177697 25.626593 25 20 21
-6.511803 3.178990 25.637018 20 18 18
-6.464691 3.181038 25.653536 31 40 31
-6.416960 3.182812 25.667839 20 36 44
-6.372008 3.186004 25.693583 31 44 38
-6.326404 3.188919 25.717091 22 32 21
-6.280783 3.191873 25.740913 25 33 19
-6.235946 3.195278 25.768372 36 35 19
-6.188364 3.197322 25.784851 16 24 40
-6.140220 3.199106 25.799244 29 20 41
-6.089737 3.199693 25.803972 40 39 30
-6.037766 3.199500 25.802418 42 41 43
-5.985906 3.199364 25.801321 33 24 35
-5.933589 3.198979 25.798214 43 19 34
-5.881848 3.198900 25.797581 41 32 34
-5.830575 3.199077 25.799006 29 27 39
-5.779930 3.199604 25.803259 41 36 42
-5.729134 3.200057 25.806911 23 43 39
-5.677995 3.200325 25.809069 34 18 15
-5.631173 3.203052 25.831068 31 23 15
-5.585276 3.206362 25.857759 120 120 120
-5.541975 3.211238 25.897081 120 120 120
-5.501329 3.217759 25.949667 120 120 120
-5.457985 3.222810 25.990406 44 22 17
-5.419265 3.230716 26.054159 20 27 42
-5.376826 3.236536 26.101097 18 44 38
-5.335502 3.243148 26.154423 41 27 28
-5.299309 3.253041 26.234203 30 35 40
-5.259032 3.260600 26.295160 30 35 40
-5.223049 3.271000 26.379034 30 35 40
-5.181968 3.278388 26.438614 30 35 40
-5.139643 3.285133 26.493006 30 35 40
-5.100016 3.293761 26.562586 30 35 40
-5.054978 3.299038 26.605146 30 35 40
-5.014232 3.307260 26.671448 30 35 40
-4.970667 3.313778 26.724016 30 35 40
-4.926768 3.320213 26.775915 30 35 40
-4.885055 3.328279 26.840963 22 37 42
-4.838711 3.333334 26.881725 16 26 36
-4.797088 3.341792 26.949934 17 32 36
-4.753504 3.349060 27.008545 22 22 44
-4.709556 3.356235 27.066412 17 27 16
-4.667120 3.364668 27.134418 43 40 18
-4.619705 3.369667 27.174734 37 22 27
-4.575014 3.376796 27.232227 19 37 28
-4.527324 3.381856 27.273035 25 15 21
-4.479299 3.386787 27.312799 39 30 23
-4.433871 3.393827 27.369576 21 31 41
-4.385449 3.398723 27.409058 16 35 32
-4.339768 3.405894 27.466888 35 18 35
-4.291251 3.410994 27.508018 44 36 39
-4.242858 3.416327 27.551027 39 40 18
-4.196998 3.423866 27.611826 18 32 16
-4.148228 3.429201 27.654850 33 32 38
-4.103972 3.438463 27.729544 25 19 20
-4.058173 3.446667 27.795704 15 26 24
-4.012148 3.454905 27.862139 32 24 33
-3.967189 3.464306 27.937952 40 39 39
-3.917481 3.469769 27.982006 19 22 16
-3.870157 3.477533 28.044619 38 35 43
-3.820209 3.483132 28.089775 36 32 23
-3.769719 3.488397 28.132235 18 43 39
-3.721328 3.495793 28.191881 42 38 37
-3.670207 3.500813 28.232361 37 44 35
-3.620319 3.507184 28.283743 28 17 36
-3.567840 3.511207 28.316189 23 30 22
-3.514682 3.514682 28.344210 29 26 15
-3.462887 3.519656 28.384323 38 38 29
-3.409257 3.522899 28.410477 30 37 28
-3.357567 3.528290 28.453955 43 21 18
-3.304821 3.532739 28.489832 29 29 36
-9.001771 3.186020 25.285873 15 41 29
-8.931918 3.179157 25.231407 34 26 30
-8.862719 3.172451 25.178179 31 29 16
-8.803949 3.169422 25.154140 19 39 43
-8.745963 3.166642 25.132076 42 24 43
-8.692767 3.165574 25.123604 31 22 28
-8.642749 3.165658 25.124269 33 22 44
-8.591759 3.165385 25.122103 40 41 29
-8.541847 3.165508 25.123079 31 31 34
-8.491299 3.165396 25.122187 28 44 37
-8.439665 3.164874 25.118052 37 42 30
-8.388806 3.164639 25.116186 39 32 29
-8.339483 3.164985 25.118925 43 29 25
-8.291022 3.165663 25.124308 24 20 27
-8.245984 3.167665 25.140196 23 23 25
-8.201237 3.169803 25.157169 35 22 44
-8.157852 3.172498 25.178555 43 35 33
-8.115875 3.175777 25.204580 36 44 19
-8.071242 3.178052 25.222631 27 42 27
-8.029049 3.181321 25.248581 37 23 37
-7.984693 3.183770 25.268015 43 32 35
-7.939782 3.186027 25.285931 44 22 32
-7.896298 3.188890 25.308647 39 33 23
-7.850011 3.190650 25.322617 43 32 21
-7.804752 3.192853 25.340105 40 19 30
-7.757276 3.194172 25.350574 35 26 27
-7.709395 3.195341 25.359852 39 36 33
-7.663237 3.197245 25.374958 24 22 31
-7.615787 3.198631 25.385958 22 16 28
-7.569744 3.200630 25.401825 25 40 38
-7.522402 3.202103 25.413519 28 43 24
-7.474851 3.203508 25.424664 20 26 42
-7.428296 3.205361 25.439369 40 20 22
-7.380173 3.206558 25.448874 36 20 38
-7.332966 3.208173 25.461689 44 15 28
-7.284524 3.209266 25.470364 15 32 22
-7.235826 3.210261 25.478260 15 21 31
-7.188113 3.211710 25.489761 27 15 20
-7.139351 3.212708 25.497683 42 30 30
-7.090930 3.213875 25.506941 15 15 26
-7.041415 3.214559 25.512375 22 19 37
-6.991448 3.215045 25.516233 36 24 42
-6.941871 3.215720 25.521585 44 25 16
-6.891614 3.216087 25.524498 19 22 30
-6.841985 3.216754 25.529795 32 44 44
-6.792320 3.217415 25.535036 25 36 32
-6.742449 3.217987 25.539581 20 25 16
-6.692129 3.218352 25.542479 15 43 26
-6.641009 3.218335 25.542343 20 32 31
-6.591150 3.218934 25.547094 32 19 26
-6.541407 3.219599 25.552372 41 42 43
-6.492824 3.220850 25.562300 40 41 41
-6.445722 3.222861 25.578262 29 17 23
-6.398070 3.224627 25.592279 28 31 34
-6.353220 3.227846 25.617823 23 20 31
-6.307766 3.230807 25.641327 24 44 43
-6.262325 3.233824 25.665266 15 41 17
-6.217631 3.237279 25.692692 19 24 34
-6.170173 3.239341 25.709053 34 36 39
-6.122347 3.241243 25.724148 42 20 17
-6.072261 3.241970 25.729919 33 29 44
-6.020797 3.241967 25.729900 29 39 26
-5.969494 3.242053 25.730579 29 17 29
-5.917615 3.241824 25.728760 29 43 33
-5.866646 3.242094 25.730904 23 28 43
-5.816209 3.242665 25.735439 25 15 39
-5.766344 3.243568 25.742607 37 26 24
-5.716210 3.244335 25.748693 26 17 43
-5.665356 3.244704 25.751619 26 35 28
-5.618878 3.247608 25.774668 29 26 19
-5.573297 3.251090 25.802299 120 120 120
-5.530205 3.256102 25.842081 120 120 120
-5.489710 3.262752 25.894859 120 120 120
-5.446412 3.267847 25.935295 42 44 43
-5.407523 3.275711 25.997705 43 29 23
-5.364857 3.281417 26.042995 25 25 41
-5.323220 3.287871 26.094213 44 33 30
-5.286632 3.297602 26.171448 19 39 27
-5.246121 3.305056 26.230604 30 35 40
-5.209780 3.315315 26.312021 30 35 40
-5.168531 3.322627 26.370058 30 35 40
-5.126005 3.329261 26.422707 30 35 40
-5.085943 3.337650 26.489288 30 35 40
-5.040586 3.342705 26.529402 30 35 40
-4.999282 3.350583 26.591927 30 35 40
-4.955353 3.356852 26.641684 30 35 40
-4.911051 3.363002 26.690495 21 28 44
-4.868697 3.370637 26.751083 24 30 43
-4.821943 3.375360 26.788574 41 18 24
-4.779644 3.383343 26.851931 35 24 19
-4.735591 3.390253 26.906769 16 22 36
-4.691234 3.397101 26.961117 19 19 30
-4.648247 3.405111 27.024693 32 21 40
-4.600587 3.409847 27.062279 16 30 18
-4.555660 3.416745 27.117023 38 38 24
-4.507958 3.421703 27.156372 19 42 31
-4.460111 3.426671 27.195801 33 43 15
-4.414876 3.433792 27.252319 21 42 23
-4.366754 3.438819 27.292212 29 29 36
-4.321578 3.446321 27.351757 35 34 43
-4.273581 3.451739 27.394751 16 38 36
-4.225836 3.457503 27.440496 16 30 34
-4.180774 3.465641 27.505091 37 22 16
-4.132672 3.471444 27.551146 22 41 22
-4.089189 3.481337 27.629658 31 24 25
-4.043953 3.489987 27.698309 32 19 37
-3.998417 3.498615 27.766787 24 26 41
-3.954036 3.508511 27.845325 21 28 28
-3.904743 3.514269 27.891024 24 34 44
-3.857853 3.522388 27.955458 42 42 42
-3.808236 3.528219 28.001736 30 21 19
-3.757998 3.533639 28.044758 32 21 18
-3.709894 3.541263 28.105259 16 30 24
-3.659002 3.546418 28.146172 34 24 28
-3.609129 3.552737 28.196323 39 25 24
-3.556496 3.556496 28.226160 16 21 39
-3.503169 3.559672 28.251364 44 23 42
-3.451347 3.564506 28.289730 32 24 36
-3.397883 3.567778 28.315695 18 32 18
-3.346355 3.573227 28.358944 40 32 18
-3.293776 3.577722 28.394623 26 23 22
-8.979227 3.228486 25.222548 35 18 28
-8.911261 3.222151 25.173054 33 41 33
-8.841974 3.215263 25.119244 28 22 35
-8.781401 3.211484 25.089716 24 16 26
-8.721347 3.207852 25.061342 29 34 43
-8.667112 3.206331 25.049458 29 38 37
-8.616192 3.206025 25.047070 18 35 25
-8.563841 3.205180 25.040472 39 26 18
-8.513057 3.204916 25.038403 22 34 20
-8.461778 3.204460 25.034845 19 33 30
-8.410037 3.203824 25.029873 29 23 30
-8.359397 3.203601 25.028133 44 32 28
-8.310143 3.203911 25.030552 44 25 32
-8.261834 3.204590 25.035860 26 27 44
-8.216928 3.206606 25.051609 24 33 38
-8.172313 3.208761 25.068445 17 30 27
-8.129035 3.211470 25.089613 43 34 38
-8.087123 3.214757 25.115288 37 29 44
-8.042574 3.217030 25.133043 21 23 37
-8.000324 3.220256 25.158251 21 33 25
-7.955946 3.222662 25.177046 38 17 31
-7.910920 3.224834 25.194014 23 43 38
-7.867126 3.227539 25.215147 39 28 28
-7.820593 3.229148 25.227720 38 40 44
-7.775008 3.231172 25.243532 28 26 21
-7.727350 3.232356 25.252779 16 16 19
-7.679447 3.233451 25.261337 22 24 34
-7.633359 3.235331 25.276024 35 20 24
-7.586181 3.236771 25.287270 22 25 26
-7.540446 3.238849 25.303509 25 28 43
-7.493380 3.240381 25.315474 44 15 33
-7.446138 3.241856 25.327002 21 40 40
-7.399946 3.243812 25.342279 20 44 23
-7.352149 3.245086 25.352238 29 35 35
-7.305247 3.246777 25.365442 17 28 24
-7.257047 3.247909 25.374289 44 19 26
-7.208522 3.248911 25.382118 17 26 31
-7.160931 3.250352 25.393372 38 20 38
-7.112248 3.251313 25.400885 17 16 37
-7.063926 3.252455 25.409805 41 21 30
-7.014555 3.253127 25.415054 39 32 21
-6.964793 3.253626 25.418951 32 22 36
-6.915478 3.254343 25.424551 16 25 19
-6.865518 3.254764 25.427845 41 17 21
-6.816282 3.255538 25.433889 15 39 28
-6.767031 3.256316 25.439966 35 43 35
-6.717547 3.256993 25.445255 43 15 28
-6.667547 3.257427 25.448652 22 24 34
-6.616625 3.257415 25.448557 36 36 38
-6.566922 3.258008 25.453186 31 39 33
-6.517317 3.258658 25.458269 21 34 19
-6.468850 3.259893 25.467913 32 23 17
-6.421871 3.261903 25.483614 41 24 34
-6.374358 3.263671 25.497431 24 21 38
-6.329689 3.266936 25.522940 28 22 25
-6.284454 3.269960 25.546560 24 32 26
-6.239254 3.273051 25.570711 30 19 41
-6.194773 3.276574 25.598236 17 23 39
-6.147503 3.278668 25.614595 23 15 16
-6.100044 3.280696 25.630438 25 22 16
-6.050387 3.281566 25.637234 42 16 37
-5.999460 3.281756 25.638720 33 32 17
-5.948788 3.282090 25.641327 29 26 24
-5.897411 3.282037 25.640917 35 34 17
-5.847234 3.282658 25.645763 36 20 26
-5.797553 3.283570 25.652891 40 32 30
-5.748425 3.284814 25.662613 21 27 35
-5.699043 3.285935 25.671364 41 17 32
-5.648655 3.286490 25.675703 43 36 37
-5.602660 3.289635 25.700275 36 31 33
-5.557440 3.293298 25.728888 120 120 120
-5.514567 3.298433 25.769005 120 120 120
-5.474258 3.305212 25.821970 120 120 120
-5.431052 3.310355 25.862150 19 20 32
-5.392019 3.318166 25.923168 40 23 15
-5.349146 3.323741 25.966728 43 41 40
-5.307210 3.330014 26.015736 26 30 23
-5.270255 3.339567 26.090370 34 28 28
-5.229551 3.346913 26.147757 36 39 40
-5.192927 3.357043 26.226902 23 18 19
-5.151615 3.364320 26.283752 30 35 40
-5.108971 3.370867 26.334900 30 35 40
-5.068499 3.378999 26.398432 30 35 40
-5.022806 3.383785 26.435822 30 35 40
-4.980874 3.391233 26.494011 30 35 40
-4.936526 3.397179 26.540461 30 35 40
-4.891758 3.402962 26.585640 32 26 41
-4.848710 3.410082 26.641266 23 29 19
-4.801539 3.414428 26.675217 33 23 40
-4.758541 3.421872 26.733374 39 21 40
-4.714000 3.428364 26.784090 42 24 29
-4.669245 3.434847 26.834743 22 16 22
-4.625742 3.442413 26.893848 18 24 19
-4.577902 3.446891 26.928835 38 36 31
-4.532864 3.453610 26.981331 32 28 33
-4.485313 3.458554 27.019957 31 36 20
-4.437794 3.463644 27.059721 16 17 42
-4.392835 3.470882 27.116264 31 21 23
-4.345024 3.476019 27.156399 36 28 29
-4.300341 3.483821 27.217348 35 19 30
-4.252874 3.489538 27.262012 28 21 24
-4.205751 3.495689 27.310072 18 23 18
-4.161412 3.504347 27.377708 30 28 31
-4.113914 3.510540 27.426094 44 27 32
-4.071063 3.520919 27.507181 19 20 25
-4.026256 3.529868 27.577095 26 34 19
-3.981108 3.538762 27.646582 23 41 27
-3.937247 3.549068 27.727095 39 27 32
-3.888408 3.555116 27.774343 43 27 20
-3.842023 3.563616 27.840750 39 42 22
-3.792828 3.569720 27.888441 43 24 35
-3.742951 3.575356 27.932467 24 31 29
-3.695237 3.583260 27.994223 32 24 29
-3.644651 3.588580 28.035780 35 20 29
-3.594902 3.594902 28.085173 36 28 40
-3.542237 3.598463 28.112995 27 16 43
-3.488837 3.601380 28.135778 34 18 41
-3.437043 3.606078 28.172487 40 41 42
-3.383759 3.609343 28.197994 35 19 31
-3.332375 3.614779 28.240463 19 41 42
-3.279953 3.619259 28.275459 41 17 27
-8.900305 3.268473 25.142103 40 27 16
-8.831524 3.261642 25.089558 24 20 37
-8.769151 3.257113 25.054716 43 33 36
-8.707216 3.252696 25.020735 37 24 19
-8.652149 3.250808 25.006212 42 33 41
-8.600600 3.250227 25.001745 18 21 42
-8.547364 3.248998 24.992292 17 25 36
-8.496095 3.248507 24.988516 29 16 40
-8.444450 3.247865 24.983580 39 38 36
-8.392735 3.247189 24.978378 31 24 16
-8.342304 3.247005 24.976959 27 41 24
-8.293133 3.247311 24.979315 41 17 39
-8.244903 3.247992 24.984554 24 34 43
-8.199975 3.249990 24.999924 21 40 35
-8.155326 3.252124 25.016336 17 20 43
-8.111957 3.254797 25.036903 44 35 35
-8.069920 3.258042 25.061863 17 35 40
-8.025328 3.260290 25.079151 35 33 28
-7.982851 3.263430 25.103306 30 28 25
-7.938273 3.265745 25.121119 28 32 28
-7.892987 3.267797 25.136900 38 40 17
-7.848805 3.270336 25.156427 18 41 37
-7.802030 3.271819 25.167839 32 40 27
-7.756106 3.273681 25.182163 38 41 25
-7.708260 3.274751 25.190392 43 42 42
-7.660274 3.275775 25.198269 29 44 18
-7.614131 3.277606 25.212353 41 20 30
-7.567039 3.279050 25.223465 21 17 41
-7.521427 3.281160 25.239689 21 41 32
-7.474500 3.282719 25.251688 28 44 40
-7.427435 3.284240 25.263386 37 28 29
-7.381425 3.286251 25.278852 21 20 18
-7.333804 3.287567 25.288979 33 28 23
-7.287057 3.289296 25.302280 26 24 44
-7.238983 3.290447 25.311131 21 15 21
-7.190563 3.291455 25.318884 31 30 37
-7.143061 3.292900 25.330004 30 18 31
-7.094471 3.293861 25.337395 19 35 40
-7.046279 3.295022 25.346327 33 42 38
-6.997052 3.295713 25.351637 25 20 15
-6.947507 3.296263 25.355865 24 34 19
-6.898472 3.297064 25.362030 26 41 19
-6.848791 3.297566 25.365892 33 33 22
-6.799950 3.298483 25.372950 23 32 43
-6.751071 3.299395 25.379965 16 23 43
-6.701936 3.300196 25.386120 27 16 23
-6.652263 3.300741 25.390316 27 29 27
-6.601537 3.300768 25.390526 15 15 17
-6.552019 3.301405 25.395422 44 15 34
-6.502553 3.302078 25.400599 24 23 36
-6.454186 3.303323 25.410179 36 43 34
-6.407294 3.305350 25.425770 24 43 32
-6.359867 3.307131 25.439466 26 40 33
-6.315295 3.310437 25.464899 40 19 41
-6.270175 3.313507 25.488518 16 38 24
-6.225100 3.316651 25.512703 38 37 24
-6.180710 3.320216 25.540123 25 29 31
-6.133517 3.322322 25.556320 38 28 15
-6.086236 3.324415 25.572422 40 37 43
-6.036805 3.325359 25.579681 18 17 23
-5.986171 3.325651 25.581928 34 16 28
-5.935840 3.326117 25.585518 16 35 21
-5.884745 3.326160 25.585848 32 21 38
-5.834944 3.326942 25.591862 30 35 40
-5.785556 3.327975 25.599804 24 39 30
-5.736746 3.329362 25.610474 17 32 39
-5.687817 3.330704 25.620798 18 44 29
-5.637808 3.331432 25.626398 32 24 19
-5.592172 3.334782 25.652166 15 17 39
-5.547158 3.338567 25.681288 120 120 120
-5.504395 3.343791 25.721472 120 120 120
-5.464209 3.350694 25.774570 120 120 120
-5.421087 3.355911 25.814701 38 18 15
-5.382016 3.363760 25.875076 42 39 36
-5.339060 3.369310 25.917767 29 16 22
-5.296998 3.375538 25.965677 17 42 42
-5.259898 3.385083 26.039099 38 22 33
-5.219144 3.392444 26.095722 35 20 36
-5.182457 3.402623 26.174025 17 32 33
-5.141228 3.409998 26.230757 44 37 22
-5.098622 3.416602 26.281555 35 17 38
-5.057987 3.424679 26.343683 43 22 32
-5.012115 3.429342 26.379553 30 35 40
-4.969824 3.436580 26.435234 15 22 41
-4.925208 3.442349 26.479610 39 22 28
-4.880148 3.447931 26.522545 43 24 16
-4.836703 3.454788 26.575293 41 16 35
-4.789314 3.458949 26.607302 15 44 23
-4.745939 3.466135 26.662580 26 39 37
-4.701124 3.472421 26.710930 42 24 21
-4.656161 3.478741 26.759546 44 44 16
-4.612417 3.486129 26.816380 31 30 41
-4.564538 3.490529 26.850225 19 29 34
-4.519550 3.497271 26.902084 44 29 35
-4.472213 3.502335 26.941042 15 42 35
-4.424976 3.507603 26.981564 35 27 32
-4.380211 3.514984 27.038342 25 20 24
-4.332540 3.520189 27.078375 35 36 17
-4.288064 3.528154 27.139648 20 16 24
-4.240855 3.534045 27.184965 16 15 21
-4.193996 3.540386 27.233738 32 21 41
-4.149925 3.549278 27.302139 43 15 30
-4.102645 3.555626 27.350967 34 16 29
-4.059957 3.566178 27.432140 42 27 26
-4.015216 3.575193 27.501482 19 39 35
-3.970148 3.584161 27.570469 31 19 18
-3.926488 3.594672 27.651323 28 31 37
-3.877908 3.600915 27.699345 32 42 32
-3.831829 3.609694 27.766876 36 21 27
-3.782904 3.616011 27.815470 21 28 32
-3.733280 3.621839 27.860296 16 17 44
-3.685832 3.629986 27.922970 25 27 35
-3.635451 3.635451 27.965008 35 42 36
-3.585826 3.641855 28.014267 16 24 35
-3.533215 3.645380 28.041388 33 42 27
-3.479822 3.648201 28.063084 41 17 31
-3.428047 3.652837 28.098745 36 35 35
-3.374830 3.656066 28.123587 36 25 25
-3.323471 3.661451 28.165005 37 41 36
-8.877001 3.310068 25.076273 16 34 28
-8.809483 3.303556 25.026939 20 37 27
-8.746721 3.298763 24.990631 38 28 39
-8.683738 3.293832 24.953270 16 31 32
-8.627625 3.291464 24.935333 29 40 44
-8.574793 3.290327 24.926723 21 21 19
-8.520112 3.288464 24.912607 29 33 43
-8.467957 3.287560 24.905756 39 18 20
-8.415716 3.286611 24.898569 19 25 22
-8.364137 3.285911 24.893265 17 30 25
-8.314187 3.285846 24.892776 28 16 44
-8.265282 3.286196 24.895428 33 36 43
-8.217273 3.286909 24.900827 20 39 31
-8.172512 3.288938 24.916195 24 30 34
-8.127985 3.291086 24.932470 40 34 37
-8.084667 3.293753 24.952677 26 16 22
-8.042641 3.296983 24.977146 41 35 32
-7.998074 3.299205 24.993980 34 41 31
-7.955449 3.302262 25.017134 34 37 42
-7.910744 3.304488 25.033998 27 24 39
-7.865269 3.306419 25.048628 30 21 44
-7.820816 3.308807 25.066719 23 31 25
-7.773914 3.310183 25.077143 15 24 31
-7.727774 3.311903 25.090174 37 28 24
-7.679801 3.312855 25.097387 25 27 34
-7.631784 3.313801 25.104551 16 35 19
-7.585635 3.315576 25.117998 41 25 25
-7.538696 3.317026 25.128988 24 28 24
-7.493290 3.319176 25.145269 20 25 32
-7.446611 3.320786 25.157471 42 41 19
-7.399859 3.322386 25.169588 28 30 18
-7.354174 3.324490 25.185528 25 39 32
-7.306855 3.325879 25.196051 42 22 17
-7.260475 3.327718 25.209982 15 32 40
-7.212721 3.328948 25.219305 21 43 20
-7.164643 3.330045 25.227615 21 18 35
-7.117530 3.331610 25.239470 37 43 23
-7.069258 3.332650 25.247349 43 35 32
-7.021539 3.333968 25.257336 18 30 21
-6.972739 3.334788 25.263548 33 27 24
-6.923691 3.335501 25.268944 38 21 23
-6.875295 3.336540 25.276821 29 30 15
-6.826149 3.337228 25.282034 43 15 43
-6.778043 3.338439 25.291204 22 15 43
-6.729818 3.339609 25.300066 39 38 25
-6.681264 3.340632 25.307819 29 16 35
-6.632183 3.341405 25.313675 24 35 22
-6.581795 3.341527 25.314596 32 31 30
-6.532609 3.342265 25.320189 38 19 18
-6.483373 3.342989 25.325676 41 44 42
-6.435148 3.344250 25.335230 34 38 22
-6.388369 3.346289 25.350672 38 33 33
-6.341016 3.348057 25.364065 28 36 28
-6.296442 3.351332 25.388878 34 36 15
-6.251339 3.354377 25.411945 44 25 42
-6.206259 3.357484 25.435486 26 21 26
-6.161825 3.360995 25.462086 29 27 40
-6.114653 3.363059 25.477720 15 19 25
-6.067439 3.365134 25.493441 25 27 23
-6.018144 3.366081 25.500610 40 32 26
-5.967746 3.366421 25.503189 30 35 40
-5.917734 3.366986 25.507473 30 35 40
-5.866972 3.367132 25.508574 30 35 40
-5.817613 3.368092 25.515848 30 35 40
-5.768576 3.369257 25.524673 30 35 40
-5.720172 3.370815 25.536480 30 35 40
-5.671834 3.372442 25.548801 30 35 40
-5.622346 3.373407 25.556116 26 37 26
-5.577200 3.377020 25.583485 16 28 15
-5.532469 3.380953 25.613281 120 120 120
-5.489855 3.386265 25.653526 120 120 120
-5.449826 3.393288 25.706724 120 120 120
-5.406799 3.398560 25.746664 33 39 27
-5.367681 3.406413 25.806158 19 23 20
-5.324632 3.411900 25.847727 36 36 41
-5.282444 3.418052 25.894331 33 42 34
-5.245231 3.427576 25.966488 18 20 37
-5.204483 3.434959 26.022413 29 25 39
-5.167831 3.445220 26.100155 24 28 40
-5.126793 3.452738 26.157106 41 19 29
-5.084312 3.459429 26.207792 31 31 41
-5.043573 3.467457 26.268610 39 20 34
-4.997539 3.471975 26.302839 44 21 18
-4.954808 3.478908 26.355362 26 28 22
-4.909833 3.484398 26.396952 22 32 25
-4.864343 3.489637 26.436646 38 21 29
-4.820334 3.496067 26.485353 19 38 33
-4.772633 3.499931 26.514629 26 44 34
-4.728718 3.506690 26.565834 15 44 38
-4.683500 3.512625 26.610794 28 35 18
-4.638244 3.518668 26.656572 30 36 32
-4.594186 3.525770 26.710382 19 36 34
-4.546276 3.530049 26.742798 20 42 15
-4.501387 3.536804 26.793968 43 18 33
-4.454370 3.542029 26.833551 42 38 15
-4.407525 3.547520 26.875151 38 40 21
-4.363003 3.555040 26.932119 39 23 42
-4.315495 3.560283 26.971844 22 19 26
-4.271238 3.568376 27.033150 23 35 39
-4.224312 3.574418 27.078922 44 29 22
-4.177740 3.580920 27.128183 35 41 38
-4.133924 3.589986 27.196867 25 27 34
-4.086854 3.596432 27.245695 24 29 32
-4.044283 3.607063 27.326235 26 17 31
-3.999577 3.616056 27.394365 31 15 36
-3.954573 3.625025 27.462311 24 28 28
-3.911099 3.635670 27.542953 36 15 31
-3.862814 3.642082 27.591532 21 30 15
-3.817070 3.651110 27.659927 31 28 30
-3.768479 3.657641 27.709404 17 28 44
-3.719144 3.663634 27.754803 18 35 40
-3.671899 3.671899 27.817413 40 34 43
-3.621650 3.677368 27.858845 15 44 20
-3.572088 3.683716 27.906939 31 25 34
-3.519551 3.687148 27.932941 23 22 20
-3.466231 3.689859 27.953478 43 23 36
-3.414531 3.694410 27.987957 37 27 34
-3.361461 3.697607 28.012173 22 44 31
-3.310225 3.702963 28.052753 41 22 32
-8.788400 3.345584 24.967045 37 31 44
-8.727250 3.341290 24.935001 25 38 15
-8.664837 3.336460 24.898956 38 24 35
-8.607985 3.333728 24.878569 43 32 40
-8.553734 3.331978 24.865507 16 20 34
-8.497629 3.329480 24.846869 29 15 33
-8.444522 3.328135 24.836828 39 36 29
-8.391699 3.326886 24.827511 26 20 41
-8.340324 3.326200 24.822392 15 27 25
-8.290960 3.326313 24.823235 32 40 41
-8.242451 3.326772 24.826658 24 16 40
-8.194747 3.327564 24.832567 32 19 33
-8.150324 3.329706 24.848549 43 38 17
-8.106080 3.331947 24.865276 18 40 39
-8.062984 3.334691 24.885754 31 22 34
-8.021167 3.338001 24.910458 26 36 19
-7.976738 3.340259 24.927305 28 32 42
-7.934151 3.343322 24.950161 31 44 21
-7.889440 3.345522 24.966581 30 40 38
-7.843913 3.347402 24.980614 25 36 23
-7.799411 3.349747 24.998114 15 33 31
-7.752542 3.351099 25.008202 26 42 41
-7.706349 3.352762 25.020615 41 37 30
-7.658344 3.353654 25.027267 21 32 15
-7.610316 3.354547 25.033934 30 19 34
-7.564159 3.356282 25.046883 36 29 27
-7.517299 3.357727 25.057663 37 35 28
-7.472034 3.359908 25.073938 29 22 39
-7.425543 3.361563 25.086292 17 31 26
-7.379040 3.363236 25.098774 44 36 29
-7.333631 3.365433 25.115175 34 36 24
-7.286555 3.366891 25.126051 43 20 33
-7.240539 3.368862 25.140760 30 18 39
-7.193112 3.370199 25.150740 39 38 40
-7.145416 3.371429 25.159916 25 30 34
-7.098774 3.373176 25.172958 29 43 36
-7.050895 3.374357 25.181767 37 19 15
-7.003754 3.375910 25.193361 26 44 29
-6.955451 3.376922 25.200911 44 31 34
-6.906942 3.377848 25.207819 25 26 40
-6.859227 3.379178 25.217747 30 30 21
-6.810594 3.380072 25.224421 17 40 33
-6.763184 3.381592 25.235762 26 27 26
-6.715538 3.383015 25.246382 36 16 28
-6.667491 3.384257 25.255648 29 28 35
-6.618930 3.385254 25.263090 36 30 32
-6.568835 3.385477 25.264751 34 43 21
-6.519926 3.386318 25.271032 36 31 26
-6.470886 3.387104 25.276897 40 31 25
-6.422749 3.388380 25.286415 42 26 36
-6.376043 3.390436 25.301758 28 24 43
-6.328716 3.392192 25.314863 21 40 39
-6.284057 3.395418 25.338940 18 42 24
-6.238860 3.398403 25.361219 33 37 17
-6.193666 3.401440 25.383879 20 31 44
-6.149105 3.404877 25.409527 38 44 41
-6.101908 3.406899 25.424618 34 32 28
-6.054654 3.408923 25.439724 27 19 25
-6.005349 3.409817 25.446392 30 35 40
-5.955030 3.410145 25.448845 30 35 40
-5.905175 3.410748 25.453341 30 35 40
-5.854640 3.410964 25.454958 30 35 40
-5.805575 3.412048 25.463047 30 35 40
-5.756760 3.413300 25.472387 30 35 40
-5.708645 3.414993 25.485023 30 35 40
-5.660754 3.416851 25.498890 30 35 40
-5.611684 3.418026 25.507654 30 35 40
-5.566921 3.421869 25.536335 35 37 27
-5.522401 3.425934 25.566669 120 120 120
-5.479890 3.431333 25.606964 120 120 120
-5.439964 3.438468 25.660206 120 120 120
-5.396992 3.443795 25.699961 19 22 33
-5.357842 3.451686 25.758854 33 16 29
-5.314726 3.457152 25.799639 17 31 36
-5.272460 3.463283 25.845394 27 15 44
-5.235209 3.472862 25.916878 26 34 24
-5.194510 3.480322 25.972551 35 17 16
-5.157931 3.490721 26.050156 37 39 25
-5.117057 3.498396 26.107435 16 28 22
-5.074686 3.505195 26.158175 24 18 30
-5.033912 3.513251 26.218290 43 28 32
-4.987790 3.517705 26.251528 16 27 29
-4.944752 3.524451 26.301872 18 29 28
-4.899495 3.529744 26.341373 40 18 44
-4.853656 3.534728 26.378565 42 42 30
-4.809199 3.540839 26.424170 36 40 20
-4.761239 3.544478 26.451328 41 23 18
-4.716890 3.550917 26.499384 34 17 21
-4.671349 3.556595 26.541754 35 24 35
-4.625858 3.562443 26.585392 42 22 35
-4.581562 3.569357 26.636990 21 42 28
-4.533639 3.573574 26.668463 26 24 40
-4.488821 3.580369 26.719173 15 26 17
-4.442031 3.585736 26.759226 25 20 42
-4.395450 3.591404 26.801523 34 26 29
-4.351066 3.599030 26.858435 20 30 44
-4.303628 3.604288 26.897675 39 25 32
-4.259450 3.612445 26.958546 41 40 37
-4.212673 3.618578 27.004316 28 28 34
-4.166238 3.625168 27.053492 44 25 27
-4.122491 3.634301 27.121651 20 41 26
-4.075484 3.640765 27.169891 32 19 30
-4.032890 3.651401 27.249258 43 19 16
-3.988152 3.660359 27.316113 34 42 35
-3.943150 3.669320 27.382984 27 25 18
-3.899742 3.680038 27.462973 31 19 24
-3.851629 3.686559 27.511633 25 32 20
-3.806068 3.695747 27.580202 22 19 26
-3.757684 3.702424 27.630032 41 30 41
-3.708525 3.708525 27.675562 34 24 28
-3.661367 3.716842 27.737625 16 41 39
-3.611166 3.722279 27.778202 34 17 35
-3.561628 3.728579 27.825216 31 32 29
-3.509158 3.731961 27.850458 39 26 35
-3.455935 3.734639 27.870440 42 26 34
-3.404336 3.739189 27.904392 44 42 24
-3.351414 3.742413 27.928453 20 27 21
-8.765168 3.386542 24.901047 20 30 33
-8.706024 3.382912 24.874355 15 24 18
-8.644626 3.378360 24.840879 21 23 15
-8.587267 3.375342 24.818691 35 42 37
-8.531807 3.373040 24.801764 16 15 26
-8.474632 3.370029 24.779627 27 15 28
-8.420825 3.368330 24.767132 23 23 40
-8.367583 3.366838 24.756163 40 40 38
-8.316394 3.366160 24.751173 42 23 34
-8.267503 3.366409 24.753004 38 37 15
-8.219306 3.366945 24.756947 21 15 34
-8.171849 3.367792 24.763178 32 34 18
-8.127691 3.370018 24.779545 33 31 35
-8.083694 3.372339 24.796608 29 16 31
-8.040791 3.375147 24.817257 25 21 20
-7.999127 3.378513 24.842009 36 31 41
-7.954792 3.380787 24.858727 31 26 29
-7.912286 3.383871 24.881401 16 26 37
-7.867642 3.386074 24.897602 34 38 15
-7.822214 3.387965 24.911510 21 15 39
-7.777870 3.390354 24.929071 39 18 18
-7.731196 3.391751 24.939342 26 29 38
-7.685171 3.393452 24.951853 31 32 24
-7.637272 3.394343 24.958405 44 35 38
-7.589342 3.395232 24.964941 41 18 39
-7.543305 3.396985 24.977831 39 17 25
-7.496582 3.398451 24.988607 21 39 25
-7.451527 3.400697 25.005125 28 18 29
-7.405270 3.402421 25.017805 35 44 16
-7.359054 3.404188 25.030796 18 39 25
-7.313951 3.406498 25.047779 33 35 22
-7.267142 3.408039 25.059111 30 41 16
-7.221541 3.410172 25.074795 16 36 36
-7.174506 3.411653 25.085686 37 22 19
-7.127257 3.413053 25.095976 38 44 44
-7.081174 3.415034 25.110546 32 41 36
-7.033737 3.416387 25.120491 20 24 33
-6.987239 3.418218 25.133955 18 39 32
-6.939459 3.419444 25.142967 17 20 29
-6.891501 3.420599 25.151463 30 38 44
-6.844482 3.422241 25.163538 17 34 37
-6.796369 3.423356 25.171736 42 43 33
-6.749658 3.425200 25.185291 42 18 33
-6.702593 3.426890 25.197720 41 28 15
-6.655056 3.428362 25.208546 36 33 27
-6.607037 3.429607 25.217699 18 24 18
-6.557260 3.429952 25.220232 42 22 37
-6.508656 3.430920 25.227350 35 30 29
-6.459832 3.431786 25.233717 28 17 17
-6.411790 3.433084 25.243267 42 39 30
-6.365140 3.435155 25.258492 26 29 21
-6.317812 3.436890 25.271250 25 33 44
-6.272994 3.440029 25.294331 39 20 22
-6.227611 3.442907 25.315493 35 16 20
-6.182196 3.445814 25.336870 37 44 29
-6.137389 3.449111 25.361113 34 22 29
-6.090085 3.451048 25.375353 43 19 32
-6.042640 3.452937 25.389242 43 25 44
-5.993181 3.453698 25.394836 30 35 40
-5.942796 3.453933 25.396563 30 35 40
-5.892930 3.454476 25.400560 30 35 40
-5.842521 3.454708 25.402266 30 35 40
-5.793619 3.455843 25.410610 30 35 40
-5.744943 3.457134 25.420103 30 35 40
-5.697028 3.458910 25.433159 30 35 40
-5.649445 3.460921 25.447950 30 35 40
-5.600679 3.462238 25.457634 30 35 40
-5.556204 3.466256 25.487175 43 43 21
-5.511862 3.470432 25.517879 120 120 120
-5.469447 3.475910 25.558165 120 120 120
-5.429600 3.483139 25.611319 120 120 120
-5.386670 3.488510 25.650808 34 28 28
-5.347505 3.496446 25.709160 40 16 28
-5.304361 3.501908 25.749325 19 42 16
-5.262091 3.508061 25.794565 38 18 42
-5.224885 3.517745 25.865768 41 30 27
-5.184304 3.525327 25.921522 28 19 29
-5.147911 3.535939 25.999552 34 15 43
-5.107287 3.543832 26.057589 30 32 36
-5.065123 3.550808 26.108883 26 27 25
-5.024457 3.558991 26.169048 18 42 20
-4.978358 3.563456 26.201885 40 19 29
-4.935141 3.570102 26.250750 30 25 19
-4.889669 3.575242 26.288546 21 20 38
-4.843537 3.580006 26.323570 37 23 15
-4.798719 3.585856 26.366590 43 16 26
-4.750560 3.589312 26.392002 23 26 29
-4.705869 3.595495 26.437466 33 22 26
-4.660063 3.600958 26.477631 22 20 41
-4.614388 3.606648 26.519472 41 39 29
-4.569925 3.613429 26.569334 32 17 20
-4.522027 3.617621 26.600157 21 42 39
-4.477327 3.624503 26.650757 27 18 37
-4.430785 3.630041 26.691477 34 43 27
-4.384477 3.635908 26.734617 30 26 19
-4.340246 3.643663 26.791643 38 28 39
-4.292878 3.648946 26.830486 28 19 23
-4.248760 3.657161 26.890888 21 25 21
-4.202096 3.663366 26.936514 29 39 29
-4.155746 3.670009 26.985361 34 42 44
-4.112023 3.679179 27.052784 26 19 27
-4.065046 3.685642 27.100306 26 18 35
-4.022395 3.696255 27.178343 25 42 27
-3.977606 3.705167 27.243876 17 21 17
-3.932572 3.714096 27.309528 40 34 31
-3.889173 3.724841 27.388540 39 17 22
-3.841171 3.731424 27.436939 17 26 43
-3.795712 3.740701 27.505157 41 36 26
-3.747497 3.747497 27.555126 34 31 24
-3.698440 3.753641 27.600298 41 34 25
-3.651188 3.761831 27.660519 29 38 33
-3.600859 3.767053 27.698917 15 22 28
-3.551207 3.773157 27.743801 32 16 20
-3.498784 3.776465 27.768126 19 25 18
-3.445683 3.779136 27.787767 20 32 31
-3.394184 3.783681 27.821184 42 31 21
-3.341413 3.786934 27.845104 29 38 23
-8.678925 3.421976 24.796928 18 15 40
-8.617462 3.417269 24.762821 31 42 15
-8.559495 3.413903 24.738426 22 42 15
-8.503205 3.411169 24.718618 21 27 25
-8.445426 3.407804 24.694229 31 15 23
-8.391447 3.405940 24.680725 17 32 21
-8.338125 3.404323 24.669010 28 24 42
-8.287098 3.403630 24.663982 24 18 23
-8.238480 3.403923 24.666107 22 37 19
-8.190441 3.404461 24.670004 25 35 43
-8.143114 3.405302 24.676102 31 32 37
-8.099032 3.407520 24.692171 25 31 36
-8.055145 3.409847 24.709034 34 41 32
-8.012290 3.412642 24.729290 27 17 30
-7.970546 3.415948 24.753248 22 28 41
-7.926144 3.418150 24.769201 36 15 19
-7.883564 3.421169 24.791082 33 34 28
-7.838969 3.423347 24.806864 18 35 25
-7.793679 3.425248 24.820635 16 28 43
-7.749514 3.427670 24.838186 38 18 18
-7.703090 3.429118 24.848679 17 30 28
-7.657308 3.430872 24.861391 41 41 18
-7.609584 3.431773 24.867922 36 32 28
-7.561849 3.432682 24.874504 16 30 44
-7.516078 3.434499 24.887676 36 25 20
-7.469634 3.436032 24.898781 15 15 35
-7.424988 3.438417 24.916067 19 18 28
-7.379136 3.440273 24.929514 34 20 19
-7.333360 3.442189 24.943401 23 31 15
-7.288744 3.444680 24.961452 38 37 20
-7.242302 3.446337 24.973455 25 41 15
-7.197214 3.448665 24.990326 35 26 36
-7.150632 3.450305 25.002209 30 39 31
-7.103871 3.451881 25.013630 41 25 24
-7.058385 3.454103 25.029734 29 28 30
-7.011426 3.455631 25.040808 33 28 15
-6.965572 3.457730 25.056013 19 37 22
-6.918319 3.459159 25.066372 19 22 41
-6.870924 3.460539 25.076366 26 16 42
-6.824622 3.462492 25.090521 40 30 23
-6.777061 3.463831 25.100225 18 42 42
-6.731121 3.466025 25.116121 24 19 37
-6.684715 3.468010 25.130508 26 16 19
-6.637778 3.469748 25.143099 25 36 44
-6.590392 3.471275 25.154169 29 35 30
-6.541001 3.471762 25.157696 25 41 24
-6.492790 3.472888 25.165854 25 17 41
-6.444247 3.473852 25.172838 32 38 15
-6.396346 3.475180 25.182465 31 33 30
-6.349785 3.477263 25.197561 26 29 30
-6.302476 3.478967 25.209906 31 40 33
-6.257472 3.481980 25.231741 21 40 26
-6.211875 3.484711 25.251526 34 18 34
-6.166180 3.487430 25.271231 40 39 27
-6.121055 3.490519 25.293617 15 23 29
-6.073596 3.492317 25.306648 24 31 36
-6.025887 3.494002 25.318853 17 30 22
-5.976230 3.494575 25.323008 30 35 40
-5.925740 3.494667 25.323675 30 35 40
-5.875811 3.495095 25.326773 30 35 40
-5.825513 3.495308 25.328316 30 35 40
-5.776772 3.496467 25.336718 30 35 40
-5.728302 3.497813 25.346470 30 35 40
-5.680637 3.499678 25.359985 30 35 40
-5.633307 3.501785 25.375256 30 35 40
-5.584769 3.503173 25.385315 30 35 40
-5.540543 3.507316 25.415333 17 31 33
-5.496444 3.511617 25.446499 120 120 120
-5.454217 3.517205 25.486994 120 120 120
-5.414473 3.524516 25.539968 120 120 120
-5.371593 3.529904 25.579012 17 44 40
-5.332407 3.537847 25.636570 28 27 36
-5.289242 3.543278 25.675930 36 39 31
-5.246984 3.549430 25.720510 38 35 44
-5.209837 3.559196 25.791273 15 19 41
-5.169408 3.566892 25.847042 36 28 16
-5.133270 3.577734 25.925606 25 26 43
-5.093002 3.585889 25.984705 19 20 19
-5.051155 3.593090 26.036880 30 19 16
-5.010670 3.601419 26.097240 26 32 44
-4.964627 3.605887 26.129614 21 21 18
-4.921232 3.612393 26.176764 16 42 20
-4.875538 3.617335 26.212572 30 20 30
-4.829087 3.621815 26.245037 30 37 19
-4.783884 3.627341 26.285076 22 28 36
-4.735525 3.630569 26.308470 41 23 37
-4.690459 3.636423 26.350893 40 40 31
-4.644371 3.641609 26.388474 16 27 44
-4.598500 3.647086 26.428162 36 19 28
-4.553857 3.653676 26.475912 42 27 25
-4.505997 3.657809 26.505865 22 18 29
-4.461471 3.664780 26.556376 17 27 29
-4.415266 3.670523 26.597990 24 28 21
-4.369348 3.676647 26.642368 35 16 32
-4.325390 3.684591 26.699938 34 22 22
-4.278195 3.689943 26.738716 34 17 31
-4.234276 3.698291 26.799213 43 22 15
-4.187833 3.704622 26.845085 41 15 31
-4.141695 3.711389 26.894121 17 28 22
-4.098174 3.720710 26.961668 30 44 24
-4.051381 3.727271 27.009209 19 44 41
-4.008830 3.737963 27.086687 34 41 17
-3.964084 3.746874 27.151260 35 31 42
-3.919087 3.755792 27.215885 18 42 19
-3.875768 3.766592 27.294144 24 18 43
-3.827928 3.773244 27.342344 16 39 35
-3.782627 3.782627 27.410337 29 32 25
-3.734679 3.789601 27.460875 31 44 29
-3.685748 3.795770 27.505579 31 27 42
-3.638270 3.803646 27.562649 33 39 18
-3.587620 3.808397 27.597076 33 17 15
-3.537663 3.814043 27.637993 31 37 44
-3.485231 3.817158 27.660563 17 19 18
-3.432245 3.819756 27.679392 29 15 34
-3.380802 3.824186 27.711494 39 28 16
-8.660629 3.464252 24.744656 33 37 35
-8.598554 3.459188 24.708488 44 20 31
-8.540289 3.455608 24.682917 27 16 16
-8.483922 3.452759 24.662563 20 43 29
-8.426305 3.449365 24.638319 32 34 17
-8.372722 3.447591 24.625652 41 36 37
-8.319675 3.446019 24.614422 35 36 41
-8.268725 3.445302 24.609301 27 22 34
-8.220071 3.445539 24.610992 25 37 36
-8.171979 3.446015 24.614395 18 32 33
-8.124619 3.446808 24.620058 22 26 25
-8.080434 3.448966 24.635469 40 26 18
-8.036494 3.451255 24.651821 21 15 24
-7.993556 3.454006 24.671469 26 31 23
-7.951585 3.457211 24.694363 20 21 19
-7.907025 3.459323 24.709452 37 26 28
-7.864316 3.462277 24.730553 35 44 18
-7.819749 3.464446 24.746040 39 40 20
-7.774605 3.466384 24.759888 29 20 20
-7.730626 3.468871 24.777647 38 43 44
-7.684423 3.470385 24.788462 42 20 18
-7.638898 3.472226 24.801617 20 28 40
-7.591356 3.473169 24.808353 28 33 44
-7.543828 3.474131 24.815224 39 36 40
