ply
format ascii 1.0
element vertex 1289
property float x
property float y
property float z
property uchar red
property uchar green
property uchar blue
end_header
7.199316 1.899819 24.997623 16 31 15
7.249170 1.899782 24.997137 17 30 40
7.299829 1.899955 24.999414 30 21 23
7.351342 1.900347 25.004566 39 15 21
7.402710 1.900696 25.009155 28 33 35
7.453016 1.900769 25.010120 37 25 29
7.502415 1.900612 25.008051 21 22 23
7.549052 1.899762 24.996862 15 35 31
7.595288 1.898822 24.984499 18 20 30
7.639561 1.897407 24.965887 32 23 39
7.681776 1.895503 24.940832 31 29 24
7.725629 1.894025 24.921383 32 21 38
7.764953 1.891463 24.887669 23 31 40
7.806519 1.889476 24.861525 37 36 37
7.846111 1.887039 24.829466 24 38 16
7.880667 1.883430 24.781971 22 34 43
7.918450 1.880632 24.745157 37 34 41
7.950437 1.876501 24.690798 30 21 40
7.986440 1.873362 24.649506 17 20 17
8.022730 1.870330 24.609600 39 42 21
8.055623 1.866547 24.559826 30 17 24
8.094531 1.864195 24.528883 20 42 19
8.128417 1.860722 24.483185 30 29 22
8.165396 1.857994 24.447294 24 22 31
8.203436 1.855539 24.414989 43 40 39
8.239357 1.852637 24.376797 28 20 37
8.280771 1.850996 24.355207 35 34 17
8.320061 1.848902 24.327663 20 25 35
8.364405 1.847950 24.315130 21 18 23
8.406791 1.846578 24.297085 21 15 18
8.440871 1.843409 24.255377 26 19 29
8.475609 1.840418 24.216024 34 17 24
8.502735 1.835818 24.155497 23 44 43
8.533297 1.832007 24.105360 26 33 33
4.764571 2.087846 26.767254 15 22 33
4.800039 2.080017 26.666883 35 26 15
4.832861 2.071226 26.554182 38 35 28
4.874198 2.066236 26.490204 27 35 22
4.919523 2.063026 26.449049 22 20 31
4.961787 2.058614 26.392487 34 39 29
5.009068 2.056354 26.363516 39 15 23
5.054427 2.053361 26.325142 23 26 31
5.103382 2.051875 26.306095 16 23 22
5.150832 2.049821 26.279757 19 40 36
5.192131 2.045385 26.222881 20 35 17
5.234130 2.041311 26.170650 26 29 21
5.269054 2.034585 26.084427 17 41 38
5.307280 2.029254 26.016081 22 22 25
5.343703 2.023344 25.940304 38 18 23
5.374907 2.015590 25.840900 28 36 42
5.412133 2.010221 25.772060 120 120 120
5.440802 2.001804 25.664160 120 120 120
5.472570 1.994675 25.572756 120 120 120
5.505973 1.988268 25.490616 33 42 37
5.537624 1.981352 25.401947 39 39 36
5.578428 1.977806 25.356489 22 17 34
5.619991 1.974591 25.315275 18 39 15
5.667128 1.973375 25.299677 34 38 20
5.718095 1.973502 25.301306 25 41 32
5.768244 1.973347 25.299314 16 28 38
5.819806 1.973673 25.303503 41 28 23
5.870810 1.973807 25.305214 34 31 15
5.921112 1.973704 25.303898 20 38 22
5.970862 1.973421 25.300264 15 25 25
6.020307 1.973042 25.295408 23 26 15
6.069907 1.972720 25.291279 42 26 16
6.117826 1.971861 25.280273 21 21 28
6.165666 1.970991 25.269121 32 33 37
6.212758 1.969899 25.255114 33 20 41
6.258786 1.968489 25.237041 31 31 36
6.306004 1.967473 25.224014 36 42 15
6.351934 1.966075 25.206089 30 35 40
6.399403 1.965171 25.194498 30 35 40
6.446646 1.964212 25.182209 30 35 40
6.492152 1.962744 25.163380 30 35 40
6.538829 1.961649 25.149343 30 35 40
6.582586 1.959701 25.124374 30 35 40
6.627207 1.958038 25.103056 30 35 40
6.671187 1.956213 25.079649 30 35 40
6.713350 1.953885 25.049812 30 35 40
6.758021 1.952317 25.029707 30 35 40
6.799940 1.949983 24.999779 30 35 40
6.843330 1.948101 24.975658 33 25 43
6.887400 1.946439 24.954350 24 44 34
6.930882 1.944636 24.931231 30 28 19
6.977538 1.943743 24.919779 37 27 25
7.022435 1.942376 24.902250 15 24 41
7.067734 1.941138 24.886389 37 43 41
7.114097 1.940208 24.874466 16 26 17
7.161061 1.939454 24.864794 43 15 29
7.210331 1.939330 24.863209 24 38 15
7.260315 1.939399 24.864094 22 27 35
7.311308 1.939735 24.868393 35 20 20
7.362187 1.940036 24.872253 35 34 43
7.411817 1.940006 24.871870 38 38 43
7.460623 1.939762 24.868742 34 38 36
7.506781 1.938837 24.856890 20 35 37
7.552666 1.937855 24.844296 34 39 33
7.596873 1.936458 24.826382 34 27 39
7.639273 1.934621 24.802834 26 32 40
7.683374 1.933236 24.785078 43 31 24
7.723372 1.930843 24.754398 32 19 16
7.765462 1.929000 24.730772 27 18 19
7.805732 1.926731 24.701685 37 22 35
7.841312 1.923341 24.658213 33 40 17
7.879788 1.920698 24.624338 35 17 30
7.912849 1.916777 24.574066 25 23 16
7.949572 1.913786 24.535717 44 23 21
7.986513 1.910883 24.498505 17 40 18
8.020277 1.907261 24.452063 34 23 35
8.059616 1.905000 24.423079 20 32 39
8.094405 1.901698 24.380739 29 28 17
8.132096 1.899112 24.347591 21 18 23
8.170931 1.896823 24.318247 44 28 38
8.207988 1.894151 24.283987 31 17 17
8.250152 1.892682 24.265152 40 28 20
8.290388 1.890790 24.240900 23 29 36
8.335411 1.890006 24.230844 29 25 42
8.378066 1.888697 24.214064 19 28 34
8.412014 1.885451 24.172455 38 36 35
8.446135 1.882281 24.131813 23 25 31
8.472739 1.877482 24.070282 42 38 40
8.503101 1.873565 24.020060 15 42 36
4.752810 2.136094 26.701178 16 30 19
4.788517 2.128230 26.602875 34 43 34
4.821509 2.119344 26.491806 42 21 23
4.862846 2.114281 26.428513 31 17 36
4.907894 2.110922 26.386524 21 16 21
4.949800 2.106298 26.328722 44 25 15
4.996658 2.103856 26.298203 44 16 28
5.041303 2.100543 26.256786 20 17 21
5.089662 2.098829 26.235369 16 17 20
5.136293 2.096446 26.205574 22 43 31
5.176227 2.091405 26.142563 28 43 18
5.216979 2.086792 26.084894 16 29 44
5.250838 2.079540 25.994249 39 20 27
5.288694 2.073998 25.924973 31 23 23
5.325090 2.067996 25.849951 37 16 25
5.356121 2.060046 25.750580 22 19 30
5.393225 2.054562 25.682022 120 120 120
5.421861 2.045985 25.574814 120 120 120
5.453551 2.038711 25.483883 120 120 120
5.486983 2.032216 25.402700 42 19 18
5.518834 2.025260 25.315750 34 34 40
5.559813 2.021750 25.271877 42 23 30
5.601646 2.018611 25.232637 34 30 42
5.648960 2.017486 25.218571 33 40 24
5.699971 2.017689 25.221111 39 30 23
5.750000 2.017544 25.219299 36 21 32
5.801228 2.017819 25.222733 26 16 18
5.852024 2.017939 25.224239 27 29 35
5.902304 2.017882 25.223520 36 28 32
5.952052 2.017645 25.220560 32 18 28
6.001363 2.017265 25.215813 34 42 17
6.050734 2.016911 25.211393 35 37 22
6.098444 2.016014 25.200180 15 20 33
6.146120 2.015121 25.189018 39 36 28
6.193066 2.014005 25.175066 35 24 24
6.238910 2.012552 25.156897 20 41 44
6.285937 2.011500 25.143749 25 28 35
6.331669 2.010054 25.125669 30 35 40
6.378929 2.009112 25.113895 30 35 40
6.425995 2.008123 25.101542 30 35 40
6.471362 2.006624 25.082798 30 35 40
6.517927 2.005516 25.068951 30 35 40
6.561597 2.003541 25.044264 30 35 40
6.606138 2.001860 25.023249 30 35 40
6.650006 2.000002 25.000023 30 35 40
6.692028 1.997620 24.970253 30 35 40
6.736508 1.996003 24.950031 30 35 40
6.778153 1.993574 24.919680 30 35 40
6.821236 1.991602 24.895023 15 37 30
6.864975 1.989848 24.873096 15 29 25
6.908159 1.987959 24.849493 38 29 38
6.954600 1.987029 24.837856 41 39 37
6.999067 1.985551 24.819386 33 25 22
7.043869 1.984188 24.802355 27 37 15
7.089670 1.983125 24.789057 31 31 31
7.136041 1.982234 24.777920 32 37 42
7.184882 1.982036 24.775455 25 16 19
7.234338 1.982010 24.775129 37 22 33
7.284910 1.982288 24.778605 38 24 32
7.335377 1.982534 24.781679 20 40 30
7.384455 1.982404 24.780050 20 24 32
7.432800 1.982080 24.775999 36 25 15
7.478563 1.981076 24.763453 44 42 31
7.524198 1.980052 24.750650 17 24 16
7.568352 1.978654 24.733175 30 42 22
7.610832 1.976840 24.710495 17 42 18
7.655061 1.975500 24.693745 34 25 40
7.695460 1.973195 24.664936 20 39 39
7.737853 1.971427 24.642843 34 23 37
7.778554 1.969254 24.615677 23 15 15
7.814811 1.965990 24.574877 36 22 40
7.853760 1.963440 24.543001 37 24 20
7.887544 1.959638 24.495480 27 15 31
7.924748 1.956728 24.459099 26 38 42
7.962137 1.953899 24.423733 39 42 20
7.996538 1.950375 24.379688 25 29 17
8.036228 1.948176 24.352205 35 35 17
8.071690 1.944986 24.312319 44 23 38
8.109918 1.942495 24.281191 17 21 15
8.149318 1.940314 24.253922 23 23 43
8.187218 1.937803 24.222540 44 34 19
8.229951 1.936459 24.205738 25 26 22
8.270848 1.934701 24.183767 20 35 31
8.316320 1.934028 24.175348 27 35 41
8.359059 1.932730 24.159130 40 26 21
8.392698 1.929356 24.116949 27 18 35
8.426163 1.925980 24.074751 32 15 40
8.452278 1.920972 24.012154 18 16 33
8.482541 1.916958 23.961979 30 41 26
4.771342 2.173611 26.507456 16 35 16
4.804561 2.164692 26.398685 32 34 38
4.845776 2.159530 26.335737 19 18 40
4.890240 2.155912 26.291611 24 34 32
4.931471 2.150961 26.231230 29 32 44
4.977633 2.148242 26.198069 25 29 16
5.020981 2.144377 26.150944 41 21 37
5.068018 2.142152 26.123804 41 29 41
5.113208 2.139199 26.087797 44 41 26
5.151492 2.133446 26.017635 42 41 26
5.191100 2.128351 25.955500 32 23 17
5.223962 2.120618 25.861197 22 28 43
5.261388 2.114872 25.791119 26 33 42
5.297658 2.108776 25.716785 20 40 43
5.328371 2.100608 25.617170 20 22 43
5.365175 2.094973 25.548454 120 120 120
5.393758 2.086265 25.442253 120 120 120
5.425488 2.078925 25.352749 120 120 120
5.459130 2.072448 25.273752 30 31 32
5.491372 2.065562 25.189781 38 40 21
5.532629 2.062162 25.148314 16 23 41
5.574839 2.059175 25.111887 35 37 41
5.622401 2.058200 25.100002 25 42 30
5.673401 2.058491 25.103546 20 23 28
5.723083 2.058302 25.101240 16 23 35
5.773652 2.058432 25.102833 42 15 23
5.823966 2.058471 25.103300 17 31 17
5.874141 2.058460 25.103167 27 22 36
5.923861 2.058291 25.101105 30 29 32
5.972949 2.057907 25.096426 30 42 25
6.021980 2.057510 25.091581 29 38 36
6.069366 2.056562 25.080027 33 34 39
6.116808 2.055648 25.068884 16 30 26
6.163527 2.054509 25.054987 44 32 18
6.209105 2.053010 25.036713 42 41 23
6.255854 2.051920 25.023415 30 35 40
6.301274 2.050414 25.005054 30 35 40
6.348212 2.049423 24.992960 30 35 40
6.394975 2.048390 24.980371 30 35 40
6.440087 2.046849 24.961576 30 35 40
6.486441 2.045724 24.947851 30 35 40
6.529935 2.043720 24.923416 30 35 40
6.574298 2.042017 24.902645 30 35 40
6.617967 2.040125 24.879576 30 35 40
6.659743 2.037683 24.849787 30 35 40
6.703939 2.036011 24.829403 30 35 40
6.745176 2.033472 24.798441 30 35 40
6.787838 2.031397 24.773132 30 35 40
6.831107 2.029532 24.750389 33 44 20
6.873823 2.027530 24.725981 26 40 39
6.919882 2.026537 24.713865 35 39 28
6.963727 2.024913 24.694067 38 38 37
7.007884 2.023403 24.675648 15 15 26
7.052944 2.022173 24.660643 38 41 36
7.098469 2.021092 24.647463 31 24 21
7.146645 2.020776 24.643604 40 26 20
7.195312 2.020601 24.641479 26 27 37
7.245277 2.020792 24.643799 26 43 33
7.295166 2.020958 24.645830 30 42 18
7.343458 2.020683 24.642477 37 40 15
7.391146 2.020246 24.637152 44 38 37
7.436434 2.019164 24.623953 29 23 36
7.481807 2.018119 24.611208 39 44 28
7.526004 2.016772 24.594784 39 26 16
7.568750 2.015057 24.573862 43 34 21
7.613262 2.013830 24.558908 28 29 16
7.654399 2.011733 24.533331 22 22 44
7.697367 2.010140 24.513906 23 42 38
7.738818 2.008174 24.489929 29 25 23
7.776254 2.005198 24.453630 43 30 27
7.816040 2.002860 24.425125 40 29 20
7.850981 1.999318 24.381927 31 23 34
7.888875 1.996567 24.348379 25 38 21
7.926825 1.993864 24.315414 26 27 34
7.962012 1.990503 24.274426 43 38 29
8.002078 1.988395 24.248720 40 33 36
8.038243 1.985349 24.211575 29 19 16
8.076953 1.982965 24.182495 22 37 43
8.116885 1.980906 24.157396 37 29 25
8.155759 1.978616 24.129465 37 29 24
8.199245 1.977465 24.115425 34 32 38
8.240439 1.975778 24.094851 22 40 26
8.285376 1.975002 24.085396 29 36 42
8.327328 1.973529 24.067423 23 25 25
8.360597 1.970026 24.024704 39 30 34
8.393964 1.966586 23.982756 34 37 44
8.420124 1.961506 23.920807 28 19 37
4.758534 2.220649 26.436298 22 24 20
4.791676 2.211543 26.327888 20 37 18
4.832728 2.206245 26.264826 26 15 24
4.876739 2.202398 26.219027 19 30 20
4.917428 2.197149 26.156532 40 22 39
4.963071 2.194200 26.121424 34 38 34
5.005318 2.189827 26.069366 31 31 43
5.051090 2.187070 26.036545 26 18 25
5.095032 2.183585 25.995062 25 31 26
5.132302 2.177340 25.920715 27 36 26
5.171492 2.172026 25.857458 29 34 35
5.203954 2.164021 25.762150 19 18 16
5.241101 2.158101 25.691673 26 27 22
5.277192 2.151865 25.617435 37 30 39
5.307612 2.143459 25.517365 15 35 15
5.344128 2.137651 25.448231 120 120 120
5.372634 2.128779 25.342611 120 120 120
5.404420 2.121361 25.254301 120 120 120
5.438245 2.114873 25.177061 19 28 15
5.470759 2.107999 25.095224 23 35 21
5.512163 2.104644 25.055286 37 30 26
5.554605 2.101743 25.020744 26 41 39
5.602346 2.100880 25.010473 26 25 22
5.653297 2.101226 25.014589 30 28 30
5.702588 2.100953 25.011349 15 30 37
5.752521 2.100921 25.010960 22 18 32
5.802348 2.100850 25.010120 24 40 27
5.852412 2.100866 25.010307 43 40 33
5.902114 2.100753 25.008959 16 20 36
5.951029 2.100363 25.004324 25 19 35
5.999809 2.099933 24.999205 20 37 39
6.046960 2.098945 24.987436 39 22 31
6.094214 2.098008 24.976288 35 34 38
6.140754 2.096843 24.962414 44 27 37
6.186134 2.095304 24.944090 20 19 18
6.232687 2.094183 24.930746 21 43 27
6.277869 2.092623 24.912180 30 35 40
6.324550 2.091584 24.899805 30 35 40
6.371062 2.090505 24.886959 30 35 40
6.415941 2.088911 24.867987 30 35 40
6.462104 2.087757 24.854246 30 35 40
6.505407 2.085703 24.829796 30 35 40
6.549595 2.083962 24.809071 30 35 40
6.593074 2.082023 24.785992 30 35 40
6.634609 2.079504 24.756004 30 35 40
6.678544 2.077769 24.735348 30 35 40
6.719434 2.075119 24.703800 30 35 40
6.761744 2.072943 24.677898 37 30 33
6.804619 2.070971 24.654417 36 21 34
6.846890 2.068844 24.629101 19 26 37
6.892590 2.067777 24.616394 19 19 36
6.935931 2.066022 24.595501 41 41 27
6.979627 2.064397 24.576151 31 15 36
7.024180 2.063046 24.560070 33 25 44
7.069029 2.061800 24.545238 16 18 24
7.116630 2.061369 24.540104 33 22 33
7.164625 2.061056 24.536386 42 24 26
7.214080 2.061166 24.537685 17 18 26
7.263508 2.061266 24.538879 23 37 18
7.311183 2.060870 24.534172 24 43 18
7.358355 2.060339 24.527849 29 22 26
7.403319 2.059201 24.514301 28 21 37
7.448533 2.058147 24.501753 32 22 34
7.492851 2.056861 24.486441 27 42 19
7.535926 2.055253 24.467293 35 34 44
7.580736 2.054135 24.453987 24 21 15
7.622605 2.052240 24.431427 15 23 16
7.666138 2.050814 24.414452 38 29 20
7.708293 2.049040 24.393332 18 19 31
7.746808 2.046327 24.361032 19 18 15
7.787356 2.044181 24.335487 33 24 33
7.823285 2.040857 24.295916 28 28 26
7.861754 2.038233 24.264673 41 39 42
7.900098 2.035608 24.233431 16 26 27
7.935805 2.032340 24.194529 17 33 25
7.976064 2.030271 24.169891 28 35 41
8.012583 2.027280 24.134285 22 33 38
8.051451 2.024916 24.106140 43 15 24
8.091638 2.022910 24.082256 43 32 22
8.131370 2.020814 24.057306 27 30 41
8.175698 2.019878 24.046171 34 27 19
8.216860 2.018176 24.025908 44 30 26
8.260479 2.017094 24.013020 36 25 20
8.301023 2.015277 23.991396 28 34 16
8.334039 2.011665 23.948389 44 18 21
8.367988 2.008317 23.908537 37 30 33
8.394764 2.003296 23.848761 16 26 32
4.745747 2.267413 26.365263 36 17 15
4.779152 2.258281 26.259079 28 17 32
4.819965 2.252810 26.195459 22 25 39
4.863284 2.248615 26.146687 24 18 18
4.903259 2.242980 26.081165 27 19 16
4.948265 2.239741 26.043499 16 20 21
4.989263 2.234774 25.985744 26 22 15
5.033567 2.231375 25.946222 42 38 39
5.076211 2.227317 25.899035 21 35 26
5.112680 2.220659 25.821615 35 20 25
5.151817 2.215281 25.759087 26 33 31
5.184205 2.207137 25.664383 16 41 44
5.221195 2.201092 25.594091 33 16 34
5.257123 2.194721 25.520014 40 30 41
5.287251 2.186075 25.419477 24 44 22
5.323414 2.180065 25.349588 120 120 120
5.351906 2.171056 25.244841 120 120 120
5.383935 2.163637 25.158575 120 120 120
5.418173 2.157235 25.084133 15 37 28
5.451150 2.150454 25.005274 24 27 17
5.492822 2.147194 24.967375 28 38 39
5.535561 2.144406 24.934958 26 26 27
5.583472 2.143655 24.926216 40 40 37
5.634326 2.144036 24.930647 22 33 27
5.683198 2.143662 24.926306 26 31 36
5.732477 2.143448 24.923811 23 30 43
5.781769 2.143242 24.921417 41 40 41
5.831675 2.143265 24.921690 28 23 22
5.881319 2.143193 24.920845 42 36 24
5.930024 2.142782 24.916067 31 15 29
5.978547 2.142313 24.910612 30 22 32
6.025456 2.141278 24.898577 34 38 22
6.072530 2.140318 24.887419 28 43 41
6.118898 2.139127 24.873568 21 25 24
6.164086 2.137546 24.855185 26 44 22
6.210433 2.136389 24.841730 30 35 40
6.255372 2.134770 24.822905 30 35 40
6.301789 2.133677 24.810192 30 35 40
6.348036 2.132543 24.797014 30 35 40
6.392678 2.130893 24.777822 30 35 40
6.438653 2.129708 24.764050 30 35 40
6.481762 2.127601 24.739548 30 35 40
6.525773 2.125820 24.718836 30 35 40
6.569072 2.123835 24.695761 30 35 40
6.610405 2.121249 24.665689 30 35 40
6.654136 2.119466 24.644949 30 35 40
6.694779 2.116732 24.613159 30 35 40
6.736841 2.114483 24.587009 15 41 43
6.779434 2.112432 24.563166 44 36 19
6.821379 2.110211 24.537334 30 35 40
6.866770 2.109079 24.524178 26 32 30
6.909698 2.107213 24.502476 24 36 31
6.953026 2.105494 24.482485 44 44 41
6.997155 2.104040 24.465576 43 22 38
7.041448 2.102655 24.449472 15 38 44
7.088560 2.102125 24.443310 26 19 31
7.136006 2.101700 24.438375 44 32 42
7.185057 2.101751 24.438969 24 20 39
7.234122 2.101806 24.439602 24 20 28
7.281298 2.101314 24.433887 23 19 26
7.328041 2.100705 24.426804 27 19 20
7.372770 2.099530 24.413145 32 28 36
7.417932 2.098494 24.401091 43 24 40
7.462428 2.097284 24.387018 41 31 19
7.505827 2.095783 24.369568 21 39 26
7.550914 2.094770 24.357788 27 30 40
7.593434 2.093062 24.337929 28 30 30
7.637484 2.091795 24.323196 15 23 42
7.680295 2.090207 24.304729 19 42 20
7.719814 2.087749 24.276146 27 27 19
7.761095 2.085794 24.253422 23 29 15
7.797904 2.082670 24.217093 38 31 23
7.836841 2.080149 24.187782 29 25 42
7.875452 2.077573 24.157829 33 19 44
7.911550 2.074370 24.120581 40 38 25
7.951924 2.072320 24.096741 30 17 41
7.988620 2.069341 24.062107 17 27 34
8.027526 2.066968 24.034508 34 29 23
8.067710 2.064950 24.011042 24 21 31
8.107688 2.062903 23.987244 39 39 18
8.152239 2.062037 23.977173 33 26 18
8.192761 2.060168 23.955441 33 29 42
8.234736 2.058684 23.938187 31 37 22
8.273799 2.056493 23.912714 16 21 29
8.306643 2.052791 23.869665 22 22 40
8.341429 2.049608 23.832655 19 41 22
8.369031 2.044707 23.775658 28 35 28
4.728914 2.311914 26.271746 23 28 41
4.763528 2.303244 26.173231 34 35 25
4.803958 2.297545 26.108469 28 38 18
4.846000 2.292731 26.053762 32 34 39
4.884893 2.286546 25.983475 26 43 21
4.929015 2.282912 25.942186 16 27 20
4.968413 2.277189 25.877151 36 19 23
5.010952 2.273009 25.829649 23 30 34
5.052024 2.268256 25.775633 24 15 40
5.087400 2.261066 25.693937 18 33 36
5.126298 2.255571 25.631491 20 43 37
5.158540 2.247285 25.537327 19 44 40
5.195462 2.241180 25.467949 15 43 39
5.231330 2.234743 25.394804 39 28 42
5.261082 2.225843 25.293665 38 22 43
5.296696 2.219568 25.222361 120 120 120
5.325198 2.210460 25.118860 120 120 120
5.357662 2.203151 25.035803 120 120 120
5.392622 2.196994 24.965843 18 42 16
5.426420 2.190481 24.891834 26 35 21
5.468583 2.187433 24.857195 36 34 17
5.511846 2.184876 24.828136 40 37 29
5.560021 2.184294 24.821522 38 19 16
5.610762 2.184722 24.826382 21 16 38
5.659177 2.184244 24.820953 24 25 38
5.707702 2.183816 24.816095 38 41 23
5.756384 2.183456 24.812000 28 24 27
5.806082 2.183484 24.812317 34 33 42
5.855629 2.183455 24.811989 33 17 44
5.904049 2.183010 24.806927 26 33 21
5.952231 2.182485 24.800964 42 25 32
5.998836 2.181395 24.788578 35 25 18
6.045706 2.180419 24.777485 43 30 15
6.091882 2.179210 24.763746 35 44 27
6.136823 2.177582 24.745255 30 35 40
6.182907 2.176383 24.731627 30 35 40
6.227529 2.174693 24.712416 30 35 40
6.273614 2.173535 24.699266 30 35 40
6.319539 2.172342 24.685699 30 35 40
6.363900 2.170633 24.666281 30 35 40
6.409659 2.169423 24.652534 30 35 40
6.452561 2.167272 24.628094 30 35 40
6.496374 2.165458 24.607479 30 35 40
6.539491 2.163440 24.584551 30 35 40
6.580644 2.160808 24.554642 30 35 40
6.624183 2.158993 24.534012 30 35 40
6.664624 2.156202 24.502295 30 35 40
6.706485 2.153907 24.476221 30 35 40
6.748840 2.151804 24.452318 30 35 40
6.790519 2.149517 24.426329 30 35 40
6.835648 2.148346 24.413027 30 35 40
6.878157 2.146375 24.390627 30 35 40
6.921020 2.144541 24.369787 30 35 40
6.964629 2.142963 24.351849 40 20 35
7.008346 2.141439 24.334534 20 20 19
7.054993 2.140825 24.327560 20 41 17
7.101945 2.140312 24.321730 36 24 36
7.150635 2.140326 24.321888 18 40 24
7.199362 2.140351 24.322170 39 22 26
7.246046 2.139772 24.315590 29 36 19
7.292309 2.139077 24.307697 35 18 19
7.336814 2.137880 24.294086 25 44 33
7.381952 2.136881 24.282736 17 26 31
7.426648 2.135768 24.270090 27 34 38
7.470349 2.134385 24.254379 28 33 31
7.515620 2.133466 24.243937 24 39 24
7.558724 2.131948 24.226681 30 35 21
7.603236 2.130843 24.214127 25 40 18
7.646686 2.129457 24.198372 43 33 43
7.687242 2.127287 24.173716 16 40 29
7.729300 2.125557 24.154062 43 35 44
7.767033 2.122667 24.121220 40 44 25
7.806409 2.120259 24.093855 41 27 28
7.845282 2.117745 24.065283 20 43 30
7.881841 2.114640 24.030003 28 23 31
7.922406 2.112642 24.007290 15 17 43
7.959442 2.109732 23.974224 34 26 20
7.998745 2.107454 23.948338 34 23 42
8.038980 2.105447 23.925535 32 40 40
8.078513 2.103282 23.900927 41 24 42
8.122253 2.102230 23.888979 27 44 29
8.161509 2.100037 23.864061 27 28 25
8.202098 2.098211 23.843309 15 39 22
8.240152 2.095761 23.815468 24 20 37
8.272830 2.091980 23.772499 39 30 38
8.308210 2.088921 23.737743 38 35 23
8.336448 2.084112 23.683092 43 43 36
4.753805 2.350783 26.119808 18 19 42
4.793910 2.344847 26.053858 32 23 32
4.834782 2.339411 25.993450 35 20 18
4.872800 2.332723 25.919149 33 19 19
4.916267 2.328758 25.875092 38 21 36
4.954551 2.322446 25.804951 34 42 39
4.995910 2.317690 25.752115 20 44 18
5.035987 2.312443 25.693810 36 42 37
5.070697 2.304862 25.609579 36 28 25
5.109506 2.299278 25.547529 36 42 26
5.141769 2.290887 25.454302 15 34 22
5.178772 2.284752 25.386137 18 37 39
5.214702 2.278268 25.314085 23 33 21
5.244202 2.269126 25.212507 15 41 30
5.279366 2.262585 25.139837 120 120 120
5.307907 2.253357 25.037298 120 120 120
5.340794 2.246128 24.956982 120 120 120
5.376428 2.240178 24.890869 32 35 29
5.410963 2.233884 24.820932 28 27 23
5.453585 2.231012 24.789024 20 23 43
5.497296 2.228634 24.762596 42 19 25
5.545670 2.228171 24.757456 44 31 34
5.596330 2.228627 24.762522 21 24 23
5.644478 2.228083 24.756481 16 33 44
5.692540 2.227516 24.750174 19 15 27
5.740829 2.227046 24.744951 31 27 42
5.790379 2.227069 24.745211 35 29 24
5.839839 2.227057 24.745081 39 28 42
5.888051 2.226574 24.739710 16 31 32
5.936003 2.226001 24.733347 36 38 31
5.982416 2.224865 24.720726 16 25 43
6.029168 2.223873 24.709705 37 31 16
6.075234 2.222647 24.696074 16 35 30
6.120020 2.220975 24.677500 30 35 40
6.165933 2.219736 24.663731 30 35 40
6.210340 2.217979 24.644207 30 35 40
6.256215 2.216769 24.630766 30 35 40
6.301929 2.215522 24.616909 30 35 40
6.346117 2.213762 24.597353 30 35 40
6.391747 2.212528 24.583641 30 35 40
6.434534 2.210336 24.559292 30 35 40
6.478230 2.208487 24.538750 30 35 40
6.521251 2.206438 24.515980 30 35 40
6.562337 2.203770 24.486334 30 35 40
6.605809 2.201936 24.465958 30 35 40
6.646224 2.199118 24.434647 30 35 40
6.688044 2.196803 24.408918 30 35 40
6.730350 2.194679 24.385324 30 35 40
6.771990 2.192371 24.359676 30 35 40
6.817032 2.191189 24.346542 30 35 40
6.859357 2.189156 24.323959 30 35 40
6.901962 2.187241 24.302683 30 35 40
6.945271 2.185575 24.284164 30 35 40
6.988727 2.183977 24.266413 21 39 29
7.035188 2.183334 24.259270 22 34 33
7.081981 2.182802 24.253359 15 17 18
7.130552 2.182822 24.253578 17 26 21
7.179161 2.182853 24.253922 16 36 23
7.225647 2.182243 24.247139 16 33 24
7.271671 2.181501 24.238905 25 30 27
7.316103 2.180296 24.225506 42 35 37
7.361292 2.179330 24.214777 38 24 41
7.406135 2.178275 24.203054 28 23 20
7.449964 2.176937 24.188194 17 33 31
7.495262 2.176044 24.178265 19 32 37
7.538589 2.174593 24.162146 20 41 31
7.583284 2.173553 24.150585 31 41 38
7.627027 2.172255 24.136162 37 32 33
7.668104 2.170218 24.113533 30 27 39
7.710569 2.168597 24.095528 40 38 17
7.748757 2.165802 24.064463 28 44 39
7.788310 2.163419 24.037992 15 36 27
7.827264 2.160901 24.010012 35 28 19
7.864042 2.157816 23.975739 16 22 35
7.904726 2.155834 23.953716 26 27 33
7.941990 2.152949 23.921658 38 44 36
7.981705 2.150759 23.897320 26 37 17
8.021921 2.148729 23.874765 41 37 16
8.060510 2.146290 23.847664 38 27 39
8.102867 2.144876 23.831961 42 16 35
8.140799 2.142316 23.803507 41 39 44
8.180726 2.140306 23.781179 33 24 27
8.218542 2.137771 23.753012 16 38 23
8.251177 2.133925 23.710278 22 19 15
8.286791 2.130889 23.676546 27 37 24
4.736843 2.394448 26.026608 29 15 36
4.777007 2.388504 25.961996 38 24 27
4.817112 2.382658 25.898453 35 22 31
4.854167 2.375443 25.820036 32 20 40
4.896551 2.370961 25.771320 23 21 19
4.933259 2.363853 25.694056 33 19 39
4.973115 2.358385 25.634615 22 30 34
5.011961 2.352553 25.571228 25 41 23
5.045865 2.344544 25.484169 15 30 16
5.084581 2.338907 25.422907 38 43 23
5.116714 2.330385 25.330269 22 29 17
5.153417 2.324090 25.261850 44 33 24
5.189137 2.317479 25.189985 34 29 19
5.218505 2.308185 25.088964 40 17 27
5.253562 2.301560 25.016960 120 120 120
5.282579 2.292440 24.917824 120 120 120
5.316137 2.285442 24.841763 120 120 120
5.352643 2.279829 24.780754 28 30 38
5.388195 2.273917 24.716490 28 30 16
5.431416 2.271319 24.688255 43 22 26
5.475587 2.269162 24.664806 30 19 38
5.523934 2.268758 24.660418 38 16 24
5.574241 2.269160 24.664785 37 16 22
5.622048 2.268546 24.658106 20 15 26
5.669695 2.267878 24.650848 28 33 38
5.717556 2.267307 24.644636 19 28 18
5.766782 2.267282 24.644369 25 17 33
5.815934 2.267228 24.643787 25 27 27
5.863752 2.266660 24.637613 17 39 15
5.911348 2.266017 24.630615 39 24 27
5.957419 2.264804 24.617434 35 28 29
6.003940 2.263781 24.606312 36 34 42
6.049809 2.262530 24.592720 30 35 40
6.094313 2.260794 24.573843 30 35 40
6.139930 2.259494 24.559719 30 35 40
6.184017 2.257657 24.539751 30 35 40
6.229565 2.256378 24.525848 30 35 40
6.275008 2.255081 24.511749 30 35 40
6.318993 2.253284 24.492222 30 35 40
6.364484 2.252048 24.478785 30 35 40
6.407241 2.249871 24.455120 30 35 40
6.450889 2.248037 24.435186 30 35 40
6.493921 2.246018 24.413239 30 35 40
6.535126 2.243402 24.384800 30 35 40
6.578652 2.241615 24.365377 30 35 40
6.619293 2.238878 24.335634 30 35 40
6.661283 2.236635 24.311251 30 35 40
6.703751 2.234584 24.288952 30 35 40
6.745593 2.232355 24.264725 30 35 40
6.790664 2.231218 24.252371 30 35 40
6.832955 2.229191 24.230335 30 35 40
6.875319 2.227216 24.208868 30 35 40
6.918345 2.225482 24.190018 30 35 40
6.961670 2.223867 24.172464 32 29 34
7.008053 2.223244 24.165699 19 35 23
7.054846 2.222760 24.160431 28 30 42
7.103418 2.222838 24.161287 35 20 39
7.152019 2.222925 24.162226 35 36 19
7.198436 2.222336 24.155827 28 17 16
7.244278 2.221579 24.147594 32 17 33
7.288713 2.220403 24.134811 41 16 22
7.334012 2.219504 24.125038 33 25 22
7.379015 2.218528 24.114429 21 22 39
7.422973 2.217252 24.100561 27 43 29
7.468245 2.216382 24.091112 44 40 16
7.511767 2.215008 24.076176 28 35 20
7.556659 2.214053 24.065794 20 39 33
7.600695 2.212861 24.052832 37 18 29
7.642281 2.210974 24.032331 15 27 24
7.685103 2.209467 24.015947 36 20 30
7.723666 2.206762 23.986542 33 32 44
7.763306 2.204396 23.960821 27 26 37
7.802223 2.201854 23.933201 16 43 16
7.839165 2.198790 23.899895 26 22 29
7.879964 2.196838 23.878677 43 31 25
7.916880 2.193834 23.846025 26 21 17
7.956062 2.191490 23.820545 25 22 44
7.995204 2.189163 23.795250 21 19 44
8.031890 2.186195 23.762987 37 28 23
8.072375 2.184290 23.742279 25 21 44
8.108711 2.181291 23.709681 36 31 27
8.148035 2.179126 23.686148 28 44 25
8.185905 2.176599 23.658684 17 24 19
8.218780 2.172781 23.617184 16 19 28
8.254856 2.169848 23.585302 20 35 18
4.763084 2.433314 25.886324 31 21 26
4.803371 2.427510 25.824575 33 31 26
4.839910 2.419955 25.744200 21 37 31
4.881294 2.414956 25.691019 18 28 21
4.916696 2.407133 25.607794 30 32 32
4.955457 2.401098 25.543592 30 17 15
4.993434 2.394810 25.476706 37 18 28
5.026792 2.386457 25.387836 34 38 21
5.065480 2.380775 25.327398 21 30 21
5.097377 2.372047 25.234541 30 33 41
5.133491 2.365432 25.164173 41 34 16
5.168795 2.358576 25.091236 18 23 33
5.198260 2.349214 24.991634 36 29 29
5.233700 2.342704 24.922382 120 120 120
5.263461 2.333799 24.827646 120 120 120
5.297632 2.326997 24.755289 120 120 120
5.334771 2.321613 24.698015 18 30 27
5.371140 2.315996 24.638258 20 31 23
5.414834 2.313611 24.612881 24 34 39
5.459244 2.311572 24.591188 31 31 43
5.507312 2.311104 24.586216 28 25 33
5.557140 2.311377 24.589115 29 39 42
5.604721 2.310718 24.582111 23 40 28
5.652276 2.310061 24.575113 42 30 44
5.699917 2.309449 24.568609 37 43 42
5.748842 2.309364 24.567701 16 43 29
5.797635 2.309227 24.566250 21 43 33
5.845078 2.308560 24.559153 40 21 26
5.892374 2.307847 24.551559 27 43 16
5.938146 2.306552 24.537792 17 44 16
5.984463 2.305490 24.526487 36 41 26
6.030149 2.304203 24.512802 38 16 31
6.074395 2.302391 24.493526 30 35 40
6.119776 2.301036 24.479103 30 35 40
6.163602 2.299121 24.458738 30 35 40
6.208896 2.297780 24.444473 30 35 40
6.254151 2.296446 24.430277 30 35 40
6.298020 2.294627 24.410931 30 35 40
6.343446 2.293400 24.397869 30 35 40
6.386261 2.291254 24.375042 30 35 40
6.429941 2.289449 24.355837 36 20 23
6.473078 2.287479 24.334881 19 41 31
6.514497 2.284935 24.307823 27 43 25
6.558149 2.283208 24.289442 30 35 40
6.599111 2.280575 24.261436 30 35 40
6.641369 2.278426 24.238573 30 35 40
6.684098 2.276468 24.217745 30 35 40
6.726298 2.274360 24.195316 30 35 40
6.771539 2.273302 24.184067 30 35 40
6.813958 2.271319 24.162971 30 35 40
6.856215 2.269311 24.141602 30 35 40
6.899107 2.267539 24.122751 30 35 40
6.942492 2.265952 24.105875 24 22 35
6.988951 2.265384 24.099833 27 21 29
7.035936 2.264993 24.095671 20 17 26
7.084644 2.265158 24.097427 39 30 39
7.133356 2.265322 24.099174 19 21 26
7.179874 2.264792 24.093536 22 41 42
7.225690 2.264049 24.085632 18 16 40
7.270212 2.262914 24.073551 39 34 40
7.315627 2.262069 24.064564 29 15 24
7.360743 2.261143 24.054714 41 34 36
7.404750 2.259891 24.041397 24 26 33
7.449941 2.259014 24.032066 18 35 17
7.493519 2.257663 24.017691 37 34 30
7.538509 2.256751 24.007992 32 43 44
7.582688 2.255610 23.995848 25 41 32
7.624479 2.253777 23.976349 31 31 15
7.667418 2.252304 23.960680 15 28 15
7.706040 2.249589 23.931803 21 26 40
7.745554 2.247167 23.906031 31 17 37
7.784318 2.244558 23.878275 30 34 23
7.821440 2.241510 23.845854 28 20 15
7.862503 2.239622 23.825766 28 36 28
7.898896 2.236434 23.791855 28 22 22
7.937011 2.233770 23.763506 15 43 17
7.974603 2.230990 23.733936 29 23 18
8.009395 2.227465 23.696434 26 23 42
8.048401 2.225146 23.671768 20 44 25
8.083648 2.221821 23.636398 29 44 25
8.122794 2.219601 23.612774 20 27 15
8.161012 2.217153 23.586739 37 43 17
8.194322 2.213409 23.546904 30 16 33
4.748386 2.477419 25.806446 44 35 24
4.789097 2.471792 25.747835 30 33 37
4.825296 2.463981 25.666468 15 21 33
4.865827 2.458523 25.609615 25 35 36
4.900234 2.450117 25.522053 33 31 44
4.938260 2.443675 25.454947 21 27 28
4.975683 2.437069 25.386137 41 24 39
5.008695 2.428458 25.296438 18 33 40
5.047350 2.422728 25.236750 23 44 43
5.078997 2.413781 25.143549 20 33 41
5.114483 2.406816 25.070995 28 34 20
5.149347 2.399695 24.996828 23 16 36
5.178958 2.390288 24.898838 42 34 40
5.214878 2.383944 24.832750 120 120 120
5.245379 2.375266 24.742352 120 120 120
5.280056 2.368623 24.673161 120 120 120
5.317658 2.363403 24.618786 22 30 24
5.354647 2.358010 24.562599 27 28 42
5.398673 2.355784 24.539421 21 32 29
5.443183 2.353809 24.518841 33 15 29
5.490906 2.353245 24.512972 31 29 39
5.540244 2.353378 24.514353 18 38 36
5.587637 2.352689 24.507179 26 42 41
5.635183 2.352077 24.500797 30 28 22
5.682649 2.351441 24.494175 32 28 28
5.731232 2.351275 24.492443 39 40 23
5.779616 2.351030 24.489899 27 43 31
5.826670 2.350254 24.481808 43 19 28
5.873682 2.349473 24.473677 25 43 33
5.919166 2.348099 24.459362 35 21 35
5.965264 2.346989 24.447802 15 21 28
6.010747 2.345657 24.433929 21 30 41
6.054734 2.343768 24.414251 30 35 40
6.099873 2.342351 24.399490 30 35 40
6.143451 2.340362 24.378773 30 35 40
6.188507 2.338963 24.364202 30 35 40
6.233604 2.337601 24.350014 30 35 40
6.277383 2.335770 24.330942 30 35 40
6.322774 2.334563 24.318361 30 35 40
6.365718 2.332477 24.296635 18 27 19
6.409500 2.330727 24.278408 19 26 41
6.452838 2.328844 24.258791 34 41 42
6.494593 2.326421 24.233555 30 35 40
6.538472 2.324790 24.216562 30 35 40
6.579904 2.322319 24.190825 30 35 40
6.622564 2.320315 24.169943 30 35 40
6.665675 2.318496 24.150997 30 35 40
6.708326 2.316544 24.130669 30 35 40
6.753757 2.315574 24.120560 30 35 40
6.796393 2.313666 24.100685 30 35 40
6.838668 2.311662 24.079817 30 35 40
6.881558 2.309893 24.061390 30 35 40
6.925124 2.308375 24.045568 30 35 40
6.971741 2.307887 24.040487 34 43 21
7.019007 2.307619 24.037697 23 29 28
7.067915 2.307891 24.040527 21 16 28
7.116798 2.308151 24.043238 28 18 39
7.163526 2.307713 24.038677 32 35 26
7.209402 2.307009 24.031342 36 25 19
7.254074 2.305931 24.020111 22 16 32
7.299596 2.305135 24.011827 28 43 39
7.344758 2.304238 24.002478 35 22 29
7.388786 2.302998 23.989565 33 25 15
7.433878 2.302104 23.980253 32 23 32
7.477450 2.300754 23.966185 27 29 41
7.522483 2.299867 23.956953 29 40 36
7.566707 2.298746 23.945274 16 28 29
7.608556 2.296922 23.926275 43 44 36
7.651473 2.295442 23.910852 19 26 43
7.690032 2.292680 23.882086 28 23 25
7.729464 2.290211 23.856369 44 40 26
7.768035 2.287519 23.828327 44 41 26
7.804993 2.284388 23.795712 30 17 32
7.845920 2.282450 23.775517 37 35 19
7.881163 2.278890 23.738441 34 36 16
7.917582 2.275712 23.705336 41 24 39
7.953224 2.272350 23.670311 27 44 44
7.986094 2.268240 23.627497 21 40 39
8.023980 2.265594 23.599941 20 25 33
8.058509 2.262038 23.562891 44 19 40
8.097672 2.259816 23.539745 25 30 23
8.136354 2.257486 23.515474 35 37 43
8.170169 2.253840 23.477497 15 32 34
4.770050 2.513252 25.645430 36 30 27
4.805750 2.505125 25.562500 41 24 32
4.845581 2.499300 25.503057 39 34 36
4.879217 2.490434 25.412588 36 19 20
4.916652 2.483669 25.343565 18 22 39
4.953647 2.476823 25.273708 30 30 21
4.986355 2.467994 25.183611 16 27 18
5.024915 2.462209 25.124577 35 16 29
5.056359 2.453085 25.031479 38 43 42
5.091411 2.445874 24.957897 19 35 32
5.125957 2.438562 24.883287 17 31 22
5.155606 2.429084 24.786568 28 19 40
5.191731 2.422808 24.722530 120 120 120
5.222744 2.414287 24.635584 120 120 120
5.257847 2.407799 24.569378 120 120 120
5.295883 2.402762 24.517979 16 15 43
5.333406 2.397586 24.465164 21 25 39
5.377675 2.395510 24.443975 18 25 17
5.422256 2.393608 24.424576 33 24 38
5.469711 2.392999 24.418354 42 29 30
5.518617 2.393029 24.418659 18 39 28
5.565714 2.392281 24.411026 40 35 18
5.613043 2.391644 24.404535 15 43 40
5.660149 2.390925 24.397194 40 44 29
5.708306 2.390658 24.394468 29 24 42
5.756230 2.390299 24.390806 38 31 35
5.802836 2.389403 24.381664 17 23 20
5.849521 2.388554 24.373005 35 28 29
5.894661 2.387094 24.358103 37 29 16
5.940490 2.385935 24.346272 40 26 17
5.985728 2.384559 24.332230 38 35 41
6.029413 2.382591 24.312151 20 33 31
6.074261 2.381110 24.297043 30 35 40
6.117541 2.379044 24.275957 30 35 40
6.162304 2.377582 24.261040 30 35 40
6.207185 2.376188 24.246817 30 35 40
6.250832 2.374347 24.228029 30 35 40
6.296142 2.373161 24.215929 40 20 33
6.339213 2.371156 24.195471 20 27 19
6.383119 2.369491 24.178482 35 30 26
6.426699 2.367731 24.160522 15 30 21
6.468853 2.365476 24.137510 43 38 44
6.512993 2.363975 24.122196 30 35 40
6.554970 2.361717 24.099154 30 35 40
6.598106 2.359906 24.080677 30 35 40
6.641633 2.358261 24.063889 30 35 40
6.684686 2.356472 24.045631 30 35 40
6.730195 2.355568 24.036409 30 35 40
6.772989 2.353734 24.017691 30 35 40
6.815301 2.351759 23.997538 30 35 40
6.858213 2.350017 23.979765 30 35 40
6.901933 2.348575 23.965046 32 23 42
6.948633 2.348159 23.960802 27 24 15
6.996118 2.348012 23.959309 44 44 18
7.045166 2.348389 23.963148 15 36 34
7.094183 2.348750 23.966835 36 20 28
7.141106 2.348417 23.963442 34 43 32
7.187037 2.347766 23.956791 25 28 28
7.231862 2.346763 23.946564 36 29 42
7.277462 2.346024 23.939018 26 37 18
7.322692 2.345176 23.930367 35 18 38
7.366823 2.343989 23.918257 18 44 16
7.411910 2.343120 23.909386 37 25 36
7.455626 2.341831 23.896238 32 37 16
7.500772 2.341005 23.887808 18 17 37
7.545165 2.339956 23.877104 22 25 41
7.587312 2.338228 23.859470 30 15 29
7.630432 2.336820 23.845100 44 42 40
7.669292 2.334132 23.817677 19 37 32
7.709116 2.331770 23.793568 42 18 27
7.747668 2.329053 23.765852 16 36 18
7.784009 2.325710 23.731735 28 23 19
7.823978 2.323484 23.709024 22 21 32
7.857172 2.319286 23.666180 18 44 24
7.891314 2.315415 23.626688 26 17 29
7.924714 2.311375 23.585459 29 24 33
7.955682 2.306677 23.537521 17 26 25
7.992768 2.303798 23.508141 39 19 32
8.026714 2.300053 23.469925 15 24 33
8.065668 2.297778 23.446711 40 15 44
8.104555 2.295510 23.423571 44 21 19
4.792424 2.549162 25.491615 32 27 42
4.832073 2.543196 25.431963 30 32 18
4.865598 2.534166 25.341658 25 41 22
4.903001 2.527320 25.273201 29 36 37
4.939993 2.520404 25.204044 16 17 31
4.972673 2.511451 25.114508 24 23 19
5.011141 2.505571 25.055706 29 18 37
5.042515 2.496294 24.962944 25 38 36
5.077456 2.488949 24.889490 15 36 26
5.111911 2.481510 24.815104 19 28 15
5.141533 2.471891 24.718910 38 37 33
5.177626 2.465536 24.655363 120 120 120
5.208745 2.456955 24.569550 120 120 120
5.243975 2.450456 24.504557 120 120 120
5.282144 2.445437 24.454369 19 29 40
5.319796 2.440273 24.402733 16 44 41
5.364073 2.438215 24.382149 25 43 36
5.408615 2.436313 24.363131 17 25 36
5.455952 2.435693 24.356928 42 24 30
5.504661 2.435691 24.356907 19 29 21
5.551540 2.434886 24.348860 35 28 21
5.598659 2.434200 24.341995 17 21 15
5.645476 2.433395 24.333946 34 16 26
5.693340 2.433051 24.330513 31 42 40
5.740976 2.432617 24.326168 31 36 39
5.787302 2.431639 24.316395 33 28 37
5.833797 2.430749 24.307489 19 20 17
5.878735 2.429229 24.292292 30 15 26
5.924387 2.428027 24.280273 37 33 31
5.969461 2.426610 24.266102 40 38 34
6.012963 2.424582 24.245817 36 44 16
6.057636 2.423054 24.230543 18 21 28
6.100734 2.420926 24.209263 27 27 28
6.145321 2.419418 24.194178 30 35 40
6.190062 2.417993 24.179930 40 28 38
6.233625 2.416134 24.161339 42 22 41
6.278878 2.414953 24.149532 35 16 33
6.322049 2.412996 24.129959 27 22 35
6.366052 2.411383 24.113832 30 29 22
6.409825 2.409709 24.097088 17 23 36
6.452272 2.407564 24.075642 22 16 43
6.496609 2.406151 24.061514 30 35 40
6.538974 2.404034 24.040344 30 35 40
6.582455 2.402356 24.023560 30 35 40
6.626265 2.400821 24.008207 30 35 40
6.669523 2.399109 23.991091 30 35 40
6.715009 2.398218 23.982176 30 35 40
6.757879 2.396411 23.964111 30 35 40
6.800276 2.394464 23.944635 30 35 40
6.843271 2.392752 23.927521 30 35 40
6.887112 2.391358 23.913582 40 38 25
6.933840 2.390979 23.909792 37 44 16
6.981426 2.390899 23.908993 35 27 44
7.030537 2.391339 23.913391 22 38 32
7.079627 2.391766 23.917660 20 35 44
7.126682 2.391504 23.915039 33 31 17
7.172682 2.390894 23.908941 37 24 18
7.217619 2.389940 23.899401 22 34 15
7.263244 2.389225 23.892250 41 25 19
7.308496 2.388397 23.883974 28 38 33
7.352729 2.387250 23.872498 30 36 39
7.397872 2.386410 23.864103 29 31 28
7.441740 2.385173 23.851730 23 37 29
7.486979 2.384388 23.843882 36 33 25
7.531507 2.383388 23.833881 19 26 22
7.573928 2.381738 23.817385 33 39 23
7.617263 2.380395 23.803947 16 17 41
7.656496 2.377794 23.777937 27 28 23
7.696891 2.375584 23.755836 35 20 33
7.735546 2.372867 23.728668 17 16 15
7.771121 2.369244 23.692442 26 44 30
7.809856 2.366623 23.666229 22 35 17
7.841118 2.361782 23.617825 35 22 40
7.873428 2.357314 23.573137 32 16 28
7.905309 2.352771 23.527706 34 38 36
7.935292 2.347720 23.477196 35 24 23
7.972354 2.344810 23.448101 40 19 28
8.006257 2.341011 23.410109 44 41 24
8.045033 2.338672 23.386723 31 42 18
4.813092 2.583870 25.332062 17 25 39
4.846395 2.574647 25.241638 35 28 19
4.883663 2.567699 25.173519 39 37 24
4.920535 2.560687 25.104773 35 42 22
4.953010 2.551550 25.015200 30 37 17
4.991218 2.545521 24.956091 20 43 41
5.022421 2.536074 24.863470 38 23 40
5.057315 2.528658 24.790762 27 36 37
5.091708 2.521137 24.717031 35 20 26
5.121107 2.511312 24.620705 16 24 34
5.156862 2.504762 24.556486 120 120 120
5.187735 2.495986 24.470448 120 120 120
5.222841 2.489391 24.405798 120 120 120
5.260946 2.484336 24.356234 31 33 26
5.298500 2.479115 24.305044 35 44 20
5.342631 2.477038 24.284685 36 43 29
5.387206 2.475203 24.266695 18 40 23
5.434709 2.474733 24.262093 32 16 20
5.483545 2.474874 24.263475 34 22 21
5.530369 2.474112 24.256002 17 31 43
5.577217 2.473375 24.248772 24 16 25
5.623730 2.472502 24.240215 42 36 19
5.671320 2.472114 24.236412 31 30 34
5.718690 2.471637 24.231737 40 37 21
5.764784 2.470622 24.221783 24 15 36
5.811091 2.469714 24.212879 37 18 44
5.855823 2.468157 24.197617 40 28 24
5.901276 2.466927 24.185556 30 25 15
5.946139 2.465472 24.171297 35 17 15
5.989406 2.463385 24.150831 32 16 28
6.033847 2.461810 24.135387 29 36 26
6.076719 2.459625 24.113966 24 40 21
6.121073 2.458069 24.098711 16 30 22
6.165644 2.456624 24.084545 36 15 41
6.209118 2.454767 24.066347 21 24 19
6.254314 2.453615 24.055054 29 21 17
6.297660 2.451761 24.036869 27 20 31
6.341835 2.450254 24.022100 31 23 16
6.385906 2.448731 24.007166 18 15 41
6.428813 2.446787 23.988108 42 22 23
6.473455 2.445527 23.975760 30 35 40
6.516415 2.443656 23.957409 30 35 40
6.560428 2.442203 23.943167 30 35 40
6.604653 2.440850 23.929901 30 35 40
6.648204 2.439269 23.914402 30 35 40
6.693615 2.438388 23.905767 30 35 40
6.736572 2.436632 23.888554 30 35 40
6.779125 2.434756 23.870159 30 35 40
6.822263 2.433115 23.854065 30 35 40
6.866222 2.431787 23.841047 29 15 38
6.912910 2.431437 23.837620 18 43 39
6.960509 2.431411 23.837358 15 15 43
7.009597 2.431901 23.842165 24 44 28
7.058647 2.432372 23.846781 39 19 42
7.105732 2.432163 23.844738 35 22 35
7.151717 2.431584 23.839058 42 20 38
7.196589 2.430636 23.829763 33 40 33
7.242059 2.429901 23.822563 23 40 31
7.287119 2.429040 23.814114 17 26 44
7.331218 2.427871 23.802654 33 26 32
7.376264 2.427029 23.794399 21 29 39
7.420008 2.425772 23.782078 41 28 34
7.465171 2.424992 23.774429 30 23 40
7.509498 2.423952 23.764235 38 31 41
7.551478 2.422172 23.746786 30 43 23
7.594296 2.420682 23.732174 40 18 34
7.632939 2.417888 23.704781 42 15 28
7.673107 2.415608 23.682428 38 40 27
7.711282 2.412732 23.654240 33 44 16
7.745657 2.408710 23.614807 39 40 27
7.783098 2.405685 23.585144 31 39 25
7.812632 2.400266 23.532024 37 20 40
7.843449 2.395305 23.483379 44 39 32
7.874238 2.390394 23.435232 42 32 41
7.903574 2.385102 23.383356 27 38 35
7.940708 2.382212 23.355024 28 24 34
7.974761 2.378438 23.318016 36 28 24
4.832392 2.617546 25.168711 30 29 18
4.869454 2.610429 25.100281 24 29 26
4.906125 2.603250 25.031248 29 31 38
4.938276 2.593842 24.940786 31 44 44
4.976167 2.587607 24.880836 31 21 42
5.007188 2.577958 24.788057 44 37 44
5.042148 2.570507 24.716413 18 21 32
5.076560 2.562924 24.643497 25 30 43
5.105636 2.552818 24.546326 17 16 18
5.140894 2.545967 24.480450 120 120 120
5.171324 2.536876 24.393036 120 120 120
5.206199 2.530115 24.328032 120 120 120
5.244183 2.524977 24.278625 28 42 30
5.281568 2.519647 24.227377 27 16 41
5.325536 2.517526 24.206982 33 20 20
5.370303 2.515818 24.190554 15 31 17
5.418272 2.515626 24.188713 28 44 28
5.467545 2.516038 24.192677 22 23 30
5.514453 2.515365 24.186199 31 27 39
5.560996 2.514537 24.178244 41 32 42
5.607271 2.513604 24.169271 37 35 44
5.654751 2.513223 24.165604 35 34 36
5.702047 2.512766 24.161215 43 37 16
5.748080 2.511766 24.151596 29 29 44
5.794304 2.510865 24.142933 39 32 38
5.838961 2.509306 24.127939 16 42 24
5.884312 2.508067 24.116034 28 25 17
5.929049 2.506590 24.101824 33 19 43
5.972186 2.504465 24.081396 19 27 27
6.016471 2.502852 24.065886 33 32 26
6.059216 2.500629 24.044506 24 44 17
6.103429 2.499042 24.029247 42 20 42
6.147918 2.497592 24.015305 24 41 16
6.191385 2.495752 23.997618 30 25 36
6.236588 2.494635 23.986877 29 20 23
6.280128 2.492875 23.969955 23 30 35
6.324499 2.491469 23.956436 26 19 40
6.368849 2.490076 23.943043 32 35 39
6.412190 2.488312 23.926081 25 15 18
6.457118 2.487186 23.915253 34 26 29
6.500612 2.485528 23.899309 30 35 40
6.545107 2.484274 23.887253 30 35 40
6.589705 2.483077 23.875744 30 35 40
6.633487 2.481592 23.861464 30 35 40
6.678788 2.480693 23.852816 30 35 40
6.721790 2.478958 23.836134 30 35 40
6.764488 2.477136 23.818619 30 35 40
6.807766 2.475551 23.803377 33 41 36
6.851804 2.474262 23.790985 17 34 32
6.898445 2.473925 23.787743 21 22 28
6.945989 2.473914 23.787632 33 37 43
6.995006 2.474424 23.792538 26 42 24
7.043961 2.474905 23.797165 18 26 24
7.090961 2.474698 23.795172 32 24 38
7.136852 2.474109 23.789505 15 44 16
7.181529 2.473109 23.779898 27 22 17
7.226752 2.472310 23.772209 22 35 38
7.271526 2.471368 23.763157 39 24 43
7.315338 2.470114 23.751097 19 40 37
7.360168 2.469218 23.742477 26 24 22
7.403714 2.467905 23.729853 21 23 15
7.448913 2.467156 23.722654 41 16 26
7.493038 2.466063 23.712147 33 27 34
7.534181 2.464009 23.692392 38 34 35
7.575962 2.462188 23.674881 21 27 43
7.613234 2.458933 23.643585 34 36 16
7.652351 2.456310 23.618368 27 29 18
7.689595 2.453122 23.587713 32 28 39
7.722918 2.448730 23.545481 16 43 27
7.759732 2.445491 23.514339 34 40 30
7.788733 2.439844 23.460039 29 20 21
7.819268 2.434742 23.410982 19 23 42
7.850051 2.429778 23.363247 39 35 16
7.879462 2.424450 23.312017 41 15 39
7.916740 2.421591 23.284529 42 32 38
4.856443 2.653520 25.033209 19 34 29
4.892940 2.646182 24.963980 20 30 31
4.924813 2.636516 24.872791 17 42 44
4.962389 2.630066 24.811945 19 30 33
4.993233 2.620211 24.718975 21 36 19
5.028289 2.612738 24.648474 39 33 31
5.062722 2.605090 24.576321 17 22 17
5.091440 2.594676 24.478077 22 21 20
5.126147 2.587484 24.410225 120 120 120
5.155923 2.577962 24.320393 120 120 120
5.190321 2.570907 24.253838 120 120 120
5.227900 2.565544 24.203241 37 42 39
5.264814 2.559955 24.150522 33 30 41
5.308444 2.557705 24.129290 36 33 32
5.353271 2.556066 24.113832 24 32 40
5.401671 2.556148 24.114603 20 21 30
5.451475 2.556886 24.121569 20 43 18
5.498657 2.556393 24.116919 18 26 27
5.545117 2.555576 24.109205 19 20 20
5.591375 2.554680 24.100756 22 40 17
5.638836 2.554345 24.097591 22 25 43
5.686108 2.553930 24.093679 21 41 31
5.732161 2.552979 24.084709 26 32 21
5.778356 2.552107 24.076483 19 41 39
5.822980 2.550562 24.061901 22 19 17
5.868239 2.549317 24.050161 17 20 17
5.912848 2.547813 24.035969 16 15 27
5.955851 2.545646 24.015530 44 44 40
5.999990 2.543996 23.999962 33 43 19
6.042606 2.541731 23.978596 16 38 19
6.086676 2.540109 23.963291 18 30 34
6.131065 2.538644 23.949474 28 28 30
6.174486 2.536804 23.932117 29 29 28
6.219655 2.535705 23.921749 16 15 19
6.263332 2.534020 23.905848 38 29 27
6.307831 2.532690 23.893301 20 27 17
6.352399 2.531407 23.881199 36 31 25
6.396068 2.529788 23.865925 41 28 41
6.441214 2.528773 23.856350 16 27 44
6.485118 2.527288 23.842344 41 25 40
6.529969 2.526192 23.832003 20 27 22
6.574845 2.525122 23.821901 18 28 44
6.618799 2.523715 23.808630 30 35 40
6.664011 2.522804 23.800039 23 39 22
6.707062 2.521094 23.783909 28 34 16
6.749905 2.519331 23.767271 30 43 27
6.793290 2.517793 23.752762 22 43 17
6.837343 2.516522 23.740774 24 22 26
6.883853 2.516167 23.737425 42 35 24
6.931226 2.516130 23.737076 35 19 31
6.980069 2.516623 23.741730 36 17 16
7.028830 2.517081 23.746048 43 19 42
7.075648 2.516841 23.743786 24 32 26
7.121401 2.516228 23.738003 38 16 15
7.165786 2.515144 23.727770 15 34 18
7.210661 2.514244 23.719280 31 19 25
7.255032 2.513181 23.709253 18 40 24
7.298440 2.511801 23.696234 41 31 44
7.342992 2.510830 23.687071 37 34 22
7.385994 2.509344 23.673058 40 23 23
7.430764 2.508474 23.664852 31 33 23
7.474170 2.507158 23.652437 29 40 19
7.514012 2.504671 23.628969 30 20 21
7.554548 2.502444 23.607964 28 27 34
7.590218 2.498643 23.572105 38 19 17
7.628094 2.495611 23.543501 33 26 42
7.664374 2.492097 23.510349 37 15 34
7.696793 2.487378 23.465834 17 29 28
7.733226 2.484006 23.434017 21 32 36
7.762179 2.478286 23.380058 23 24 16
7.792949 2.473211 23.332182 40 41 23
7.824185 2.468344 23.286264 35 38 26
7.854017 2.463094 23.236736 20 31 33
4.876328 2.686956 24.879227 41 39 44
4.908065 2.677126 24.788208 39 40 34
4.945419 2.670526 24.727095 17 27 32
4.976126 2.660503 24.634285 29 24 19
5.011192 2.652984 24.564669 39 23 28
5.045559 2.645245 24.493006 32 16 27
5.073982 2.634567 24.394142 20 25 25
5.108269 2.627110 24.325089 120 120 120
