ply
format ascii 1.0
element vertex 1288
property float x
property float y
property float z
property uchar red
property uchar green
property uchar blue
end_header
6.362861 0.661738 25.451445 34 37 32
6.415517 0.661918 25.458401 19 37 24
6.468376 0.662117 25.466045 17 31 41
6.520998 0.662289 25.472649 39 43 40
6.573590 0.662455 25.479031 17 16 40
6.625286 0.662529 25.481869 21 31 18
6.674362 0.662341 25.474663 17 44 35
6.721631 0.661979 25.460724 32 42 20
6.767757 0.661510 25.442694 32 42 38
6.813979 0.661058 25.425295 18 36 35
6.862130 0.660798 25.415297 41 40 15
6.909352 0.660453 25.402029 15 22 15
6.957202 0.660172 25.391247 44 17 28
7.006095 0.659994 25.384401 42 40 32
7.055532 0.659870 25.379610 16 34 18
7.106491 0.659888 25.380325 32 37 23
7.158589 0.660012 25.385067 28 19 15
7.211377 0.660197 25.392174 25 23 24
7.264290 0.660390 25.399616 22 33 43
7.316262 0.660496 25.403687 19 26 27
7.367012 0.660491 25.403488 40 27 18
7.418346 0.660538 25.405294 16 29 28
5.549780 0.706336 25.226273 42 17 42
5.590481 0.705106 25.182346 31 25 17
5.634456 0.704307 25.153822 27 28 38
5.683174 0.704110 25.146790 34 43 24
5.733968 0.704172 25.148983 35 28 25
5.788106 0.704639 25.165678 39 32 27
5.846869 0.705657 25.202021 32 30 42
5.906947 0.706814 25.243364 37 26 37
5.966385 0.707876 25.281292 39 32 29
6.022414 0.708519 25.304260 20 39 39
6.072843 0.708498 25.303513 41 42 34
6.124469 0.708616 25.307724 26 16 34
6.176855 0.708819 25.314981 16 43 38
6.229357 0.709033 25.322590 26 37 15
6.282112 0.709271 25.331099 28 25 27
6.334023 0.709411 25.336094 15 31 35
6.387094 0.709677 25.345610 17 28 26
6.440270 0.709951 25.355392 44 31 44
6.493196 0.710193 25.364048 33 44 34
6.546133 0.710433 25.372610 43 17 30
6.597909 0.710544 25.376574 18 39 36
6.647265 0.710395 25.371241 27 24 17
6.694780 0.710052 25.359016 44 42 32
6.741087 0.709588 25.342434 33 32 39
6.787432 0.709135 25.326241 36 33 21
6.835473 0.708864 25.316568 21 33 36
6.882649 0.708508 25.303856 23 23 18
6.930440 0.708220 25.293575 28 34 24
6.979274 0.708042 25.287224 28 31 30
7.028751 0.707932 25.283276 37 43 32
7.079705 0.707970 25.284660 20 42 35
7.131685 0.708111 25.289663 37 20 15
7.184162 0.708298 25.296347 44 15 33
7.236717 0.708490 25.303205 26 19 41
7.288444 0.708599 25.307096 29 43 26
7.339044 0.708597 25.307049 29 28 35
7.390189 0.708648 25.308867 19 35 35
7.441528 0.708717 25.311321 32 43 30
7.493133 0.708810 25.314638 40 41 19
5.425228 0.760546 25.351534 120 120 120
5.456985 0.757915 25.263819 18 41 31
5.488755 0.755333 25.177776 43 34 37
5.530180 0.754115 25.137180 33 43 37
5.570878 0.752821 25.094046 21 21 26
5.614767 0.751978 25.065924 44 29 21
5.663312 0.751767 25.058905 29 20 38
5.713960 0.751837 25.061228 30 42 43
5.767912 0.752336 25.077879 24 41 19
5.826457 0.753421 25.114040 35 44 18
5.886173 0.754638 25.154587 23 42 27
5.945433 0.755775 25.192514 19 23 20
6.001798 0.756529 25.217640 22 33 26
6.052763 0.756595 25.219845 43 30 17
6.104723 0.756784 25.226128 30 29 17
6.156869 0.756992 25.233070 40 44 17
6.208991 0.757194 25.239799 21 18 32
6.261639 0.757456 25.248545 18 37 24
6.313545 0.757625 25.254181 21 41 18
6.366766 0.757948 25.264946 41 23 21
6.420073 0.758276 25.275877 19 33 30
6.473159 0.758573 25.285778 42 25 18
6.526274 0.758869 25.295635 41 40 32
6.578074 0.759009 25.300285 42 30 16
6.627637 0.758890 25.296324 35 21 26
6.675377 0.758566 25.285519 25 36 20
6.721875 0.758106 25.270208 29 42 41
6.768372 0.757654 25.255121 39 26 22
6.816365 0.757374 25.245796 40 28 26
6.863551 0.757009 25.233644 17 36 31
6.911317 0.756714 25.223785 43 38 18
6.960115 0.756534 25.217810 33 40 29
7.009613 0.756433 25.214434 25 33 30
7.060543 0.756487 25.216225 41 27 44
7.112409 0.756639 25.221310 44 41 38
7.164629 0.756827 25.227566 19 19 29
7.216906 0.757018 25.233938 37 18 35
7.268461 0.757131 25.237711 29 24 21
7.318971 0.757135 25.237831 19 20 33
7.369992 0.757191 25.239700 40 31 20
7.421201 0.757265 25.242180 22 40 40
7.472618 0.757360 25.245333 38 37 28
7.524154 0.757465 25.248838 28 28 38
7.575338 0.757534 25.251125 24 40 26
7.627664 0.757715 25.257164 36 16 39
7.680647 0.757959 25.265287 32 16 22
5.297072 0.814934 25.466690 37 33 31
5.334665 0.812901 25.403168 120 120 120
5.363856 0.809639 25.301207 120 120 120
5.395495 0.806803 25.212593 120 120 120
5.428464 0.804217 25.131779 22 38 42
5.460934 0.801605 25.050156 16 19 19
5.502578 0.800375 25.011719 43 20 18
5.543575 0.799074 24.971058 34 40 32
5.587554 0.798222 24.944439 42 43 23
5.636058 0.798026 24.938311 29 17 26
5.686696 0.798133 24.941648 33 41 23
5.740488 0.798677 24.958643 24 30 44
5.798934 0.799853 24.995407 33 30 28
5.858498 0.801162 25.036316 37 26 29
5.917657 0.802394 25.074816 19 24 44
5.974121 0.803243 25.101349 39 31 23
6.025194 0.803359 25.104975 38 18 23
6.077088 0.803582 25.111935 39 36 25
6.128820 0.803780 25.118114 25 31 30
6.180491 0.803966 25.123945 25 18 43
6.232975 0.804255 25.132963 26 38 20
6.284867 0.804463 25.139469 16 19 42
6.338277 0.804861 25.151894 20 41 38
6.391762 0.805261 25.164415 36 20 41
6.445044 0.805630 25.175953 39 21 35
6.498338 0.805995 25.187357 37 15 34
6.550110 0.806167 25.192732 40 30 22
6.599926 0.806098 25.190556 25 25 39
6.647985 0.805816 25.181763 17 25 38
6.694791 0.805388 25.168386 17 42 32
6.741524 0.804958 25.154940 35 28 31
6.789476 0.804679 25.146206 37 30 35
6.836667 0.804314 25.134806 34 19 30
6.884366 0.804014 25.125423 15 40 23
6.933067 0.803834 25.119808 15 41 33
6.982544 0.803746 25.117064 15 23 20
7.033418 0.803819 25.119349 20 30 41
7.085124 0.803986 25.124552 19 17 37
7.137019 0.804171 25.130350 32 18 34
7.188946 0.804358 25.136173 26 20 33
7.240299 0.804478 25.139929 25 30 33
7.290724 0.804494 25.140427 22 16 16
7.341546 0.804553 25.142281 17 20 26
7.392493 0.804625 25.144533 29 19 37
7.443510 0.804704 25.146994 37 17 18
7.494513 0.804780 25.149372 40 31 23
7.545186 0.804820 25.150621 36 25 39
7.596590 0.804937 25.154272 15 26 19
7.648665 0.805123 25.160082 41 39 27
7.700103 0.805240 25.163736 16 29 43
7.750330 0.805229 25.163408 26 20 29
5.198827 0.866471 25.484446 15 18 19
5.242499 0.865267 25.449022 31 40 19
5.277385 0.862649 25.372042 35 44 25
5.313127 0.860221 25.300606 120 120 120
5.341283 0.856621 25.194729 120 120 120
5.373256 0.853695 25.108673 120 120 120
5.407149 0.851125 25.033096 24 30 21
5.440255 0.848480 24.955299 29 43 22
5.482185 0.847247 24.919024 43 35 24
5.523555 0.845950 24.880880 34 39 17
5.567713 0.845099 24.855864 29 29 39
5.616275 0.844926 24.850773 27 17 31
5.666999 0.845079 24.855261 19 17 16
5.720701 0.845669 24.872612 29 30 23
5.779262 0.846961 24.910610 21 44 38
5.839102 0.848416 24.953426 34 26 18
5.898438 0.849775 24.993383 33 22 26
5.954796 0.850685 25.020153 30 23 28
6.005479 0.850776 25.022829 33 44 20
6.056963 0.850978 25.028772 26 20 34
6.108357 0.851165 25.034250 32 18 19
6.159800 0.851355 25.039839 19 38 40
6.212188 0.851671 25.049145 15 38 32
6.264094 0.851917 25.056377 26 39 41
6.317660 0.852383 25.070080 42 22 35
6.371288 0.852850 25.083813 32 41 17
6.424715 0.853282 25.096542 41 31 44
6.478121 0.853706 25.108997 17 32 41
6.529848 0.853903 25.114801 32 24 40
6.579828 0.853871 25.113846 39 32 39
6.628138 0.853624 25.106583 18 16 27
6.675183 0.853219 25.094671 20 17 17
6.722103 0.852804 25.082474 17 36 32
6.770034 0.852523 25.074202 39 24 42
6.817217 0.852152 25.063297 26 18 36
6.864833 0.851841 25.054136 41 38 35
6.913441 0.851656 25.048700 44 34 29
6.962960 0.851585 25.046619 16 22 44
7.013875 0.851685 25.049553 39 29 18
7.065569 0.851877 25.055208 27 16 19
7.117313 0.852073 25.060963 20 22 40
7.169040 0.852264 25.066574 29 31 42
7.220315 0.852398 25.070538 37 25 19
7.270690 0.852426 25.071344 17 17 28
7.321283 0.852478 25.072887 35 27 21
7.371904 0.852533 25.074503 41 15 19
7.422424 0.852576 25.075756 44 42 24
7.472802 0.852602 25.076515 43 32 18
7.522926 0.852598 25.076420 32 27 16
7.573366 0.852631 25.077372 32 31 41
7.624555 0.852746 25.080772 26 21 20
7.674945 0.852772 25.081520 43 26 34
7.723853 0.852633 25.077444 36 19 36
7.772058 0.852419 25.071154 23 43 15
7.816684 0.851818 25.053474 28 15 25
5.133480 0.914878 25.413267 41 19 32
5.179580 0.914043 25.390097 25 30 32
5.223229 0.912797 25.355478 33 38 35
5.257495 0.909951 25.276417 34 43 22
5.292325 0.907256 25.201546 120 120 120
5.320260 0.903440 25.095566 120 120 120
5.352783 0.900468 25.013002 120 120 120
5.387597 0.897933 24.942579 20 20 17
5.421524 0.895298 24.869375 24 36 28
5.463856 0.894086 24.835711 40 30 26
5.505805 0.892833 24.800924 18 42 44
5.550311 0.892014 24.778175 16 20 23
5.599094 0.891891 24.774752 32 26 28
5.650089 0.892119 24.781094 16 34 34
5.703822 0.892772 24.799227 35 43 25
5.762522 0.894184 24.838455 43 22 17
5.822559 0.895778 24.882732 43 22 29
5.881878 0.897236 24.923214 35 15 40
5.937830 0.898159 24.948866 34 32 17
5.987848 0.898177 24.949368 16 16 34
6.038677 0.898316 24.953211 18 18 21
6.089667 0.898475 24.957651 15 20 18
6.140878 0.898665 24.962919 33 36 44
6.193098 0.898998 24.972170 24 39 25
6.244967 0.899275 24.979870 38 27 16
6.298604 0.899801 24.994461 29 18 26
6.352303 0.900326 25.009068 38 44 41
6.405811 0.900817 25.022697 26 20 16
6.459245 0.901290 25.035835 43 19 36
6.510867 0.901505 25.041796 23 19 15
6.560960 0.901506 25.041834 32 34 41
6.609499 0.901295 25.035980 33 21 20
6.656798 0.900920 25.025555 25 43 38
6.703912 0.900526 25.014599 20 22 32
6.751850 0.900247 25.006851 36 15 16
6.799028 0.899871 24.996426 24 28 23
6.846556 0.899548 24.987432 16 21 27
6.895032 0.899352 24.981998 40 44 17
6.944447 0.899281 24.980026 15 27 44
6.995248 0.899389 24.983030 24 37 26
7.046773 0.899588 24.988558 44 20 19
7.098287 0.899783 24.993969 31 16 43
7.149806 0.899976 24.999323 40 18 29
7.200996 0.900125 25.003460 43 29 18
7.251354 0.900168 25.004669 28 25 18
7.301815 0.900224 25.006214 43 28 18
7.352236 0.900274 25.007605 26 23 18
7.402390 0.900291 25.008074 44 34 21
7.452274 0.900275 25.007629 37 36 44
7.501926 0.900231 25.006420 38 23 35
7.551381 0.900165 25.004574 33 28 27
7.601576 0.900187 25.005184 35 32 33
7.650776 0.900091 25.002535 44 20 40
7.698209 0.899791 24.994186 34 43 29
7.745318 0.899456 24.984896 24 33 29
7.788446 0.898667 24.962967 21 22 30
7.831775 0.897911 24.941959 34 29 34
5.068009 0.962922 25.340046 27 36 16
5.108351 0.960977 25.288866 26 31 26
5.153829 0.960027 25.263868 22 38 42
5.196944 0.958660 25.227884 26 15 22
5.230872 0.955640 25.148424 23 29 39
5.265570 0.952817 25.074142 120 120 120
5.294059 0.948935 24.971977 120 120 120
5.327405 0.945988 24.894417 120 120 120
5.363285 0.943541 24.830025 32 30 38
5.398324 0.940992 24.762955 35 27 26
5.441247 0.939852 24.732943 43 27 25
5.484023 0.938707 24.702806 42 34 44
5.529069 0.937967 24.683344 42 28 23
5.578214 0.937930 24.682364 23 27 33
5.629694 0.938282 24.691639 21 31 44
5.683586 0.939027 24.711245 43 19 31
5.742345 0.940556 24.751486 42 40 31
5.802288 0.942252 24.796103 36 24 40
5.861256 0.943761 24.835829 15 18 34
5.916657 0.944676 24.859903 37 29 20
5.966055 0.944625 24.858564 35 31 22
6.016206 0.944693 24.860353 44 42 18
6.066701 0.944814 24.863529 15 23 36
6.117572 0.944991 24.868177 25 35 20
6.169540 0.945333 24.877178 35 25 26
6.221318 0.945640 24.885271 37 33 37
6.274992 0.946229 24.900763 27 25 27
6.328748 0.946821 24.916332 22 16 21
6.382322 0.947376 24.930944 25 22 17
6.435761 0.947903 24.944811 30 30 43
6.487239 0.948135 24.950918 15 41 37
6.537459 0.948181 24.952135 27 28 33
6.586270 0.948024 24.947994 35 21 28
6.633885 0.947698 24.939419 15 15 39
6.681279 0.947346 24.930147 39 15 38
6.729255 0.947080 24.923166 27 25 19
6.776495 0.946716 24.913584 42 18 22
6.824040 0.946400 24.905256 42 22 36
6.872381 0.946197 24.899931 21 42 30
6.921477 0.946101 24.897400 36 36 21
6.971841 0.946178 24.899431 35 20 34
7.022826 0.946338 24.903639 15 29 41
7.073843 0.946500 24.907898 26 34 35
7.124985 0.946676 24.912537 24 21 31
7.175986 0.946831 24.916618 21 15 21
7.226351 0.946901 24.918451 38 39 42
7.276890 0.946993 24.920856 31 41 21
7.327404 0.947079 24.923141 24 28 24
7.377511 0.947113 24.924023 35 33 38
7.427178 0.947090 24.923416 27 16 41
7.476468 0.947019 24.921558 20 25 16
7.524786 0.946827 24.916512 40 36 33
7.573603 0.946700 24.913168 29 16 18
7.621103 0.946411 24.905565 18 27 23
7.666643 0.945884 24.891697 35 24 19
7.712444 0.945396 24.878851 33 36 24
7.753814 0.944375 24.851969 28 27 43
7.795722 0.943431 24.827141 38 32 40
7.836083 0.942314 24.797729 40 20 37
7.873771 0.940891 24.760286 39 36 43
4.970017 1.014289 25.357229 19 30 31
5.008815 1.011882 25.297047 20 44 38
5.051731 1.010346 25.258656 15 30 19
5.091622 1.008242 25.206051 38 32 26
5.136135 1.007085 25.177132 29 24 18
5.178571 1.005548 25.138693 22 20 19
5.212778 1.002457 25.061432 28 17 20
5.248339 0.999684 24.992090 120 120 120
5.277984 0.995846 24.896152 120 120 120
5.312027 0.992902 24.822557 120 120 120
5.348544 0.990471 24.761780 41 37 38
5.384432 0.987969 24.699228 25 25 44
5.427834 0.986879 24.671974 16 28 42
5.471293 0.985819 24.645466 20 23 27
5.516823 0.985147 24.628674 28 21 32
5.566327 0.985191 24.629766 37 29 26
5.618277 0.985663 24.641565 26 21 15
5.672389 0.986502 24.662560 35 34 24
5.731155 0.988130 24.703253 44 34 31
5.790834 0.989886 24.747152 20 22 25
5.849341 0.991414 24.785345 37 19 16
5.904246 0.992310 24.807755 43 31 30
5.953238 0.992206 24.805159 34 28 28
6.002934 0.992221 24.805513 15 18 32
6.053089 0.992310 24.807741 27 28 28
6.103721 0.992475 24.811872 32 21 18
6.155479 0.992819 24.820478 36 24 32
6.207163 0.993146 24.828653 44 16 33
6.260802 0.993778 24.844452 22 15 24
6.314548 0.994417 24.860426 23 39 24
6.368129 0.995020 24.875505 16 16 37
6.421516 0.995584 24.889595 24 31 25
6.472873 0.995827 24.895664 20 27 32
6.523143 0.995900 24.897493 31 41 41
6.572120 0.995776 24.894394 34 27 35
6.619940 0.995480 24.886993 34 37 34
6.667536 0.995155 24.878864 42 27 36
6.715570 0.994899 24.872480 43 23 35
6.762900 0.994544 24.863602 24 22 19
6.810543 0.994240 24.855995 21 26 19
6.858800 0.994029 24.850725 43 32 34
6.907541 0.993891 24.847269 39 26 18
6.957388 0.993913 24.847813 43 30 30
7.007781 0.994012 24.850288 29 42 22
7.058329 0.994131 24.853271 23 33 17
7.109167 0.994289 24.857227 17 40 39
7.160000 0.994445 24.861113 23 40 36
7.210406 0.994539 24.863470 27 25 25
7.261169 0.994681 24.867016 19 30 30
7.311993 0.994829 24.870726 29 42 19
7.362356 0.994913 24.872826 17 34 33
7.412158 0.994921 24.873014 40 23 35
7.461364 0.994848 24.871212 27 44 44
7.508979 0.994567 24.864170 41 35 25
7.556762 0.994311 24.857771 18 17 39
7.602953 0.993850 24.846251 42 44 38
7.647156 0.993137 24.828428 18 34 44
7.692094 0.992528 24.813206 24 30 26
7.732311 0.991322 24.783049 24 23 26
7.773331 0.990233 24.755833 34 34 39
7.812913 0.988976 24.724409 23 42 39
7.849719 0.987386 24.684652 33 25 28
4.906044 1.062133 25.288889 24 40 44
4.947156 1.060105 25.240593 38 44 18
4.986042 1.057645 25.182032 39 29 39
5.029009 1.056092 25.145044 33 40 33
5.068780 1.053905 25.092970 30 17 43
5.112665 1.052607 25.062082 37 38 25
5.154762 1.050971 25.023117 19 29 27
5.189607 1.047901 24.950035 44 43 33
5.226199 1.045240 24.886662 120 120 120
5.257193 1.041519 24.798082 120 120 120
5.292035 1.038624 24.729134 120 120 120
5.329221 1.036237 24.672321 19 16 33
5.365993 1.033815 24.614647 19 17 26
5.409844 1.032788 24.590199 34 40 36
5.453949 1.031828 24.567337 18 38 32
5.499933 1.031238 24.553274 16 21 15
5.549724 1.031365 24.556303 42 31 38
5.602105 1.031967 24.570635 41 39 33
5.656402 1.032908 24.593050 26 35 18
5.714592 1.034538 24.631861 39 21 43
5.772999 1.036179 24.670935 25 38 36
5.830012 1.037544 24.703440 19 28 36
5.883832 1.038323 24.721985 38 42 27
5.932416 1.038173 24.718399 28 42 25
5.981456 1.038104 24.716759 42 15 19
6.030915 1.038108 24.716866 42 30 28
6.080922 1.038206 24.719196 39 26 15
6.132092 1.038500 24.726179 34 41 15
6.183450 1.038820 24.733801 39 22 18
6.236794 1.039466 24.749184 27 35 32
6.290343 1.040135 24.765129 26 41 16
6.343797 1.040779 24.780458 17 21 27
6.396969 1.041367 24.794453 38 23 24
6.448093 1.041615 24.800358 40 21 28
6.498358 1.041721 24.802893 38 17 20
6.547525 1.041652 24.801229 29 40 17
6.595556 1.041404 24.795324 43 39 33
6.643239 1.041105 24.788206 30 43 28
6.691143 1.040845 24.782013 23 36 39
6.738163 1.040452 24.772657 34 22 27
6.785433 1.040103 24.764355 25 36 43
6.833138 1.039825 24.757748 24 26 36
6.881151 1.039598 24.752342 34 23 37
6.930341 1.039551 24.751217 41 23 25
6.979959 1.039568 24.751627 31 25 17
7.029853 1.039626 24.753002 16 32 38
7.080236 1.039755 24.756069 33 40 32
7.130766 1.039903 24.759605 21 25 43
7.181117 1.040024 24.762472 29 17 26
7.231998 1.040219 24.767117 36 31 23
7.282940 1.040420 24.771904 33 42 39
7.333473 1.040560 24.775246 24 35 26
7.383490 1.040626 24.776812 34 29 44
7.432764 1.040587 24.775879 19 36 22
7.480450 1.040328 24.769703 37 39 26
7.528228 1.040084 24.763906 20 25 15
7.574242 1.039602 24.752424 20 24 37
7.618086 1.038830 24.734047 21 35 28
7.662533 1.038150 24.717848 29 29 20
7.702063 1.036816 24.686100 32 35 15
7.742448 1.035614 24.657476 30 44 31
7.781401 1.034237 24.624685 31 15 17
7.817571 1.032509 24.583557 35 31 18
7.857780 1.031334 24.555563 33 25 28
7.893892 1.029638 24.515194 34 35 38
4.847247 1.110827 25.246077 38 43 28
4.889022 1.108850 25.201143 28 16 22
4.930385 1.106821 25.155024 16 39 35
4.969594 1.104354 25.098959 15 42 23
5.012734 1.102802 25.063671 31 19 24
5.052789 1.100607 25.013805 15 20 18
5.096728 1.099294 24.983961 30 22 21
5.139000 1.097650 24.946600 31 19 43
5.174444 1.094594 24.877132 43 35 34
5.211608 1.091956 24.817183 120 120 120
5.243357 1.088244 24.732815 120 120 120
5.278649 1.085330 24.666584 120 120 120
5.316159 1.082921 24.611847 27 41 35
5.353352 1.080493 24.556662 29 20 42
5.397363 1.079473 24.533470 15 21 26
5.441680 1.078531 24.512074 39 16 43
5.487772 1.077955 24.498983 34 30 43
5.537571 1.078111 24.502527 38 36 17
5.590106 1.078792 24.518007 18 37 35
5.644509 1.079819 24.541342 29 31 42
5.701864 1.081388 24.577002 43 38 43
5.758664 1.082826 24.609676 26 34 36
5.813926 1.083952 24.635281 29 28 31
5.866618 1.084585 24.649656 32 39 31
5.914992 1.084415 24.645802 41 32 26
5.963493 1.084271 24.642532 44 33 30
6.012235 1.084174 24.640308 31 19 15
6.061539 1.084178 24.640402 36 37 19
6.112012 1.084389 24.645208 17 27 29
6.162953 1.084680 24.651814 37 39 16
6.215873 1.085311 24.666162 31 28 16
6.269115 1.085988 24.681557 37 18 33
6.322350 1.086654 24.696678 25 28 22
6.375241 1.087250 24.710238 34 34 15
6.426126 1.087498 24.715870 19 15 28
6.476312 1.087625 24.718750 32 19 38
6.525583 1.087597 24.718117 34 35 21
6.573705 1.087380 24.713175 16 44 33
6.621324 1.087083 24.706432 42 42 25
6.669013 1.086802 24.700047 27 26 43
6.715478 1.086327 24.689257 35 28 20
6.762039 1.085875 24.678976 25 42 17
6.808959 1.085486 24.670141 41 29 31
6.856273 1.085165 24.662851 28 31 27
6.905053 1.085080 24.660904 18 27 17
6.954174 1.085048 24.660192 23 21 33
7.003614 1.085067 24.660612 16 30 34
7.053659 1.085178 24.663143 28 23 20
7.103959 1.085327 24.666523 37 23 17
7.154246 1.085472 24.669813 40 43 30
7.205116 1.085702 24.675055 30 28 20
7.255904 1.085918 24.679945 42 36 39
7.306439 1.086092 24.683916 39 19 18
7.356712 1.086226 24.686954 33 35 34
7.406240 1.086249 24.687468 19 18 29
7.455026 1.086163 24.685516 32 26 16
7.504251 1.086142 24.685038 39 18 38
7.551642 1.085857 24.678568 37 16 41
7.596384 1.085198 24.663584 21 35 44
7.640834 1.084505 24.647852 39 38 31
7.680310 1.083121 24.616379 18 31 43
7.720510 1.081855 24.587612 33 35 25
7.759207 1.080396 24.554453 39 43 37
7.795305 1.078596 24.513536 27 19 23
7.835490 1.077380 24.485907 37 36 41
7.871482 1.075606 24.445595 44 41 43
7.911212 1.074362 24.417320 25 22 24
4.790166 1.159724 25.211399 32 25 24
4.830822 1.157384 25.160532 19 25 31
4.872886 1.155427 25.117970 20 19 33
4.914645 1.153437 25.074720 40 31 18
4.954304 1.151000 25.021736 16 18 39
4.997659 1.149462 24.988295 34 27 44
5.038220 1.147317 24.941685 29 17 43
5.082548 1.146065 24.914452 22 34 30
5.125292 1.144483 24.880060 44 18 17
5.161517 1.141489 24.814987 22 35 18
5.199258 1.138885 24.758369 120 120 120
5.231676 1.135175 24.677715 120 120 120
5.267303 1.132224 24.613565 120 120 120
5.304985 1.129765 24.560118 41 34 29
5.342422 1.127300 24.506521 23 39 37
5.386485 1.126265 24.484022 36 25 34
5.430903 1.125322 24.463526 24 33 41
5.477089 1.124759 24.451290 31 37 41
5.526870 1.124938 24.455177 35 35 20
5.579421 1.125673 24.471146 40 23 25
5.633782 1.126756 24.494703 36 42 37
5.690050 1.128200 24.526077 34 21 29
5.744952 1.129350 24.551079 32 22 43
5.798257 1.130169 24.568888 23 36 24
5.849798 1.130633 24.578981 27 36 43
5.898105 1.130470 24.575439 23 38 20
5.946186 1.130267 24.571016 39 38 44
5.994238 1.130061 24.566549 20 27 16
6.042825 1.129959 24.564327 16 36 16
6.092593 1.130078 24.566908 33 35 35
6.143110 1.130332 24.572441 29 28 21
6.195570 1.130937 24.585596 26 41 30
6.248479 1.131614 24.600309 36 39 42
6.301471 1.132296 24.615122 38 25 37
6.354075 1.132897 24.628199 34 28 31
6.404741 1.133146 24.633617 19 40 22
6.454843 1.133293 24.636805 23 16 18
6.504199 1.133307 24.637119 32 37 22
6.552363 1.133115 24.632942 17 37 43
6.599805 1.132802 24.626139 29 20 18
6.647140 1.132476 24.619038 30 32 40
6.692923 1.131891 24.606335 32 36 42
6.738680 1.131311 24.593721 42 18 27
6.784765 1.130794 24.582481 29 30 41
6.831337 1.130365 24.573156 24 26 29
6.879719 1.130240 24.570425 38 38 32
6.928361 1.130158 24.568655 24 38 16
6.977360 1.130136 24.568169 24 33 22
7.027049 1.130225 24.570101 19 40 16
7.077049 1.130362 24.573088 38 26 44
7.127159 1.130515 24.576410 19 44 31
7.177861 1.130759 24.581715 39 22 36
7.228370 1.130969 24.586292 38 29 28
7.278802 1.131165 24.590546 38 35 44
7.329216 1.131355 24.594685 15 23 41
7.378966 1.131441 24.596552 31 16 18
7.428877 1.131551 24.598930 31 28 16
7.479549 1.131774 24.603779 37 36 21
7.528522 1.131739 24.603014 26 44 38
7.574734 1.131291 24.593292 39 20 17
7.619808 1.130681 24.580025 21 38 42
7.660034 1.129364 24.551390 15 23 30
7.700641 1.128119 24.524334 40 27 37
7.739519 1.126639 24.492149 43 22 38
7.775937 1.124821 24.452631 34 34 16
7.816228 1.123583 24.425713 40 36 22
7.852163 1.121738 24.385599 23 23 19
7.891737 1.120432 24.357212 34 25 34
7.930335 1.119004 24.326180 37 16 23
4.724788 1.206329 25.131849 37 25 31
4.769149 1.204838 25.100782 44 43 37
4.809796 1.202449 25.051022 38 33 34
4.852034 1.200503 25.010483 30 39 16
4.894128 1.198562 24.970041 36 21 16
4.934145 1.196156 24.919926 40 34 19
4.977662 1.194639 24.888311 32 26 17
5.018747 1.192574 24.845282 33 19 21
5.063517 1.191416 24.821163 38 44 37
5.106866 1.189949 24.790611 22 32 25
5.144067 1.187092 24.731091 39 40 16
5.182539 1.184580 24.678755 120 120 120
5.215868 1.180951 24.603153 120 120 120
5.252008 1.178020 24.542091 120 120 120
5.290034 1.175563 24.490896 20 29 36
5.327944 1.173125 24.440109 18 26 24
5.372185 1.172113 24.419024 17 23 26
5.416966 1.171236 24.400747 20 23 20
5.463523 1.170755 24.390730 23 32 23
5.513501 1.171009 24.396023 35 17 22
5.566208 1.171833 24.413195 25 19 25
5.620501 1.172974 24.436960 22 20 37
5.675599 1.174262 24.463791 34 37 37
5.728487 1.175074 24.480715 17 24 29
5.779727 1.175538 24.490368 34 38 35
5.830098 1.175818 24.496210 25 22 38
5.878392 1.175678 24.493299 42 37 39
5.926141 1.175433 24.488184 19 40 30
5.973563 1.175127 24.481815 26 26 27
6.021504 1.174928 24.477659 38 34 36
6.070675 1.174969 24.478529 21 19 39
6.120839 1.175201 24.483356 30 43 36
6.172946 1.175799 24.495819 27 16 40
6.225593 1.176490 24.510208 40 28 20
6.278398 1.177200 24.524992 17 25 26
6.330770 1.177818 24.537867 43 42 27
6.381232 1.178074 24.543201 34 29 35
6.431311 1.178255 24.546988 18 32 37
6.480847 1.178336 24.548664 34 33 15
6.529087 1.178181 24.545441 36 43 15
6.576260 1.177838 24.538282 39 17 22
6.623081 1.177437 24.529928 36 22 26
6.668123 1.176728 24.515160 15 23 40
6.713241 1.176042 24.500881 28 17 31
6.758647 1.175417 24.487850 23 37 21
6.804440 1.174867 24.476404 44 16 38
6.852252 1.174672 24.472330 33 31 41
6.900197 1.174502 24.468782 19 30 40
6.948619 1.174414 24.466969 38 16 22
6.997826 1.174460 24.467922 25 15 44
7.047346 1.174558 24.469952 38 42 22
7.097162 1.174703 24.472973 18 34 33
7.147573 1.174944 24.477991 44 22 42
7.197802 1.175151 24.482321 42 26 23
7.248043 1.175358 24.486631 43 42 26
7.298329 1.175570 24.491035 40 39 41
7.347990 1.175678 24.493299 20 20 42
7.398043 1.175848 24.496832 28 18 32
7.448699 1.176110 24.502298 36 33 29
7.498038 1.176163 24.503391 20 44 23
7.545410 1.175908 24.498085 19 24 39
7.591711 1.175491 24.489389 15 28 23
7.633365 1.174364 24.465914 30 31 34
7.674831 1.173223 24.442137 37 32 22
7.714118 1.171765 24.411766 44 18 31
7.750750 1.169925 24.373428 20 32 33
7.790731 1.168610 24.346035 24 23 31
7.826248 1.166646 24.305119 15 22 24
7.865498 1.165259 24.276230 29 32 32
7.903630 1.163725 24.244265 34 28 26
7.936353 1.161418 24.196199 20 42 36
4.670422 1.255490 25.109797 31 19 17
4.711816 1.253143 25.062853 34 24 28
4.755870 1.251545 25.030897 34 22 37
4.796397 1.249062 24.981234 18 44 39
4.838696 1.247087 24.941732 28 39 42
4.880983 1.245149 24.902975 26 35 37
4.921173 1.242720 24.854408 33 28 42
4.964748 1.241187 24.823738 28 23 40
5.006219 1.239163 24.783262 28 17 41
5.051405 1.238089 24.761789 22 44 36
5.095288 1.236720 24.734409 34 27 25
5.133200 1.233942 24.678848 19 34 31
5.172136 1.231461 24.629221 120 120 120
5.206054 1.227843 24.556858 120 120 120
5.242533 1.224891 24.497820 120 120 120
5.280788 1.222405 24.448093 27 25 29
5.319022 1.219959 24.399183 40 35 27
5.363400 1.218955 24.379091 43 36 35
5.408496 1.218130 24.362593 15 35 33
5.455419 1.217727 24.354549 24 24 28
5.505642 1.218062 24.361250 34 34 44
5.558472 1.218963 24.379263 27 40 29
5.612663 1.220144 24.402882 39 15 20
5.667015 1.221339 24.426788 23 33 19
5.718677 1.221940 24.438791 42 33 17
5.768701 1.222182 24.443649 43 27 28
5.818453 1.222364 24.447281 18 27 35
5.866841 1.222259 24.445171 25 35 28
5.914534 1.222011 24.440224 19 34 41
5.961694 1.221659 24.433172 33 32 43
6.009350 1.221413 24.428251 30 35 40
6.058291 1.221430 24.428595 16 35 37
6.108319 1.221664 24.433275 33 34 42
6.160308 1.222283 24.445665 20 31 34
6.212856 1.223003 24.460062 32 26 26
6.265586 1.223747 24.474947 32 40 43
6.317886 1.224397 24.487930 35 42 28
6.368267 1.224667 24.493336 25 19 36
6.418366 1.224879 24.497580 30 31 17
6.468045 1.225008 24.500170 15 39 18
6.516332 1.224874 24.497488 42 15 26
6.563246 1.224486 24.489725 39 23 44
6.609625 1.224005 24.480093 22 29 41
6.654201 1.223199 24.463974 40 22 40
6.699070 1.222458 24.449160 36 16 43
6.744216 1.221778 24.435564 21 40 42
6.789569 1.221146 24.422911 19 36 34
6.836978 1.220889 24.417778 37 39 27
6.884424 1.220643 24.412851 43 17 38
6.932471 1.220506 24.410110 34 26 17
6.981343 1.220515 24.410292 21 44 22
7.030471 1.220568 24.411356 36 34 33
7.080012 1.220692 24.413834 16 26 23
7.130124 1.220912 24.418234 34 33 44
7.180155 1.221115 24.422295 38 39 20
7.230194 1.221317 24.426331 38 40 39
7.280185 1.221508 24.430151 43 37 23
7.329584 1.221597 24.431948 16 42 15
7.379053 1.221698 24.433950 24 23 24
7.428690 1.221824 24.436480 26 38 19
7.477475 1.221810 24.436193 27 20 39
7.525491 1.221671 24.433413 36 37 35
7.573106 1.221469 24.429373 43 36 31
7.616307 1.220562 24.411242 34 43 37
7.658768 1.219549 24.390980 43 41 18
7.698604 1.218134 24.362671 34 42 40
7.735425 1.216262 24.325237 35 37 32
7.774998 1.214843 24.296867 31 15 35
7.810054 1.212741 24.254827 19 38 21
7.849050 1.211273 24.225462 22 16 30
7.886896 1.209647 24.192934 37 29 37
7.919261 1.207204 24.144089 29 15 33
7.955380 1.205361 24.107212 34 32 20
4.607857 1.302220 25.042700 40 37 28
4.652010 1.300562 25.010807 41 41 35
4.693453 1.298189 24.965178 23 35 37
4.737667 1.296625 24.935091 21 35 26
4.778574 1.294197 24.888409 41 18 16
4.821169 1.292272 24.851389 27 30 32
4.863742 1.290381 24.815012 37 43 30
4.904227 1.287979 24.768822 25 41 26
4.947856 1.286442 24.739279 35 18 18
4.989482 1.284421 24.700407 32 39 32
5.034592 1.283327 24.679375 44 35 25
5.078621 1.281982 24.653502 34 15 24
5.117386 1.279346 24.602816 33 27 19
5.157277 1.277040 24.558464 120 120 120
5.192085 1.273530 24.490967 120 120 120
5.228785 1.270546 24.433573 120 120 120
5.267021 1.267986 24.384356 15 16 35
5.305448 1.265520 24.336916 36 36 22
5.349896 1.264521 24.317709 31 33 18
5.395344 1.263774 24.303352 31 31 23
5.442876 1.263525 24.298552 16 23 16
5.493392 1.263966 24.307045 38 37 31
5.545815 1.264835 24.323751 33 16 40
5.599092 1.265882 24.343878 25 32 35
5.652137 1.266858 24.362661 33 17 17
5.702626 1.267250 24.370195 41 37 37
5.751688 1.267321 24.371561 15 40 37
5.800836 1.267409 24.373259 42 42 23
5.849208 1.267328 24.371698 43 26 38
5.896720 1.267064 24.366610 30 35 40
5.943509 1.266650 24.358644 30 35 40
5.990780 1.266344 24.352766 30 35 40
6.039390 1.266324 24.352379 30 35 40
6.089209 1.266555 24.356836 30 35 40
6.141046 1.267200 24.369228 43 17 36
6.193485 1.267958 24.383799 23 24 17
6.246179 1.268755 24.399137 35 37 29
6.298445 1.269454 24.412579 34 30 39
6.348774 1.269755 24.418362 37 21 40
6.398964 1.270023 24.423527 43 26 42
6.448805 1.270219 24.427292 44 15 28
6.497206 1.270131 24.425587 42 44 29
6.544093 1.269749 24.418259 44 17 29
6.590267 1.269237 24.408398 29 28 37
6.634523 1.268365 24.391630 43 42 30
6.679088 1.267564 24.376232 34 27 30
6.723818 1.266806 24.361660 16 18 32
6.768609 1.266071 24.347515 21 17 32
6.815507 1.265737 24.341095 40 31 16
6.862306 1.265390 24.334417 44 22 25
6.909836 1.265181 24.330410 43 42 42
6.958225 1.265132 24.329458 35 17 39
7.006770 1.265111 24.329062 24 24 21
7.055875 1.265191 24.330603 35 28 29
7.105560 1.265374 24.334110 15 40 34
7.155357 1.265573 24.337948 38 32 20
7.205176 1.265774 24.341810 20 39 15
7.254794 1.265937 24.344946 20 35 30
7.303824 1.265996 24.346081 16 39 37
7.352586 1.266008 24.346310 17 42 38
7.401181 1.265992 24.345991 43 24 38
7.449289 1.265892 24.344082 24 21 38
7.497508 1.265813 24.342560 33 31 24
7.545923 1.265768 24.341686 22 33 20
7.590440 1.265073 24.328335 30 28 19
7.633945 1.264220 24.311928 36 41 28
7.674760 1.262935 24.287216 25 30 21
7.712702 1.261197 24.253780 39 34 25
7.752828 1.259835 24.227589 17 15 18
7.787983 1.257687 24.186281 35 35 20
7.826506 1.256106 24.155884 27 30 32
7.863454 1.254293 24.121023 22 34 19
7.894986 1.251644 24.070080 27 17 29
7.930490 1.249653 24.031788 36 33 26
7.959251 1.246630 23.973648 37 23 18
4.552022 1.350600 25.011108 34 37 24
4.595002 1.348533 24.972837 34 36 21
4.638756 1.346736 24.939550 24 19 18
4.680360 1.344359 24.895535 27 26 26
4.725015 1.342899 24.868498 15 34 28
4.766464 1.340568 24.825333 43 37 21
4.809349 1.338685 24.790457 31 22 33
4.852095 1.336802 24.755587 22 32 15
4.892801 1.334400 24.711115 33 17 18
4.936468 1.332846 24.682341 42 27 43
4.977958 1.330741 24.643356 29 37 15
5.022528 1.329493 24.620234 28 19 28
5.066273 1.328052 24.593559 31 23 20
5.105714 1.325522 24.546701 28 16 17
5.146703 1.323438 24.508110 120 120 120
5.182333 1.320028 24.444967 120 120 120
5.218991 1.316942 24.387810 120 120 120
5.256911 1.314228 24.337551 41 33 24
5.295318 1.311684 24.290451 33 17 28
5.339794 1.310677 24.271790 17 24 15
5.385503 1.309987 24.259024 21 38 22
5.433609 1.309888 24.257185 29 37 27
5.484366 1.310424 24.267105 32 20 35
5.536060 1.311172 24.280964 22 19 39
5.588076 1.311983 24.295984 42 30 23
5.639976 1.312753 24.310240 41 35 27
5.690033 1.313085 24.316381 44 26 27
5.738960 1.313152 24.317629 23 20 15
5.787865 1.313213 24.318762 32 37 32
5.836125 1.313128 24.317186 30 35 40
5.883418 1.312829 24.311644 30 35 40
5.929918 1.312359 24.302944 30 35 40
5.976896 1.312001 24.296324 30 35 40
6.025232 1.311946 24.295292 30 35 40
6.074873 1.312173 24.299492 30 35 40
6.126583 1.312839 24.311838 30 35 40
6.178956 1.313636 24.326599 30 38 19
6.231637 1.314486 24.342333 28 31 30
6.283914 1.315238 24.356256 31 15 24
6.334229 1.315571 24.362421 26 43 37
6.384502 1.315890 24.368328 19 19 43
6.434414 1.316130 24.372780 23 29 39
6.482917 1.316081 24.371870 42 34 30
6.530017 1.315750 24.365734 28 40 26
6.576349 1.315270 24.356848 36 27 44
6.620602 1.314384 24.340448 31 15 33
6.664957 1.313532 24.324659 39 31 33
6.709329 1.312695 24.309162 18 35 40
6.753714 1.311873 24.293936 35 37 20
6.800278 1.311482 24.286707 43 44 33
6.846633 1.311057 24.278839 20 22 37
6.893817 1.310796 24.274004 40 37 18
6.941864 1.310702 24.272253 44 40 30
6.989989 1.310623 24.270796 39 44 26
7.038773 1.310668 24.271631 41 22 17
7.088171 1.310826 24.274557 41 21 30
7.137833 1.311031 24.278343 20 44 19
7.187540 1.311240 24.282230 27 24 41
7.236916 1.311388 24.284954 18 19 25
7.285680 1.311422 24.285601 25 15 29
7.334033 1.311383 24.284876 29 30 43
7.382180 1.311308 24.283485 33 44 20
7.429899 1.311159 24.280716 40 19 42
7.477775 1.311038 24.278490 26 28 19
7.525992 1.310979 24.277393 23 26 35
7.570939 1.310355 24.265829 22 33 23
7.615113 1.309605 24.251953 33 17 25
7.657031 1.308480 24.231110 29 34 31
7.696791 1.307002 24.203745 16 20 20
7.738498 1.305872 24.182806 28 29 30
7.774234 1.303754 24.143585 21 26 27
7.811831 1.301972 24.110588 33 40 19
7.847164 1.299837 24.071056 18 30 22
7.877545 1.296913 24.016905 35 38 15
7.912468 1.294767 23.977175 26 17 32
7.939980 1.291442 23.915602 25 43 17
7.970909 1.288710 23.864998 43 23 18
4.499453 1.399830 24.996964 28 32 37
4.539521 1.396776 24.942425 21 31 38
4.582071 1.394543 24.902559 17 33 24
4.625635 1.392664 24.869007 22 18 15
4.667796 1.390407 24.828701 36 16 18
4.713300 1.389183 24.806845 44 19 39
4.755702 1.387080 24.769281 34 23 33
4.799074 1.385300 24.737494 34 19 31
4.842055 1.383444 24.704363 32 40 41
4.883028 1.381058 24.661757 36 25 17
4.926686 1.379472 24.633430 23 37 21
4.967824 1.377218 24.593187 16 21 28
5.011571 1.375725 24.566526 43 44 23
5.054696 1.374092 24.537359 19 23 30
5.094449 1.371582 24.492542 23 31 35
5.136315 1.369684 24.458641 120 120 120
5.172542 1.366332 24.398783 120 120 120
5.209055 1.363117 24.341379 120 120 120
5.246591 1.360227 24.289772 16 33 30
5.284800 1.357563 24.242203 22 33 37
5.329151 1.356511 24.223413 17 27 28
5.374940 1.355841 24.211441 20 37 42
5.423526 1.355882 24.212172 38 31 26
5.474415 1.356492 24.223076 31 43 37
5.525145 1.357053 24.233091 20 24 43
5.575665 1.357553 24.242022 44 33 25
5.626414 1.358100 24.251783 22 30 26
5.676340 1.358440 24.257862 31 20 27
5.725492 1.358591 24.260559 24 33 37
5.774300 1.358659 24.261766 30 35 40
5.822390 1.358558 24.259960 30 35 40
5.869458 1.358222 24.253960 30 35 40
5.915736 1.357710 24.244818 30 35 40
5.962498 1.357317 24.237799 30 35 40
6.010639 1.357241 24.236446 30 35 40
6.060128 1.357469 24.240513 30 35 40
6.111779 1.358173 24.253090 30 35 40
6.164132 1.359021 24.268234 41 34 20
6.216867 1.359940 24.284637 37 26 28
6.269240 1.360765 24.299379 40 39 43
6.319602 1.361145 24.306162 35 22 25
6.370031 1.361533 24.313095 20 16 25
6.420018 1.361822 24.318251 29 23 27
6.468661 1.361823 24.318274 22 33 18
6.516143 1.361582 24.313967 43 43 44
6.562807 1.361175 24.306692 34 25 44
6.607245 1.360315 24.291344 34 22 34
6.651476 1.359426 24.275461 38 29 27
6.695541 1.358515 24.259205 22 34 38
6.739636 1.357625 24.243296 20 23 39
6.785925 1.357185 24.235445 43 22 43
6.831904 1.356690 24.226608 15 21 21
6.878756 1.356374 24.220972 23 36 18
6.926452 1.356228 24.218365 17 44 39
6.974134 1.356082 24.215744 21 35 33
7.022556 1.356080 24.215712 43 17 40
7.071634 1.356204 24.217926 20 42 17
7.121187 1.356417 24.221725 15 42 26
7.170810 1.356640 24.225710 42 28 21
7.219955 1.356770 24.228037 33 34 40
7.268462 1.356780 24.228207 39 25 28
7.316419 1.356687 24.226553 17 44 41
7.364212 1.356565 24.224380 37 42 25
7.411504 1.356354 24.220602 26 22 32
7.458702 1.356128 24.216566 34 35 38
7.506302 1.355977 24.213879 39 27 23
7.551105 1.355327 24.202261 20 17 33
7.595493 1.354610 24.189468 28 21 31
7.638194 1.353604 24.171499 41 15 26
7.679459 1.352358 24.149242 34 31 29
7.722645 1.351463 24.133265 43 26 27
7.759319 1.349447 24.097265 20 35 25
7.796752 1.347587 24.064049 31 34 31
7.831253 1.345246 24.022247 25 34 23
7.860889 1.342103 23.966125 36 24 44
7.895168 1.339786 23.924751 38 18 30
7.921378 1.336136 23.859571 43 18 34
7.950920 1.333088 23.805151 18 33 16
7.981437 1.330239 23.754276 16 22 15
4.439737 1.446656 24.942341 21 28 26
4.481712 1.444107 24.898397 26 20 17
4.521107 1.440792 24.841246 18 42 29
4.563314 1.438436 24.800617 38 29 38
4.607174 1.436646 24.769751 30 28 40
4.650391 1.434695 24.736122 23 31 37
4.697162 1.433870 24.721903 43 29 19
4.741069 1.432198 24.693066 30 30 38
4.785351 1.430672 24.666758 30 33 44
4.828850 1.428946 24.636992 21 33 23
4.870310 1.426657 24.597527 44 39 24
4.913949 1.425045 24.569744 29 35 16
4.954705 1.422638 24.528244 37 17 36
4.997654 1.420902 24.498304 37 24 19
5.040070 1.419049 24.466360 37 33 43
5.079816 1.416487 24.422192 30 21 19
5.122156 1.414691 24.391220 120 120 120
5.158731 1.411351 24.333635 120 120 120
5.195188 1.408042 24.276579 120 120 120
5.232479 1.405017 24.224438 34 32 36
5.270403 1.402217 24.176159 44 27 16
5.314422 1.401075 24.156466 31 31 30
5.360114 1.400390 24.144659 29 23 25
5.409124 1.400577 24.147877 18 37 35
5.460105 1.401266 24.159756 15 40 18
5.509772 1.401609 24.165665 15 44 30
5.558696 1.401758 24.168242 41 34 17
5.608021 1.402005 24.172506 40 24 32
5.657463 1.402277 24.177191 39 34 22
5.706502 1.402445 24.180094 30 35 40
5.755003 1.402480 24.180687 30 35 40
5.802892 1.402365 24.178715 30 35 40
5.849709 1.401996 24.172350 30 35 40
5.895707 1.401439 24.162733 30 35 40
5.942221 1.401012 24.155371 30 35 40
5.990143 1.400921 24.153803 30 35 40
6.039474 1.401158 24.157898 30 35 40
6.091079 1.401915 24.170950 30 35 40
6.143424 1.402829 24.186708 30 35 40
6.196225 1.403832 24.204002 22 23 31
6.248747 1.404757 24.219950 32 33 44
6.299193 1.405205 24.227667 39 30 18
6.349855 1.405693 24.236086 18 29 37
6.399998 1.406060 24.242418 22 25 16
6.448827 1.406135 24.243711 20 43 21
6.496714 1.406005 24.241470 38 26 17
6.543683 1.405680 24.235863 40 25 41
6.588276 1.404853 24.221603 33 39 41
6.632364 1.403931 24.205709 17 29 44
6.676083 1.402945 24.188705 36 18 35
6.719823 1.401977 24.172026 35 29 38
6.765766 1.401480 24.163448 44 41 37
6.811253 1.400896 24.153379 15 21 16
6.857658 1.400508 24.146683 31 16 42
6.904874 1.400289 24.142916 35 15 18
6.951950 1.400045 24.138714 31 18 26
6.999881 1.399976 24.137520 20 32 24
7.048551 1.400055 24.138872 33 17 36
7.097942 1.400274 24.142658 41 39 24
7.147464 1.400517 24.146839 27 25 31
7.196374 1.400637 24.148907 27 43 40
7.244611 1.400625 24.148705 34 35 15
7.292092 1.400468 24.146000 31 36 44
7.339348 1.400270 24.142591 31 20 17
7.386094 1.399979 24.137564 16 30 24
7.432760 1.399676 24.132338 32 32 39
7.480011 1.399486 24.129068 19 21 22
7.524601 1.398804 24.117310 27 38 23
7.568839 1.398066 24.104582 24 29 17
7.611655 1.397076 24.087517 21 36 22
7.653251 1.395876 24.066826 21 31 41
7.696771 1.395040 24.052410 38 29 33
7.734623 1.393193 24.020567 35 31 39
7.773768 1.391600 23.993111 40 15 25
7.809530 1.389426 23.955614 21 29 21
7.839203 1.386201 23.900009 24 38 40
7.872363 1.383627 23.855644 38 27 32
7.896899 1.379579 23.785839 44 25 22
7.925011 1.376199 23.727577 33 33 40
7.954097 1.373029 23.672907 30 19 15
7.980938 1.369510 23.612244 38 29 21
4.428454 1.492737 24.878958 31 21 32
4.469175 1.489725 24.828749 39 37 41
4.507767 1.486077 24.767952 33 18 18
4.549869 1.483653 24.727551 32 35 15
4.594300 1.482032 24.700537 26 44 41
4.638564 1.480393 24.673210 20 34 22
4.686444 1.479930 24.665497 30 37 33
4.731679 1.478650 24.644161 21 32 15
4.776802 1.477361 24.622688 18 16 40
4.820793 1.475753 24.595881 42 35 33
4.862677 1.473538 24.558973 17 44 20
4.906279 1.471884 24.531393 36 35 29
4.946736 1.469328 24.488792 36 26 35
4.989184 1.467407 24.456783 40 31 28
5.031035 1.465350 24.422499 33 43 38
5.070408 1.462618 24.376961 43 20 32
5.112629 1.460751 24.345854 120 120 120
5.149110 1.457295 24.288256 120 120 120
5.185549 1.453892 24.231539 120 120 120
5.222787 1.450774 24.179567 39 35 41
5.260419 1.447822 24.130362 34 40 36
5.304060 1.446562 24.109362 35 44 16
5.349501 1.445811 24.096853 16 43 33
5.398663 1.446070 24.101173 39 34 36
5.449622 1.446802 24.113373 27 20 17
5.498576 1.446994 24.116562 15 42 21
5.546512 1.446916 24.115269 32 38 27
5.594941 1.446968 24.116127 40 37 40
5.644014 1.447183 24.119717 37 25 32
5.692922 1.447353 24.122551 16 39 29
5.741178 1.447356 24.122597 30 35 40
5.788915 1.447229 24.120478 30 35 40
5.835582 1.446839 24.113976 30 35 40
5.881434 1.446254 24.104237 30 35 40
5.927837 1.445814 24.096899 30 35 40
5.975664 1.445725 24.095419 30 35 40
6.024918 1.445980 24.099670 30 35 40
6.076536 1.446794 24.113239 30 35 40
6.128894 1.447770 24.129503 28 39 31
6.181771 1.448853 24.147543 27 24 44
6.234432 1.449868 24.164467 21 20 39
6.284969 1.450377 24.172956 33 29 31
6.335834 1.450954 24.182571 20 44 16
6.386102 1.451387 24.189781 38 23 25
6.435085 1.451523 24.192047 28 25 41
6.483262 1.451476 24.191275 31 30 16
6.530435 1.451208 24.186798 23 35 24
6.575160 1.450403 24.173382 40 27 20
6.619206 1.449461 24.157686 15 28 35
6.662741 1.448422 24.140368 36 39 31
6.706314 1.447406 24.123432 23 41 41
6.752063 1.446871 24.114510 25 43 38
6.797250 1.446223 24.103724 35 38 25
6.843361 1.445781 24.096342 31 25 34
6.890249 1.445507 24.091780 43 21 24
6.936898 1.445187 24.086451 20 31 24
6.984484 1.445066 24.084427 32 39 29
7.032863 1.445109 24.085148 24 26 40
7.082162 1.445339 24.088987 28 16 40
7.131644 1.445604 24.093393 23 37 29
7.180438 1.445726 24.095428 38 19 40
7.228542 1.445708 24.095140 24 25 42
7.275747 1.445513 24.091879 23 33 36
7.322649 1.445260 24.087662 20 20 18
7.369022 1.444906 24.081770 43 16 40
7.415381 1.444555 24.075912 39 16 36
7.462472 1.444349 24.072491 28 15 25
7.506667 1.443590 24.059832 27 39 33
7.550392 1.442750 24.045834 24 20 21
7.592677 1.441648 24.027460 21 16 41
7.633496 1.440282 24.004704 29 17 29
7.676355 1.439317 23.988609 38 38 37
7.715132 1.437602 23.960037 32 23 30
7.756788 1.436442 23.940704 24 36 36
7.794985 1.434660 23.910997 15 43 33
7.825367 1.431470 23.857826 41 30 16
7.857572 1.428649 23.810823 44 33 28
7.880947 1.424267 23.737791 38 34 36
7.908301 1.420653 23.677549 40 31 33
7.936632 1.417256 23.620928 37 20 21
7.962617 1.413482 23.558039 40 37 22
4.412571 1.536963 24.789726 18 32 33
4.451997 1.533466 24.733318 29 25 15
4.489891 1.529523 24.669731 20 30 35
4.532093 1.527118 24.630941 21 27 41
4.577309 1.525770 24.609188 21 29 29
4.622776 1.524533 24.589235 30 40 30
4.671785 1.524477 24.588345 17 15 17
4.718231 1.523595 24.574118 29 41 38
4.763974 1.522507 24.556568 33 31 15
4.808169 1.520951 24.531473 22 37 31
4.850229 1.518759 24.496107 41 23 41
4.893653 1.517032 24.468266 39 29 41
4.933548 1.514257 24.423504 24 18 34
4.975235 1.512081 24.388405 24 18 29
5.016229 1.509739 24.350628 22 39 33
5.054817 1.506724 24.302006 21 42 21
5.096580 1.504705 24.269430 120 120 120
5.132818 1.501107 24.211405 120 120 120
5.169378 1.497670 24.155973 120 120 120
5.206782 1.494539 24.105473 28 22 31
5.244255 1.491485 24.056213 39 44 30
5.287527 1.490121 24.034214 17 35 25
5.332521 1.489263 24.020367 35 34 39
5.381387 1.489491 24.024050 25 44 33
5.431967 1.490186 24.035254 24 34 18
5.480250 1.490243 24.036184 23 22 20
5.527530 1.490030 24.032740 34 44 16
5.575328 1.489958 24.031588 30 16 41
5.624037 1.490129 24.034346 17 28 36
5.672748 1.490298 24.037069 16 31 27
5.720804 1.490294 24.036993 20 16 23
5.768432 1.490178 24.035133 30 35 40
5.815044 1.489805 24.029108 30 35 40
5.860810 1.489222 24.019714 30 35 40
5.907177 1.488801 24.012915 30 35 40
5.955025 1.488756 24.012196 30 35 40
6.004265 1.489058 24.017061 30 35 40
6.056027 1.489975 24.031853 30 35 40
6.108504 1.491052 24.049227 22 18 20
6.161565 1.492254 24.068613 23 37 16
6.214525 1.493413 24.087307 18 37 27
6.265237 1.494018 24.097067 27 30 24
6.316469 1.494737 24.108660 31 28 44
6.367007 1.495282 24.117453 30 40 15
6.416248 1.495517 24.121235 15 25 39
6.464775 1.495582 24.122293 29 26 30
6.512110 1.495373 24.118925 30 35 40
6.556965 1.494602 24.106487 18 41 29
6.600992 1.493655 24.091211 24 42 44
6.644369 1.492576 24.073801 38 25 33
6.687760 1.491515 24.056692 44 38 23
6.733284 1.490941 24.047441 32 21 25
6.778026 1.490204 24.035553 32 29 38
6.823676 1.489676 24.027029 16 22 23
6.869996 1.489300 24.020966 19 32 32
6.915917 1.488843 24.013601 41 41 26
6.962915 1.488623 24.010052 27 40 43
7.010693 1.488572 24.009222 38 40 18
7.059667 1.488773 24.012472 19 44 43
7.108886 1.489023 24.016506 27 44 39
7.157266 1.489096 24.017670 41 36 43
7.204999 1.489033 24.016663 24 19 25
7.251583 1.488736 24.011866 32 17 36
7.297860 1.488379 24.006119 17 27 32
7.343563 1.487912 23.998573 33 23 28
7.389218 1.487440 23.990969 27 23 44
7.435840 1.487168 23.986580 33 25 28
7.479238 1.486259 23.971918 35 42 34
7.522139 1.485263 23.955856 18 19 28
7.563607 1.483999 23.935465 43 19 23
7.603334 1.482411 23.909857 20 20 17
7.645334 1.481283 23.891668 24 34 44
7.684564 1.479637 23.865107 44 23 38
7.727886 1.478793 23.851500 18 18 44
7.768140 1.477376 23.828651 43 18 29
7.800059 1.474401 23.780668 30 26 34
7.832762 1.471610 23.735641 29 23 42
7.856260 1.467133 23.663435 42 24 22
7.883182 1.463345 23.602341 30 25 40
7.910760 1.459724 23.543930 23 37 22
7.936184 1.455750 23.479836 16 15 30
4.367251 1.588091 24.813925 32 24 36
4.401227 1.582464 24.725992 27 44 40
4.439962 1.578653 24.666454 18 17 27
4.477603 1.574542 24.602213 18 20 38
4.520032 1.572185 24.565392 36 21 26
4.565856 1.571047 24.547613 30 41 43
4.612164 1.570099 24.532789 18 32 15
4.661870 1.570314 24.536160 40 23 15
4.708854 1.569618 24.525280 23 19 36
4.754614 1.568532 24.508318 24 18 18
4.798515 1.566862 24.482218 42 37 28
4.840366 1.564563 24.446295 22 16 23
4.883564 1.562741 24.417822 26 42 43
4.922917 1.559736 24.370878 34 36 18
4.963962 1.557321 24.333145 24 20 36
5.004238 1.554715 24.292419 27 27 34
5.042024 1.551392 24.240501 36 27 42
5.083230 1.549175 24.205856 120 120 120
5.119194 1.545417 24.147141 120 120 120
5.155927 1.541959 24.093115 120 120 120
5.193632 1.538854 24.044594 25 32 38
5.231172 1.535757 23.996201 22 22 20
5.274305 1.534343 23.974112 28 22 36
5.318950 1.533391 23.959234 27 16 36
5.367275 1.533507 23.961050 31 39 17
5.417352 1.534117 23.970585 30 33 40
5.465449 1.534161 23.971268 37 39 34
5.512816 1.534001 23.968767 32 40 44
5.560660 1.533975 23.968361 30 32 24
5.609240 1.534151 23.971113 27 33 44
5.657828 1.534326 23.973846 18 43 25
5.705878 1.534354 23.974276 32 26 34
5.753527 1.534274 23.973030 35 34 41
5.800258 1.533953 23.968008 30 35 40
5.846086 1.533400 23.959368 30 35 40
5.892542 1.533019 23.953424 30 35 40
5.940564 1.533049 23.953886 30 35 40
5.989896 1.533413 23.959585 30 35 40
6.041914 1.534454 23.975851 15 33 21
6.094595 1.535646 23.994467 21 31 18
6.147895 1.536974 24.015215 23 27 32
6.201187 1.538279 24.035608 39 27 19
6.252087 1.538975 24.046490 21 35 37
6.303681 1.539831 24.059853 32 16 23
6.354518 1.540489 24.070145 36 39 15
6.404012 1.540815 24.075233 31 30 38
6.452779 1.540962 24.077534 30 35 40
6.500163 1.540779 24.074678 30 35 40
6.545101 1.540024 24.062872 30 35 40
6.589175 1.539077 24.048084 26 33 19
6.632513 1.537974 24.030846 18 17 18
6.675845 1.536885 24.013832 44 15 25
6.721246 1.536285 24.004450 20 39 39
6.765668 1.535471 23.991732 17 27 23
6.810942 1.534860 23.982191 30 29 23
6.856753 1.534378 23.974661 41 21 33
6.902006 1.533779 23.965300 16 30 39
6.948452 1.533452 23.960180 29 34 26
6.995586 1.533279 23.957485 34 21 29
7.044151 1.533421 23.959696 35 33 16
7.092992 1.533620 23.962811 28 24 22
7.140803 1.533595 23.962425 41 36 23
7.188094 1.533460 23.960314 41 15 35
7.233981 1.533029 23.953579 30 36 20
7.279638 1.532555 23.946178 42 38 16
7.324686 1.531960 23.936882 20 25 19
7.369564 1.531338 23.927155 44 42 39
7.415639 1.530971 23.921415 41 28 28
7.458235 1.529894 23.904600 24 28 33
7.500434 1.528751 23.886734 19 39 30
7.541236 1.527339 23.864670 44 22 40
7.580136 1.525562 23.836905 28 38 21
7.621544 1.524309 23.817324 30 37 26
7.660501 1.522584 23.790375 35 16 26
7.703693 1.521717 23.776831 39 42 42
7.744462 1.520385 23.756018 37 40 19
7.777929 1.517645 23.713198 36 22 44
