ply
format ascii 1.0
element vertex 1255
property float x
property float y
property float z
property uchar red
property uchar green
property uchar blue
end_header
-7.055043 3.504466 23.055696 20 31 28
-7.014791 3.507395 23.074970 43 40 40
-6.979374 3.512798 23.110510 25 44 39
-6.941964 3.517262 23.139879 37 19 42
-6.909043 3.524076 23.184708 25 23 40
-6.872938 3.529347 23.219385 31 27 37
-6.836779 3.534661 23.254351 33 30 25
-6.803285 3.541436 23.298922 43 44 35
-6.765054 3.545821 23.327772 24 33 41
-6.730596 3.552259 23.370125 43 30 29
-6.692966 3.557101 23.401979 44 40 40
-6.654831 3.561740 23.432503 22 21 15
-6.619332 3.567867 23.472809 24 43 22
-6.579738 3.571858 23.499063 38 38 17
-6.542491 3.577190 23.534142 41 21 39
-6.502076 3.580853 23.558247 19 15 34
-6.460742 3.584061 23.579351 22 43 29
-6.421320 3.588385 23.607796 18 42 26
-6.378934 3.591104 23.625681 22 35 15
-6.338350 3.594885 23.650558 29 21 36
-6.296305 3.597889 23.670321 35 18 34
-6.252926 3.600169 23.685326 20 24 22
-6.208975 3.602154 23.698380 18 42 37
-6.162326 3.602590 23.701252 23 33 26
-6.116874 3.603740 23.708815 37 25 27
-6.071558 3.604987 23.717022 36 33 37
-6.026308 3.606294 23.725620 27 18 39
-5.981293 3.607764 23.735291 21 43 19
-5.935231 3.608621 23.740925 22 43 25
-5.890361 3.610221 23.751455 38 21 21
-5.845179 3.611655 23.760889 26 40 23
-5.800134 3.613198 23.771040 31 34 36
-5.756178 3.615451 23.785860 27 31 43
-5.711286 3.617148 23.797024 28 41 16
-5.664590 3.617722 23.800800 15 26 15
-5.615790 3.616950 23.795721 21 21 29
-5.565339 3.615092 23.783499 44 16 37
-5.514582 3.613002 23.769751 16 41 20
-5.464513 3.611330 23.758751 29 31 31
-5.413040 3.608693 23.741402 41 22 24
-5.362314 3.606512 23.727055 29 20 18
-5.311750 3.604402 23.713171 33 30 35
-5.260189 3.601571 23.694546 18 37 38
-5.209990 3.599629 23.681772 30 20 42
-5.162192 3.599326 23.679779 29 35 18
-5.116622 3.600586 23.688065 120 120 120
-5.073276 3.603448 23.706898 120 120 120
-5.030969 3.607110 23.730988 120 120 120
-4.987757 3.610186 23.751225 18 44 23
-4.946167 3.614506 23.779648 38 16 24
-4.902119 3.617097 23.796694 39 42 33
-4.858871 3.620336 23.817997 26 39 32
-4.819031 3.626202 23.856590 42 25 43
-4.777939 3.631234 23.889696 27 32 20
-4.739218 3.638187 23.935442 20 25 31
-4.697900 3.643269 23.968878 17 18 33
-4.655712 3.647774 23.998516 41 19 38
-4.614153 3.652871 24.032045 34 39 17
-4.569385 3.655508 24.049395 39 30 41
-4.527756 3.660739 24.083807 20 24 42
-4.485597 3.665650 24.116116 27 34 20
-4.443740 3.670916 24.150761 36 18 23
-4.402764 3.677034 24.191011 41 41 17
-4.358804 3.680768 24.215576 43 23 36
-4.318413 3.687634 24.260748 44 22 30
-4.277180 3.693928 24.302160 19 42 29
-4.235930 3.700353 24.344425 26 27 32
-4.195528 3.707676 24.392605 26 32 36
-4.151547 3.711971 24.420862 20 28 19
-4.109740 3.718336 24.462740 16 26 26
-4.065654 3.722768 24.491894 34 15 22
-4.021888 3.727604 24.523710 44 42 36
-3.980966 3.735227 24.573862 20 19 36
-3.938035 3.741133 24.612719 21 35 28
-3.897434 3.749430 24.667303 29 27 35
-3.853699 3.754886 24.703196 29 40 28
-3.810295 3.760811 24.742178 33 39 39
-3.769880 3.769880 24.801844 17 20 21
-3.727037 3.776731 24.846916 19 25 32
-3.688784 3.788481 24.924217 23 37 28
-3.649080 3.799042 24.993700 25 31 29
-3.608770 3.809258 25.060905 27 35 18
-3.569052 3.820394 25.134171 33 21 35
-3.524324 3.826409 25.173742 37 19 29
-3.480186 3.833248 25.218739 20 34 22
-3.433450 3.837385 25.245956 18 31 24
-3.384962 3.839659 25.260914 30 34 36
-3.336875 3.842462 25.279358 20 23 38
-7.820970 3.421675 22.218666 25 39 24
-7.782011 3.424085 22.234316 33 18 42
-7.744916 3.427348 22.255505 17 24 26
-7.704712 3.429265 22.267954 43 25 31
-7.665173 3.431502 22.282478 16 27 19
-7.629285 3.435409 22.307852 42 23 31
-7.591757 3.438619 22.328697 29 25 42
-7.560240 3.444607 22.367575 32 26 29
-7.526827 3.449796 22.401272 15 41 20
-7.495014 3.455785 22.440163 19 44 37
-7.466852 3.463540 22.490519 19 44 30
-7.433466 3.468951 22.525654 15 31 26
-7.406610 3.477494 22.581129 38 43 20
-7.376164 3.484446 22.626270 44 33 24
-7.345304 3.491286 22.670691 19 40 37
-7.317386 3.499619 22.724800 34 28 40
-7.282547 3.504726 22.757959 37 26 25
-7.252194 3.512069 22.805643 26 35 16
-7.217932 3.517600 22.841558 20 21 37
-7.182461 3.522608 22.874079 24 29 29
-7.149573 3.528956 22.915298 23 21 33
-7.111491 3.532805 22.940292 44 20 25
-7.075707 3.537854 22.973076 41 27 32
-7.035654 3.540819 22.992332 38 43 24
-6.995868 3.543959 23.012724 17 19 36
-6.960813 3.549554 23.049051 36 17 17
-6.923593 3.554111 23.078642 15 30 25
-6.890864 3.561051 23.123705 29 28 30
-6.854912 3.566407 23.158485 17 42 17
-6.818899 3.571804 23.193535 26 30 22
-6.785620 3.578718 23.238426 18 24 17
-6.747603 3.583210 23.267597 41 35 41
-6.713305 3.589753 23.310085 24 16 19
-6.675734 3.594626 23.341728 36 24 22
-6.637628 3.599277 23.371931 27 15 34
-6.602206 3.605460 23.412077 38 22 38
-6.562711 3.609491 23.438253 28 16 44
-6.525595 3.614898 23.473364 19 16 17
-6.485326 3.618624 23.497559 28 31 16
-6.444170 3.621906 23.518869 44 19 17
-6.404934 3.626323 23.547550 42 43 23
-6.362723 3.629108 23.565639 29 36 43
-6.322496 3.633076 23.591402 40 43 26
-6.280909 3.636316 23.612440 17 31 41
-6.237970 3.638816 23.628674 22 42 28
-6.194378 3.640971 23.642666 41 38 27
-6.147908 3.641453 23.645800 16 39 26
-6.102479 3.642565 23.653021 21 41 38
-6.057087 3.643716 23.660496 44 21 39
-6.011666 3.644868 23.667974 32 17 28
-5.966478 3.646181 23.676498 39 34 20
-5.920337 3.646927 23.681347 20 25 27
-5.875245 3.648338 23.690506 18 38 42
-5.829855 3.649584 23.698599 32 21 36
-5.784643 3.650963 23.707552 20 19 27
-5.740538 3.653069 23.721230 36 18 36
-5.695667 3.654720 23.731945 31 25 20
-5.648956 3.655207 23.735111 38 23 38
-5.600090 3.654296 23.729195 32 16 22
-5.549757 3.652404 23.716911 32 27 29
-5.499504 3.650533 23.704760 25 26 26
-5.450096 3.649194 23.696068 22 16 15
-5.399010 3.646700 23.679869 32 16 37
-5.348245 3.644380 23.664803 23 29 40
-5.297446 3.641994 23.649311 37 32 36
-5.245747 3.638942 23.629492 26 37 42
-5.195527 3.636869 23.616030 31 18 28
-5.147574 3.636360 23.612726 28 15 22
-5.101891 3.637460 23.619867 120 120 120
-5.058388 3.640148 23.637327 120 120 120
-5.015832 3.643576 23.659584 120 120 120
-4.972487 3.646490 23.678509 39 35 43
-4.930609 3.650547 23.704849 35 31 24
-4.886381 3.652925 23.720295 37 30 22
-4.842951 3.655953 23.739956 30 39 35
-4.802750 3.661502 23.775988 29 31 41
-4.761417 3.666291 23.807085 27 30 19
-4.722803 3.673292 23.852543 19 17 27
-4.682068 3.678767 23.888100 22 31 25
-4.640533 3.683722 23.920271 25 38 27
-4.599242 3.688975 23.954386 31 40 23
-4.554457 3.691507 23.970827 20 18 33
-4.512903 3.696740 24.004803 36 26 15
-4.470985 3.701783 24.037554 31 36 30
-4.429385 3.707202 24.072742 34 17 29
-4.388560 3.713397 24.112968 15 44 39
-4.344695 3.717128 24.137192 24 22 16
-4.304386 3.724020 24.181946 16 36 26
-4.263253 3.730346 24.223026 39 17 27
-4.222136 3.736833 24.265152 32 44 24
-4.181904 3.744263 24.313395 17 23 36
-4.138119 3.748649 24.341879 28 44 20
-4.096572 3.755191 24.384356 30 31 31
-4.052753 3.759783 24.414177 41 44 18
-4.009265 3.764797 24.446735 36 31 36
-3.968637 3.772655 24.497761 29 27 35
-3.925952 3.778728 24.537197 22 15 41
-3.885579 3.787210 24.592270 37 24 19
-3.842016 3.792759 24.628307 26 19 40
-3.798757 3.798757 24.667252 44 32 34
-3.758512 3.807966 24.727051 29 29 24
-3.715839 3.814928 24.772263 15 40 25
-3.677693 3.826788 24.849276 18 41 34
-3.638074 3.837421 24.918318 44 38 44
-3.597801 3.847649 24.984732 33 38 43
-3.558100 3.858784 25.057041 22 41 36
-3.513428 3.864771 25.095915 37 34 35
-3.469154 3.871375 25.138798 24 24 42
-3.422201 3.875140 25.163244 37 31 33
-3.373543 3.877057 25.175694 24 39 25
-3.325441 3.879681 25.192734 18 30 33
-7.760768 3.459085 22.173622 41 41 41
-7.722999 3.462034 22.192526 39 32 31
-7.682151 3.463629 22.202749 39 17 25
-7.641986 3.465552 22.215076 18 17 34
-7.605443 3.469150 22.238138 26 16 26
-7.567647 3.472214 22.257784 36 16 35
-7.535873 3.478095 22.295483 32 23 34
-7.502475 3.483292 22.328794 15 44 25
-7.470758 3.489336 22.367540 21 31 28
-7.442477 3.497067 22.417099 21 30 44
-7.408976 3.502425 22.451443 18 15 24
-7.382155 3.511025 22.506571 44 37 26
-7.351928 3.518100 22.551926 25 44 29
-7.321450 3.525143 22.597069 17 40 23
-7.294019 3.533748 22.652233 33 40 21
-7.259646 3.539077 22.686394 29 42 16
-7.229730 3.546660 22.734999 21 23 26
-7.195669 3.552292 22.771105 28 43 29
-7.160377 3.557385 22.803747 17 44 41
-7.127796 3.563898 22.845499 40 23 29
-7.090015 3.567878 22.871016 28 36 33
-7.054801 3.573211 22.905199 23 25 18
-7.015423 3.576490 22.926218 30 21 23
-6.976269 3.579928 22.948254 39 24 29
-6.941665 3.585761 22.985647 27 24 29
-6.904582 3.590383 23.015274 30 18 31
-6.871993 3.597419 23.060379 39 28 41
-6.836170 3.602846 23.095169 23 25 32
-6.800249 3.608296 23.130100 38 30 19
-6.767079 3.615289 23.174929 18 24 44
-6.729172 3.619831 23.204042 38 37 41
-6.694921 3.626416 23.246254 29 44 26
-6.657371 3.631293 23.277521 40 44 41
-6.619276 3.635940 23.307308 25 18 20
-6.583879 3.642146 23.347088 38 28 15
-6.544473 3.646207 23.373119 28 40 42
-6.507491 3.651685 23.408239 27 33 37
-6.467381 3.655476 23.432541 30 40 23
-6.426438 3.658848 23.454153 17 15 35
-6.387407 3.663366 23.483114 22 37 16
-6.345377 3.666218 23.501398 43 43 15
-6.305562 3.670402 23.528217 43 15 38
-6.264509 3.673923 23.550787 40 35 31
-6.222094 3.676692 23.568537 31 17 38
-6.178916 3.679049 23.583649 17 40 28
-6.132639 3.679583 23.587072 20 38 18
-6.087255 3.680666 23.594011 37 15 31
-6.041797 3.681720 23.600769 25 15 27
-5.996227 3.682722 23.607193 38 40 34
-5.950926 3.683907 23.614786 30 28 39
-5.904779 3.684582 23.619118 23 16 26
-5.859532 3.685834 23.627144 33 33 32
-5.813966 3.686905 23.634008 28 15 44
-5.768596 3.688119 23.641787 32 21 23
-5.724359 3.690083 23.654377 34 36 35
-5.679508 3.691680 23.664616 25 44 22
-5.632822 3.692102 23.667320 24 33 44
-5.583968 3.691097 23.660881 25 29 40
-5.533795 3.689197 23.648697 18 30 44
-5.483977 3.687502 23.637833 30 43 15
-5.435110 3.686423 23.630915 26 41 21
-5.384437 3.684088 23.615952 27 28 42
-5.333827 3.681757 23.601006 22 36 25
-5.283019 3.679246 23.584908 32 40 16
-5.231306 3.676053 23.564442 15 16 38
-5.181076 3.673854 23.550346 37 37 27
-5.132973 3.673136 23.545746 41 26 16
-5.087178 3.674073 23.551750 120 120 120
-5.043507 3.676575 23.567791 120 120 120
-5.000668 3.679737 23.588057 120 120 120
-4.957144 3.682450 23.605450 29 20 43
-4.914959 3.686219 23.629612 17 37 29
-4.870544 3.688373 23.643417 38 39 35
-4.826949 3.691196 23.661514 35 44 22
-4.786433 3.696453 23.695211 17 36 42
-4.744919 3.701037 23.724594 41 38 26
-4.706357 3.708039 23.769480 33 26 34
-4.666002 3.713757 23.806133 43 17 44
-4.624968 3.719047 23.840042 31 34 39
-4.584040 3.724532 23.875208 20 40 24
-4.539468 3.727142 23.891937 22 40 37
-4.498168 3.732522 23.926426 23 34 37
-4.456514 3.737722 23.959755 34 38 33
-4.415129 3.743261 23.995266 32 42 26
-4.374466 3.749543 24.035530 36 41 37
-4.330704 3.753277 24.059465 28 22 40
-4.290487 3.760202 24.103861 27 26 41
-4.249443 3.766552 24.144562 43 18 26
-4.208460 3.773102 24.186550 21 21 37
-4.168407 3.780648 24.234926 27 17 32
-4.124842 3.785149 24.263779 20 41 37
-4.083579 3.791895 24.307018 15 36 21
-4.040058 3.796681 24.337698 31 26 26
-3.996852 3.801884 24.371050 21 41 37
-3.956476 3.809940 24.422689 35 24 18
-3.913962 3.816113 24.462263 30 22 37
-3.873715 3.824680 24.517181 15 18 20
-3.830249 3.830249 24.552881 17 24 26
-3.787037 3.836219 24.591146 17 19 40
-3.746819 3.845420 24.650127 42 17 37
-3.704199 3.852367 24.694660 43 16 31
-3.666001 3.864163 24.770277 35 40 38
-3.626376 3.874758 24.838194 33 27 40
-3.586025 3.884861 24.902952 44 21 34
-3.546074 3.895686 24.972349 15 32 27
-3.501205 3.901342 25.008604 27 24 41
-3.456791 3.907677 25.049212 29 18 35
-3.409910 3.911367 25.072865 15 16 15
-3.361453 3.913333 25.085470 36 27 24
-7.695221 3.493807 22.112705 17 34 15
-7.653663 3.495026 22.120415 44 33 39
-7.612791 3.496573 22.130207 40 36 23
-7.575529 3.499806 22.150669 19 38 15
-7.537441 3.502693 22.168943 28 22 33
-7.505367 3.508426 22.205227 34 36 32
-7.471943 3.513592 22.237926 16 22 21
-7.440283 3.519655 22.276297 19 28 29
-7.411822 3.527313 22.324764 25 22 44
-7.378191 3.532588 22.358154 23 30 38
-7.351375 3.541211 22.412727 36 27 29
-7.321345 3.548382 22.458115 40 18 38
-7.291253 3.555611 22.503866 28 34 33
-7.264311 3.564476 22.559973 44 44 23
-7.230426 3.570023 22.595081 22 29 16
-7.201004 3.577857 22.644667 28 36 32
-7.167229 3.583615 22.681105 31 17 30
-7.132230 3.588829 22.714109 22 36 30
-7.100138 3.595582 22.756851 26 27 38
-7.062823 3.599761 22.783300 38 25 44
-7.028340 3.605447 22.819284 41 29 34
-6.989726 3.609074 22.842241 43 29 26
-6.951237 3.612814 22.865910 25 15 25
-6.917101 3.618880 22.904306 17 33 38
-6.880167 3.623555 22.933889 20 30 22
-6.847649 3.630633 22.978689 35 16 33
-6.811858 3.636059 23.013033 32 39 32
-6.775949 3.641496 23.047445 17 42 28
-6.742839 3.648523 23.091915 25 36 31
-6.705077 3.653111 23.120955 38 33 33
-6.670868 3.659712 23.162737 27 40 29
-6.633307 3.664554 23.193382 16 40 21
-6.595200 3.669160 23.222534 35 37 19
-6.559821 3.675361 23.261776 29 26 34
-6.520522 3.679437 23.287579 25 17 35
-6.483679 3.684969 23.322586 19 15 36
-6.443756 3.688817 23.346943 44 40 36
-6.403044 3.692266 23.368773 19 28 17
-6.364248 3.696879 23.397970 37 41 39
-6.322431 3.699793 23.416412 25 29 25
-6.283023 3.704170 23.444115 15 19 16
-6.242508 3.707956 23.468075 42 26 37
-6.200591 3.710959 23.487085 28 18 22
-6.157771 3.713465 23.502941 32 28 29
-6.111641 3.713998 23.506313 24 15 23
-6.066301 3.715022 23.512794 15 28 42
-6.020883 3.716014 23.519073 22 27 19
-5.975252 3.716889 23.524612 20 21 25
-5.929809 3.717896 23.530987 33 32 35
-5.883584 3.718425 23.534338 35 32 33
-5.838083 3.719424 23.540657 42 30 25
-5.792299 3.720257 23.545933 32 25 42
-5.746744 3.721252 23.552229 44 18 39
-5.702331 3.723010 23.563353 43 17 43
-5.657505 3.724524 23.572939 18 36 33
-5.610862 3.724858 23.575052 44 36 23
-5.562101 3.723779 23.568224 43 31 44
-5.512145 3.721875 23.556173 37 26 40
-5.462631 3.720240 23.545824 16 39 41
-5.414124 3.719268 23.539669 19 33 36
-5.363906 3.717093 23.525906 29 28 44
-5.313759 3.714929 23.512209 39 22 33
-5.263302 3.712508 23.496885 39 16 34
-5.211760 3.709271 23.476397 41 31 29
-5.161528 3.706916 23.461491 17 20 21
-5.113274 3.705951 23.455387 33 34 34
-5.067392 3.706703 23.460148 120 120 120
-5.023561 3.708984 23.474583 120 120 120
-4.980439 3.711837 23.492638 120 120 120
-4.936751 3.714317 23.508337 39 44 40
-4.894268 3.717762 23.530136 35 17 21
-4.849703 3.719675 23.542246 41 20 43
-4.805986 3.722283 23.558756 34 37 39
-4.765213 3.727246 23.590164 21 40 15
-4.723590 3.731636 23.617952 32 37 22
-4.684992 3.738529 23.661575 40 26 22
-4.644737 3.744226 23.697636 36 41 35
-4.604032 3.749676 23.732124 29 38 39
-4.563667 3.755518 23.769100 20 31 40
-4.519747 3.758526 23.788141 22 20 15
-4.479029 3.764290 23.824621 23 33 28
-4.437691 3.769652 23.858555 26 17 35
-4.396482 3.775240 23.893927 36 18 24
-4.356003 3.781585 23.934084 41 18 40
-4.312378 3.785309 23.957655 33 35 35
-4.272298 3.792264 24.001673 31 23 27
-4.231399 3.798642 24.042040 20 26 23
-4.190616 3.805272 24.084002 39 25 38
-4.150859 3.812999 24.132904 32 42 32
-4.107630 3.817679 24.162527 42 29 40
-4.066829 3.824756 24.207314 38 44 39
-4.023781 3.829864 24.239643 20 17 26
-3.981023 3.835376 24.274529 35 30 41
-3.941051 3.843741 24.327477 33 35 30
-3.898797 3.850062 24.367479 17 20 37
-3.858756 3.858756 24.422508 40 27 26
-3.815464 3.864380 24.458103 42 17 33
-3.772345 3.870328 24.495745 38 35 36
-3.732159 3.879482 24.553680 43 20 27
-3.689580 3.886358 24.597202 20 22 43
-3.651327 3.898038 24.671125 26 33 17
-3.611784 3.908643 24.738249 15 30 30
-3.571356 3.918571 24.801083 38 28 34
-3.530881 3.928727 24.865362 20 22 27
-3.485471 3.933603 24.896219 44 22 31
-3.440744 3.939402 24.932924 15 28 17
-3.394070 3.943111 24.956398 24 28 24
-7.634852 3.530568 22.066048 31 42 31
-7.593516 3.531868 22.074173 23 32 42
-7.555804 3.534879 22.092995 37 23 38
-7.517553 3.537672 22.110449 34 35 39
-7.485267 3.543322 22.145760 23 25 15
-7.451778 3.548466 22.177910 39 22 40
-7.420090 3.554534 22.215837 35 24 25
-7.391443 3.562141 22.263384 35 32 28
-7.357689 3.567365 22.296028 21 19 17
-7.330802 3.576001 22.350006 17 42 29
-7.300853 3.583241 22.395254 27 41 28
-7.270967 3.590601 22.441257 31 34 33
-7.244284 3.599644 22.497776 27 15 21
-7.210680 3.605340 22.533375 15 21 42
-7.181591 3.613379 22.583620 15 28 22
-7.148030 3.619256 22.620348 23 18 41
-7.113302 3.624613 22.653830 43 28 20
-7.081666 3.631624 22.697649 22 17 40
-7.044790 3.636021 22.725130 42 21 44
-7.010891 3.642021 22.762634 43 35 42
-6.972820 3.645919 22.786993 25 37 22
-6.934747 3.649867 22.811668 23 19 18
-6.900899 3.656106 22.850660 27 22 26
-6.864017 3.660809 22.880058 25 38 24
-6.831464 3.667900 22.924376 26 36 42
-6.795623 3.673310 22.958187 39 35 20
-6.759630 3.678710 22.991940 36 43 42
-6.726476 3.685740 23.035875 23 18 31
-6.688763 3.690352 23.064699 24 16 44
-6.654524 3.696958 23.105986 44 30 34
-6.616925 3.701776 23.136103 39 39 42
-6.578794 3.706363 23.164768 31 25 26
-6.543390 3.712562 23.203510 36 32 25
-6.504150 3.716657 23.229107 39 32 39
-6.467388 3.722238 23.263987 39 38 28
-6.427584 3.726136 23.288347 40 41 16
-6.387027 3.729651 23.310316 43 44 32
-6.348366 3.734333 23.339581 40 44 30
-6.306677 3.737290 23.358065 24 27 22
-6.267499 3.741790 23.386190 41 25 31
-6.227293 3.745740 23.410875 28 33 31
-6.185653 3.748881 23.430504 25 21 20
-6.142995 3.751447 23.446545 28 41 26
-6.096918 3.751950 23.449686 27 43 26
-6.051603 3.752932 23.455824 38 29 39
-6.006276 3.753922 23.462015 16 31 44
-5.960688 3.754764 23.467276 31 18 22
-5.915190 3.755676 23.472975 30 43 25
-5.868906 3.756100 23.475626 19 42 28
-5.823239 3.756928 23.480803 37 17 26
-5.777328 3.757612 23.485075 32 18 40
-5.731661 3.758466 23.490414 24 22 33
-5.687142 3.760094 23.500587 21 16 33
-5.642331 3.761554 23.509714 39 38 24
-5.595731 3.761836 23.511475 25 21 35
-5.547110 3.760752 23.504702 25 20 36
-5.497312 3.758846 23.492785 24 23 32
-5.447836 3.757128 23.482052 20 33 31
-5.399322 3.756050 23.475313 19 16 26
-5.349369 3.753943 23.462143 31 22 38
-5.299750 3.752036 23.450222 42 32 23
-5.249812 3.749866 23.436661 35 18 37
-5.198525 3.746685 23.416780 42 31 32
-5.148299 3.744218 23.401360 28 21 16
-5.099972 3.743099 23.394367 17 34 17
-5.054066 3.743753 23.398455 120 120 120
-5.010151 3.745908 23.411922 120 120 120
-4.966873 3.748584 23.428648 120 120 120
-4.923097 3.750931 23.443317 15 36 38
-4.880460 3.754200 23.463751 28 16 24
-4.835840 3.755992 23.474953 44 19 15
-4.792096 3.758507 23.490667 26 24 18
-4.751252 3.763368 23.521049 41 44 29
-4.709647 3.767718 23.548237 20 35 25
-4.670944 3.774500 23.590626 15 29 26
-4.630461 3.779968 23.624802 24 16 22
-4.589738 3.785351 23.658445 34 37 29
-4.549835 3.791530 23.697060 43 35 36
-4.506640 3.795066 23.719160 33 29 18
-4.466514 3.801288 23.758053 19 15 16
-4.425380 3.806779 23.792366 22 15 41
-4.384216 3.812362 23.827263 16 36 15
-4.343850 3.818769 23.867306 31 18 37
-4.300321 3.822508 23.890675 30 37 37
-4.260341 3.829520 23.934498 42 16 32
-4.219542 3.835947 23.974670 28 36 21
-4.178913 3.842679 24.016743 16 15 34
-4.139385 3.850591 24.066193 24 41 17
-4.096413 3.855447 24.096546 22 39 17
-4.055980 3.862838 24.142736 33 39 31
-4.013302 3.868243 24.176517 15 40 19
-3.970885 3.874034 24.212713 29 18 22
-3.931199 3.882666 24.266663 38 27 39
-3.889106 3.889106 24.306913 27 36 43
-3.849182 3.897906 24.361912 23 20 23
-3.805992 3.903582 24.397385 32 16 18
-3.762902 3.909508 24.434427 39 33 19
-3.722674 3.918604 24.491278 17 38 39
-3.680054 3.925391 24.533693 44 36 25
-3.641701 3.936974 24.606089 38 43 37
-3.602237 3.947657 24.672859 20 35 33
-3.561730 3.957477 24.734234 40 35 24
-3.520682 3.966966 24.793535 36 31 28
-3.474644 3.971021 24.818884 27 33 32
-3.429620 3.976371 24.852322 35 32 21
-7.565398 3.562775 21.992435 28 24 32
-7.526952 3.565398 22.008633 16 37 39
-7.488369 3.567988 22.024614 22 18 43
-7.455505 3.573349 22.057707 16 18 35
-7.421640 3.578291 22.088213 15 16 28
-7.389554 3.584155 22.124414 34 33 43
-7.360234 3.591439 22.169378 40 28 37
-7.326021 3.596410 22.200064 37 40 23
-7.298697 3.604844 22.252125 15 18 31
-7.268620 3.612013 22.296379 26 21 42
-7.238858 3.619429 22.342154 21 25 19
-7.212361 3.628579 22.398636 37 16 15
-7.179102 3.634420 22.434694 30 35 25
-7.150483 3.642699 22.485794 31 41 33
-7.117264 3.648724 22.522987 33 27 33
-7.083059 3.654317 22.557514 19 29 38
-7.052309 3.661776 22.603554 32 22 44
-7.016289 3.666577 22.633190 30 31 42
-6.983511 3.673145 22.673737 30 19 27
-6.946393 3.677502 22.700630 20 41 16
-6.909059 3.681801 22.727167 37 37 17
-6.875763 3.688323 22.767427 26 24 38
-6.839022 3.693072 22.796741 26 18 33
-6.806495 3.700175 22.840588 38 29 31
-6.770640 3.705553 22.873783 23 16 32
-6.734573 3.710887 22.906710 15 29 38
-6.701363 3.717879 22.949873 38 33 38
-6.663698 3.722479 22.978268 39 19 42
-6.629403 3.729039 23.018759 43 15 19
-6.591757 3.733792 23.048101 40 17 16
-6.553588 3.738314 23.076014 32 44 40
-6.518120 3.744452 23.113901 25 38 21
-6.478925 3.748521 23.139019 18 41 24
-6.442200 3.754088 23.173380 26 21 40
-6.402511 3.757996 23.197504 22 35 44
-6.362104 3.761536 23.219358 38 34 40
-6.323542 3.766227 23.248316 18 23 37
-6.281977 3.769186 23.266581 24 44 21
-6.243002 3.773755 23.294785 40 35 44
-6.203107 3.777832 23.319950 20 27 43
-6.161771 3.781087 23.340040 43 32 42
-6.119318 3.783700 23.356174 22 25 27
-6.073363 3.784172 23.359087 25 17 41
-6.028092 3.785081 23.364697 24 25 24
-5.982843 3.786018 23.370481 23 20 30
-5.937258 3.786755 23.375032 42 29 17
-5.891643 3.787485 23.379538 19 20 37
-5.845278 3.787740 23.381113 23 25 28
-5.799399 3.788317 23.384672 18 43 37
-5.753345 3.788788 23.387583 33 44 25
-5.707574 3.789455 23.391697 25 28 15
-5.662937 3.790891 23.400564 25 30 37
-5.618168 3.792264 23.409035 37 40 25
-5.571698 3.792501 23.410498 39 25 26
-5.523342 3.791447 23.403994 28 42 18
-5.473879 3.789608 23.392645 29 21 41
-5.424629 3.787888 23.382023 25 38 34
-5.376275 3.786768 23.375109 39 41 18
-5.326829 3.784852 23.363287 43 40 24
-5.278002 3.783347 23.353992 36 16 31
-5.228821 3.781558 23.342953 21 37 26
-5.177979 3.778525 23.324230 34 33 19
-5.127853 3.775964 23.308422 38 35 22
-5.079494 3.774670 23.300430 43 18 34
-5.033574 3.775180 23.303581 120 120 120
-4.989547 3.777134 23.315641 120 120 120
-4.946051 3.779530 23.330429 120 120 120
-4.902141 3.781652 23.343531 33 35 24
-4.859311 3.784655 23.362070 35 16 42
-4.814663 3.786289 23.372152 24 28 21
-4.770945 3.788691 23.386984 30 33 37
-4.730058 3.793413 23.416130 34 18 19
-4.688523 3.797704 23.442617 15 22 29
-4.649763 3.804352 23.483652 22 42 35
-4.609094 3.809558 23.515787 32 23 20
-4.568423 3.814868 23.548571 41 18 21
-4.529109 3.821436 23.589111 30 24 21
-4.486789 3.825578 23.614679 22 20 44
-4.447388 3.832323 23.656317 15 31 17
-4.406526 3.837942 23.691002 18 27 15
-4.365457 3.843500 23.725311 16 25 34
-4.325260 3.849956 23.765163 30 29 17
-4.281898 3.853708 23.788322 43 29 30
-4.242081 3.860770 23.831913 27 24 37
-4.201428 3.867224 23.871752 33 28 22
-4.161011 3.874045 23.913857 18 19 17
-4.121801 3.882161 23.963959 30 27 28
-4.079183 3.887222 23.995195 30 25 42
-4.039240 3.894981 24.043095 36 40 39
-3.997057 3.900742 24.078657 35 21 23
-3.955100 3.906867 24.116465 32 33 20
-3.915792 3.915792 24.171556 23 25 15
-3.873911 3.922335 24.211946 22 30 27
-3.834195 3.931264 24.267059 41 18 32
-3.791220 3.937036 24.302692 44 22 30
-3.748285 3.943001 24.339510 27 44 15
-3.708209 3.952170 24.396111 40 15 38
-3.665742 3.959002 24.438282 18 17 30
-3.627151 3.970260 24.507776 27 33 28
-3.587248 3.980371 24.570190 39 19 27
-3.546240 3.989520 24.626667 42 26 16
-3.504711 3.998333 24.681067 28 39 32
-3.458518 4.002000 24.703703 39 41 20
-7.466354 3.601418 21.959864 25 34 37
-7.432810 3.606452 21.990562 34 18 17
-7.398429 3.611138 22.019135 33 29 42
-7.365808 3.616744 22.053318 31 37 36
-7.335668 3.623643 22.095387 18 29 41
-7.300908 3.628330 22.123962 36 29 41
-7.273019 3.636510 22.173840 16 37 36
-7.242707 3.643571 22.216894 31 43 24
-7.212979 3.651014 22.262280 28 35 22
-7.186576 3.660244 22.318560 17 39 19
-7.153602 3.666221 22.355007 24 15 34
-7.125402 3.674736 22.406925 32 44 42
-7.092487 3.680911 22.444580 30 29 27
-7.058797 3.686760 22.480244 19 42 38
-7.028945 3.694702 22.528669 39 41 26
-6.993820 3.699957 22.560711 15 20 40
-6.962134 3.707110 22.604332 30 28 38
-6.925881 3.711910 22.633596 30 15 33
-6.889188 3.716536 22.661802 15 18 27
-6.856405 3.723346 22.703329 31 28 32
-6.819800 3.728158 22.732668 25 28 24
-6.787347 3.735319 22.776333 35 23 35
-6.751535 3.740715 22.809238 22 36 20
-6.715437 3.746026 22.841621 15 40 43
-6.682207 3.753021 22.884272 31 28 37
-6.644575 3.757622 22.912327 17 43 42
-6.610224 3.764155 22.952166 17 36 30
-6.572535 3.768866 22.980892 18 42 39
-6.534316 3.773337 23.008154 15 25 36
-6.498770 3.779427 23.045284 30 16 24
-6.459565 3.783460 23.069876 19 43 33
-6.422818 3.789001 23.103662 42 18 19
-6.383179 3.792904 23.127460 43 42 21
-6.342835 3.796441 23.149033 39 26 29
-6.304289 3.801115 23.177532 44 30 35
-6.262763 3.804049 23.195419 40 38 41
-6.223862 3.808632 23.223364 40 35 42
-6.184108 3.812759 23.248528 27 29 33
-6.142944 3.816071 23.268726 40 35 36
-6.100627 3.818713 23.284836 34 43 27
-6.054805 3.819185 23.287712 27 21 32
-6.009589 3.820049 23.292980 16 32 16
-5.964372 3.820926 23.298326 36 21 43
-5.918763 3.821563 23.302216 41 26 18
-5.873054 3.822146 23.305771 36 42 15
-5.826644 3.822279 23.306578 20 29 27
-5.780641 3.822682 23.309038 20 20 39
-5.734525 3.823016 23.311075 40 40 32
-5.688744 3.823582 23.314526 40 29 17
-5.644094 3.824923 23.322701 29 36 43
-5.599414 3.826266 23.330891 40 15 35
-5.553156 3.826544 23.332586 15 35 30
-5.505084 3.825567 23.326628 15 19 35
-5.455984 3.823852 23.316172 40 25 26
-5.407081 3.822247 23.306385 33 29 40
-5.359004 3.821203 23.300018 19 39 29
-5.310078 3.819529 23.289814 26 43 24
-5.261878 3.818354 23.282648 28 15 16
-5.213270 3.816858 23.273525 30 23 33
-5.162819 3.813974 23.255939 23 35 38
-5.112817 3.811373 23.240078 31 19 37
-5.064468 3.809967 23.231504 44 42 17
-5.018543 3.810375 23.233995 120 120 120
-4.974426 3.812177 23.244982 120 120 120
-4.930740 3.814346 23.258205 120 120 120
-4.886708 3.816286 23.270039 29 17 38
-4.843721 3.819088 23.287119 17 44 40
-4.799046 3.820600 23.296341 29 43 40
-4.755354 3.822931 23.310556 23 19 43
-4.714449 3.827572 23.338856 29 28 17
-4.672970 3.831836 23.364851 38 43 43
-4.634209 3.838436 23.405098 24 24 27
-4.593479 3.843523 23.436115 18 29 15
-4.552893 3.848838 23.468523 33 37 18
-4.513974 3.855686 23.510283 21 24 25
-4.472217 3.860229 23.537983 17 40 27
-4.433260 3.867312 23.581169 37 27 43
-4.392556 3.873006 23.615892 18 34 40
-4.351539 3.878546 23.649668 36 39 21
-4.311459 3.885051 23.689335 35 17 42
-4.268228 3.888830 23.712376 26 40 42
-4.228544 3.895962 23.755867 30 19 34
-4.188015 3.902469 23.795540 19 38 30
-4.147765 3.909388 23.837730 37 30 40
-4.108783 3.917676 23.888271 30 43 43
-4.066420 3.922899 23.920118 25 41 38
-4.026809 3.930933 23.969101 26 29 38
-3.984968 3.936956 24.005831 17 38 32
-3.943327 3.943327 24.044680 28 43 35
-3.904279 3.952480 24.100489 25 25 39
-3.862556 3.959120 24.140974 34 15 39
-3.823014 3.968191 24.196289 32 44 41
-3.780195 3.974051 24.232018 43 33 24
-3.737445 3.980136 24.269121 39 44 21
-3.697749 3.989677 24.327299 34 23 22
-3.655708 3.996907 24.371386 23 41 30
-3.616931 4.007951 24.438725 19 20 38
-3.576221 4.017125 24.494663 17 40 18
-3.534439 4.025334 24.544718 43 22 35
-7.411198 3.639819 21.926622 20 20 40
-7.376231 3.644209 21.953068 39 22 21
-7.342940 3.649485 21.984850 25 23 35
-7.311879 3.655939 22.023731 42 31 40
-7.276508 3.660304 22.050024 19 29 32
-7.247910 3.668150 22.097286 29 28 34
-7.217216 3.675024 22.138700 38 23 32
-7.187343 3.682404 22.183157 38 41 28
-7.160807 3.691596 22.238531 25 22 37
-7.127952 3.697625 22.274849 34 33 33
-7.100023 3.706302 22.327118 38 19 35
-7.067377 3.712609 22.365116 23 36 40
-7.034186 3.718710 22.401865 28 38 31
-7.005151 3.727099 22.452406 23 42 26
-6.970841 3.732773 22.486584 28 27 32
-6.940202 3.740498 22.533123 32 31 39
-6.904812 3.745748 22.564745 24 42 22
-6.868773 3.750712 22.594648 38 44 18
-6.836532 3.757829 22.637522 39 20 35
-6.800092 3.762718 22.666973 20 28 18
-6.767731 3.769944 22.710506 19 37 36
-6.731977 3.775366 22.743166 41 18 39
-6.695862 3.780657 22.775040 35 28 15
-6.662599 3.787642 22.817120 41 31 21
-6.624972 3.792226 22.844732 35 32 43
-6.590555 3.798723 22.883873 43 44 18
-6.552859 3.803408 22.912094 25 27 42
-6.514620 3.807841 22.938803 41 29 17
-6.478989 3.813873 22.975140 15 35 21
-6.439772 3.817865 22.999187 28 21 23
-6.402966 3.823354 23.032253 15 35 40
-6.363341 3.827227 23.055584 21 38 40
-6.323026 3.830739 23.076738 22 31 17
-6.284435 3.835354 23.104542 28 29 44
-6.242920 3.838240 23.121927 23 44 37
-6.204012 3.842783 23.149298 34 23 31
-6.164316 3.846904 23.174120 16 18 23
-6.123244 3.850221 23.194105 44 32 32
-6.081022 3.852861 23.210007 29 33 23
-6.035340 3.853333 23.212847 33 43 21
-5.990146 3.854125 23.217621 26 32 16
-5.944917 3.854907 23.222334 42 30 19
-5.899241 3.855410 23.225359 19 15 34
-5.853408 3.855816 23.227810 21 33 44
-5.806950 3.855815 23.227800 31 30 35
-5.760816 3.856030 23.229097 38 41 33
-5.714635 3.856217 23.230225 32 16 42
-5.668827 3.856661 23.232897 28 16 26
-5.624111 3.857861 23.240128 39 20 27
-5.579463 3.859129 23.247763 18 42 15
-5.533334 3.859384 23.249302 23 28 24
-5.485506 3.858449 23.243671 16 28 19
-5.436733 3.856827 23.233900 26 36 35
-5.388139 3.855306 23.224737 31 42 43
-5.340312 3.854312 23.218748 23 32 29
-5.291855 3.852842 23.209892 42 44 23
-5.244243 3.851966 23.204615 21 22 44
-5.196177 3.850738 23.197218 29 23 26
-5.146132 3.848008 23.180773 38 34 35
-5.096308 3.845396 23.165035 27 28 37
-5.048033 3.843915 23.156116 30 38 38
-5.002141 3.844238 23.158058 120 120 120
-4.957965 3.845898 23.168062 120 120 120
-4.914152 3.847874 23.179964 120 120 120
-4.870039 3.849650 23.190660 44 19 22
-4.826978 3.852299 23.206623 16 36 26
-4.782367 3.853752 23.215372 23 43 25
-4.738790 3.856074 23.229364 32 20 43
-4.697963 3.860702 23.257240 27 29 21
-4.656599 3.864977 23.282995 32 32 39
-4.617910 3.871581 23.322779 37 42 33
-4.577203 3.876611 23.353077 39 35 22
-4.536731 3.881945 23.385214 42 38 33
-4.498133 3.889011 23.427774 30 38 33
-4.456797 3.893833 23.456827 32 15 29
-4.418208 3.901184 23.501106 31 16 17
-4.377693 3.906973 23.535982 35 25 28
-4.336792 3.912540 23.569521 24 36 43
-4.296859 3.919114 23.609118 32 18 44
-4.253768 3.922919 23.632042 29 28 17
-4.214210 3.930106 23.675337 24 15 39
-4.173790 3.936643 23.714714 38 36 18
-4.133679 3.943625 23.756775 33 19 26
-4.094894 3.952049 23.807526 28 31 20
-4.052761 3.957402 23.839771 42 15 27
-4.013447 3.965668 23.889565 20 40 22
-3.971915 3.971915 23.927197 26 35 26
-3.930559 3.978493 23.966825 21 15 27
-3.891729 3.987821 24.023018 26 38 29
-3.850140 3.994521 24.063377 15 17 27
-3.810787 4.003738 24.118904 17 33 27
-3.768216 4.009768 24.155228 32 30 31
-3.725702 4.016017 24.192873 21 23 28
-3.686284 4.025811 24.251871 43 26 30
-3.644492 4.033238 24.296614 43 15 40
-3.605395 4.043889 24.360779 22 20 32
-7.314321 3.679060 21.899164 24 39 30
-7.282331 3.685035 21.934731 30 17 20
-7.246347 3.689049 21.958628 36 37 34
-7.216975 3.696499 22.002972 20 23 19
-7.185831 3.703127 22.042425 33 23 19
-7.155720 3.710373 22.085556 38 30 33
-7.128899 3.719425 22.139437 36 36 24
-7.096055 3.725429 22.175171 23 22 37
-7.068280 3.734186 22.227295 25 40 44
-7.035875 3.740592 22.265427 37 33 28
-7.003165 3.746916 22.303074 43 25 16
-6.974815 3.755669 22.355175 21 17 24
-6.941174 3.761668 22.390882 27 16 43
-6.911548 3.769935 22.440090 22 29 31
-6.877149 3.775690 22.474344 16 39 29
-6.841962 3.781084 22.506454 35 23 31
-6.810347 3.788538 22.550819 42 16 29
-6.774106 3.793499 22.580353 42 41 34
-6.741813 3.800754 22.623535 37 42 33
-6.706074 3.806150 22.655655 33 36 25
-6.669893 3.811367 22.686710 16 21 35
-6.636564 3.818297 22.727961 18 21 32
-6.598959 3.822845 22.755030 38 15 43
-6.564511 3.829298 22.793442 41 17 37
-6.526858 3.833958 22.821180 39 40 44
-6.488659 3.838362 22.847391 28 25 41
-6.452999 3.844340 22.882975 20 42 18
-6.413811 3.848287 22.906469 29 20 27
-6.376990 3.853720 22.938812 21 41 41
-6.337427 3.857564 22.961693 29 42 18
-6.297179 3.861044 22.982407 17 39 35
-6.258587 3.865598 23.009512 33 43 28
-6.217120 3.868430 23.026371 34 21 18
-6.178284 3.872954 23.053299 39 31 35
-6.138763 3.877114 23.078058 34 15 25
-6.097889 3.880475 23.098064 25 37 18
-6.055815 3.883118 23.113798 34 19 44
-6.010275 3.883563 23.116444 25 42 25
-5.965052 3.884220 23.120358 27 26 15
-5.919753 3.884838 23.124037 17 34 36
-5.873925 3.885116 23.125690 16 38 29
-5.827886 3.885258 23.126534 32 33 15
-5.781354 3.885070 23.125418 36 20 38
-5.734984 3.884989 23.124935 35 17 32
-5.688658 3.884937 23.124624 24 32 38
-5.642708 3.885143 23.125853 23 39 39
-5.597736 3.886032 23.131142 20 35 38
-5.552987 3.887091 23.137447 25 23 31
-5.506807 3.887158 23.137844 29 34 28
-5.459126 3.886157 23.131889 32 19 25
-5.410595 3.884530 23.122202 35 35 37
-5.362153 3.882939 23.112730 21 34 44
-5.314490 3.881888 23.106478 29 44 29
-5.266445 3.880539 23.098444 36 43 43
-5.219455 3.879949 23.094933 17 28 30
-5.172014 3.879010 23.089348 36 33 21
-5.122409 3.876417 23.073914 29 38 15
-5.072797 3.873773 23.058170 42 41 29
-5.024605 3.872173 23.048647 23 31 19
-4.978766 3.872373 23.049841 120 120 120
-4.934557 3.873858 23.058678 120 120 120
-4.890632 3.875595 23.069019 120 120 120
-4.846474 3.877179 23.078445 42 32 15
-4.803400 3.879670 23.093271 25 31 39
-4.758946 3.881082 23.101681 44 40 39
-4.715597 3.883432 23.115669 43 41 22
-4.674945 3.888073 23.143291 37 30 33
-4.633781 3.892376 23.168907 23 41 37
-4.595260 3.899009 23.208385 35 34 16
-4.554670 3.904003 23.238111 22 25 33
-4.514400 3.909378 23.270105 32 16 38
-4.476201 3.916676 23.313545 19 43 25
-4.435357 3.921789 23.343983 43 24 22
-4.397273 3.929478 23.389751 40 37 26
-4.357147 3.935488 23.425522 41 39 35
-4.316545 3.941193 23.459484 37 20 20
-4.276861 3.947872 23.499239 40 30 20
-4.233930 3.951668 23.521833 17 37 19
-4.194499 3.958853 23.564600 37 40 43
-4.154191 3.965364 23.603359 38 29 25
-4.114233 3.972363 23.645018 22 36 38
-4.075672 3.980889 23.695768 39 34 31
-4.033822 3.986366 23.728367 44 16 40
-3.994865 3.994865 23.778957 19 36 18
-3.953718 4.001353 23.817575 34 43 16
-3.912710 4.008142 23.857988 18 18 39
-3.874122 4.017608 23.914333 21 27 33
-3.832666 4.024299 23.954163 37 17 22
-3.793569 4.033668 24.009930 20 29 30
-3.751492 4.040068 24.048023 37 29 39
-3.709298 4.046507 24.086349 31 18 26
-3.669741 4.056030 24.143036 19 31 20
-3.627607 4.062920 24.184046 28 35 15
-3.587875 4.072723 24.242399 22 34 27
-7.227567 3.723292 21.901718 33 29 35
-7.197700 3.730515 21.944206 18 20 20
-7.166225 3.736989 21.982286 37 34 24
-7.135867 3.744128 22.024281 35 17 18
-7.108711 3.753046 22.076742 36 37 21
-7.075739 3.758986 22.111685 26 44 34
-7.047900 3.767745 22.163208 34 22 26
-7.015590 3.774210 22.201233 39 19 17
-6.983105 3.780662 22.239187 29 43 23
-6.954976 3.789570 22.291590 15 22 16
-6.921549 3.795688 22.327578 37 25 26
-6.892395 3.804244 22.377907 38 18 32
-6.858593 3.810330 22.413704 39 20 34
-6.823973 3.816038 22.447281 27 15 36
-6.792750 3.823733 22.492550 16 16 15
-6.756633 3.828759 22.522110 17 27 23
-6.724369 3.836049 22.564997 39 42 22
-6.688609 3.841431 22.596653 32 37 42
-6.652354 3.846600 22.627056 37 23 43
-6.618974 3.853512 22.667719 31 24 41
-6.581388 3.858055 22.694443 34 18 28
-6.546945 3.864516 22.732449 43 39 29
-6.509356 3.869197 22.759985 23 26 37
-6.471234 3.873626 22.786036 26 41 41
-6.435597 3.879615 22.821264 35 43 24
-6.396453 3.883561 22.844475 28 32 19
-6.359637 3.888987 22.876392 44 32 20
-6.320124 3.892830 22.899000 42 16 41
-6.279924 3.896303 22.919432 31 33 22
-6.241342 3.900839 22.946112 43 36 29
-6.199911 3.903648 22.962635 26 26 16
-6.161135 3.908183 22.989311 18 34 44
-6.121761 3.912404 23.014139 23 25 22
-6.081030 3.915815 23.034204 15 34 41
-6.039048 3.918466 23.049803 40 39 16
-5.993591 3.918887 23.052275 26 20 36
-5.948304 3.919425 23.055443 22 16 34
-5.902901 3.919895 23.058207 27 42 39
-5.856926 3.919990 23.058764 36 18 27
-5.810711 3.919924 23.058376 35 36 15
-5.764122 3.919603 23.056486 37 29 37
-5.717561 3.919296 23.054682 29 17 35
-5.671105 3.919056 23.053270 37 30 19
-5.624998 3.919056 23.053270 33 32 29
-5.579745 3.919655 23.056797 20 35 35
-5.534832 3.920506 23.061802 34 36 38
-5.488469 3.920335 23.060793 35 21 41
-5.440774 3.919202 23.054127 44 35 32
-5.392297 3.917481 23.044006 44 25 16
-5.343807 3.915721 23.033651 24 15 29
-5.296158 3.914552 23.026775 40 23 15
-5.248260 3.913176 23.018684 41 18 34
-5.201593 3.912703 23.015900 38 35 42
-5.154504 3.911900 23.011179 40 25 17
-5.105151 3.909350 22.996176 26 22 43
-5.055688 3.906668 22.980398 37 25 35
-5.007571 3.904987 22.970510 43 22 32
-4.961781 3.905106 22.971210 120 120 120
-4.917587 3.906495 22.979380 120 120 120
-4.873631 3.908100 22.988825 120 120 120
-4.829491 3.909588 22.997578 37 24 44
-4.786491 3.912036 23.011974 27 35 21
-4.742214 3.913478 23.020456 31 32 37
-4.699091 3.915909 23.034760 43 21 39
-4.658638 3.920636 23.062563 32 20 44
-4.617655 3.925007 23.088274 37 17 22
-4.579318 3.931737 23.127867 33 42 21
-4.538883 3.936786 23.157566 18 30 41
-4.498792 3.942241 23.189651 41 24 26
-4.460825 3.949688 23.233461 30 15 17
-4.420214 3.954928 23.264284 16 38 21
-4.382450 3.962853 23.310902 18 29 43
-4.342675 3.969112 23.347715 22 36 23
-4.302379 3.975024 23.382496 22 36 32
-4.262899 3.981829 23.422523 16 33 16
-4.220063 3.985615 23.444796 36 17 37
-4.180684 3.992788 23.486988 22 18 19
-4.140440 3.999289 23.525229 23 32 17
-4.100558 4.006292 23.566425 28 32 15
-4.062112 4.014878 23.616928 22 27 34
-4.020433 4.020433 23.649607 43 34 32
-3.981675 4.029076 23.700447 35 39 44
-3.940755 4.035713 23.739489 16 36 43
-3.899952 4.042634 23.780197 23 29 17
-3.861475 4.052165 23.836264 35 39 31
-3.820077 4.058832 23.875481 33 33 44
-3.781155 4.068331 23.931358 23 39 25
-3.739541 4.075141 23.971418 28 42 35
-3.697589 4.081754 24.010317 35 18 34
-3.657633 4.090774 24.063377 28 26 15
-7.171925 3.760888 21.865625 41 35 35
-7.139764 3.766992 21.901115 22 43 36
-7.108684 3.773746 21.940382 25 33 36
-7.080653 3.782212 21.989605 26 42 22
-7.047202 3.787871 22.022505 28 18 24
-7.019000 3.796441 22.072329 37 19 40
-6.986743 3.802911 22.109947 32 38 19
-6.954531 3.809488 22.148188 26 20 18
-6.926537 3.818476 22.200439 21 27 17
-6.893258 3.824646 22.236317 17 28 21
-6.864442 3.833390 22.287149 19 40 35
-6.831116 3.839712 22.323910 23 20 25
-6.797008 3.845676 22.358580 28 38 26
-6.766229 3.853614 22.404732 16 32 16
-6.730400 3.858763 22.434668 35 38 27
-6.698385 3.866182 22.477802 17 44 39
-6.662842 3.871651 22.509600 39 43 40
-6.626672 3.876828 22.539700 37 39 28
-6.593221 3.883678 22.579523 26 15 26
-6.555510 3.888096 22.605207 30 23 41
-6.520930 3.894444 22.642118 31 42 30
-6.483381 3.899096 22.669165 15 41 23
-6.445320 3.903504 22.694790 34 39 22
-6.409633 3.909422 22.729197 23 33 39
-6.370483 3.913297 22.751724 27 37 33
-6.333563 3.918608 22.782602 20 27 33
-6.294010 3.922354 22.804382 36 25 28
-6.253764 3.925720 22.823956 18 38 43
-6.215078 3.930123 22.849552 34 15 40
-6.173653 3.932846 22.865383 15 32 40
-6.134694 3.937191 22.890648 25 21 44
-6.095123 3.941208 22.913998 41 38 27
-6.054230 3.944423 22.932690 39 20 25
-6.012184 3.946930 22.947268 30 24 37
-5.966875 3.947317 22.949520 16 24 42
-5.921578 3.947718 22.951851 16 26 27
-5.876144 3.948034 22.953686 16 37 15
-5.830068 3.947920 22.953022 28 38 32
-5.783657 3.947575 22.951019 42 15 24
-5.736984 3.947045 22.947937 35 17 27
-5.690139 3.946387 22.944109 26 31 21
-5.643516 3.945873 22.941122 38 16 21
-5.597195 3.945564 22.939323 35 28 24
-5.551546 3.945727 22.940273 31 34 23
-5.506401 3.946254 22.943336 25 42 43
-5.459770 3.945716 22.940208 37 22 36
-5.412055 3.944379 22.932438 20 36 16
-5.363667 3.942524 22.921654 15 44 34
-5.315139 3.940534 22.910080 22 24 27
-5.267547 3.939209 22.902376 44 28 34
-5.219824 3.937762 22.893965 41 42 27
-5.173500 3.937354 22.891592 34 43 21
-5.126833 3.936675 22.887646 29 44 42
-5.077860 3.934198 22.873245 41 28 43
-5.028723 3.931547 22.857830 19 19 40
-4.980868 3.929859 22.848019 35 34 20
-4.935264 3.929932 22.848444 120 120 120
-4.891204 3.931248 22.856092 120 120 120
-4.847363 3.932766 22.864920 120 120 120
-4.803364 3.934184 22.873161 16 41 23
-4.760582 3.936635 22.887413 34 26 23
-4.716642 3.938167 22.896320 28 18 42
-4.673870 3.940714 22.911129 39 25 15
-4.633691 3.945519 22.939064 40 17 38
-4.592923 3.949913 22.964613 15 17 42
-4.554738 3.956641 23.003727 33 19 21
-4.514439 3.961651 23.032854 28 19 19
-4.474480 3.967065 23.064331 30 20 42
-4.436658 3.974506 23.107592 43 21 41
-4.396255 3.979768 23.138186 36 16 29
-4.358705 3.987752 23.184603 41 29 22
-4.319178 3.994079 23.221390 40 15 20
-4.279146 4.000071 23.256226 40 39 38
-4.239932 4.006969 23.296331 22 24 44
-4.197366 4.010817 23.318701 43 20 18
-4.158141 4.017979 23.360342 37 23 44
-4.117954 4.024364 23.397467 35 16 30
-4.078139 4.031264 23.437582 43 43 39
-4.039861 4.039861 23.487564 30 40 17
-3.998464 4.045505 23.520376 42 34 15
-3.960082 4.054370 23.571918 15 41 24
-3.919573 4.061245 23.611887 34 35 40
-3.879180 4.068408 23.653536 29 42 15
-3.841044 4.078145 23.710148 31 26 21
-3.799894 4.084886 23.749340 34 41 34
-3.761196 4.094467 23.805040 21 24 34
-3.719914 4.101444 23.845602 16 41 36
-7.121584 3.801091 21.845348 44 19 39
-7.089562 3.807357 21.881365 25 41 40
-7.060539 3.815323 21.927141 30 21 28
-7.026551 3.820687 21.957972 19 16 34
-6.997939 3.829061 22.006098 30 23 15
-6.965713 3.835551 22.043396 38 42 20
-6.933737 3.842262 22.081966 29 29 28
-6.905779 3.851300 22.133907 20 24 38
-6.872537 3.857488 22.169474 18 28 42
-6.843801 3.866303 22.220133 37 38 38
-6.810592 3.872690 22.256838 20 19 26
-6.776704 3.878771 22.291790 22 25 34
-6.746264 3.886920 22.338623 41 41 16
-6.710793 3.892260 22.369310 16 22 31
-6.679215 3.899944 22.413473 38 30 29
-6.644118 3.905664 22.446344 31 26 44
-6.608214 3.910984 22.476919 16 27 19
-6.574717 3.917811 22.516153 38 39 29
-6.536755 3.922053 22.540535 28 33 30
-6.501892 3.928227 22.576015 34 25 15
-6.464281 3.932814 22.602381 43 40 18
-6.426197 3.937177 22.627455 29 43 41
-6.390385 3.943004 22.660940 21 16 32
-6.351193 3.946813 22.682833 38 19 30
-6.314137 3.952014 22.712723 15 15 34
-6.274506 3.955667 22.733719 38 31 16
-6.234190 3.958938 22.752520 28 17 40
-6.195432 3.963254 22.777325 37 39 28
-6.154045 3.965940 22.792761 33 28 20
-6.114791 3.970051 22.816383 25 21 34
-6.074753 3.973710 22.837416 22 38 19
-6.033430 3.976579 22.853903 23 33 16
-5.991195 3.978885 22.867157 16 40 28
-5.946057 3.979285 22.869452 26 16 39
-5.900815 3.979619 22.871376 35 42 21
-5.855418 3.979854 22.872726 41 17 38
-5.809308 3.979605 22.871292 42 33 26
-5.762740 3.979035 22.868017 17 44 32
-5.715955 3.978305 22.863819 29 21 31
-5.668866 3.977349 22.858330 27 29 20
-5.622107 3.976613 22.854095 25 19 35
-5.575629 3.976063 22.850939 26 31 19
-5.529672 3.975880 22.849884 35 36 19
-5.484338 3.976145 22.851408 32 18 37
-5.437493 3.975310 22.846607 39 18 31
-5.389761 3.973807 22.837969 25 18 31
-5.341431 3.971833 22.826628 29 39 41
-5.292882 3.969661 22.814146 23 37 27
-5.245348 3.968220 22.805862 40 24 36
-5.197720 3.966681 22.797016 37 23 23
-5.151567 3.966251 22.794544 42 40 18
-5.105140 3.965600 22.790804 39 40 30
-5.056446 3.963160 22.776783 36 37 21
-5.007602 3.960558 22.761827 44 28 27
-4.960002 3.958901 22.752302 30 31 24
-4.914588 3.958974 22.752722 120 120 120
-4.870682 3.960274 22.760195 120 120 120
-4.826994 3.961778 22.768839 120 120 120
-4.783155 3.963186 22.776930 27 25 28
-4.740586 3.965683 22.791281 37 21 37
-4.696931 3.967311 22.800638 21 41 20
-4.654427 3.969953 22.815821 15 38 39
-4.614436 3.974812 22.843744 16 27 16
-4.573787 3.979195 22.868935 42 20 15
-4.535635 3.985861 22.907248 34 26 19
-4.495367 3.990785 22.935545 44 38 36
-4.455405 3.996085 22.966003 40 15 16
-4.417553 4.003407 23.008087 18 15 24
-4.377203 4.008597 23.037912 28 42 41
-4.339629 4.016466 23.083136 21 44 18
-4.300089 4.022664 23.118759 15 26 23
-4.260118 4.028590 23.152815 31 34 23
-4.221098 4.035556 23.192848 19 25 19
-4.178855 4.039559 23.215858 28 26 15
-4.139824 4.046795 23.257441 19 21 42
-4.099654 4.053067 23.293489 43 17 44
-4.059862 4.059862 23.332539 25 39 16
-4.021726 4.068490 23.382128 34 24 23
-3.980587 4.074248 23.415218 34 22 17
-3.942564 4.083370 23.467646 29 22 31
-3.902450 4.090520 23.508738 21 36 28
-3.862466 4.097982 23.551620 36 43 36
-3.824760 4.108075 23.609629 40 33 23
-3.783959 4.115056 23.649746 31 20 16
-3.745379 4.124658 23.704929 18 24 27
-7.042224 3.849166 21.870260 27 40 15
-7.007542 3.854148 21.898569 19 39 32
-6.978317 3.862213 21.944393 16 43 21
-6.946005 3.868661 21.981030 40 36 35
-6.914129 3.875435 22.019520 33 19 26
-6.885997 3.884409 22.070503 33 34 44
-6.852628 3.890525 22.105253 17 18 38
-6.823695 3.899254 22.154854 42 16 17
-6.790340 3.905555 22.190653 27 19 23
-6.756434 3.911620 22.225113 30 22 19
-6.726119 3.919857 22.271917 44 40 15
-6.690924 3.925342 22.303082 41 35 26
-6.659691 3.933240 22.347956 24 36 19
-6.624951 3.939160 22.381592 22 23 15
-6.589281 3.944604 22.412521 30 35 44
-6.555736 3.951402 22.451149 44 31 25
-6.517570 3.955491 22.474380 43 39 23
-6.482488 3.961521 22.508640 36 21 23
-6.444871 3.966075 22.534515 39 41 33
-6.406802 3.970413 22.559162 30 31 31
-6.370871 3.976146 22.591740 23 17 36
-6.331615 3.979872 22.612911 33 26 25
-6.294338 3.984904 22.641502 23 36 30
-6.254540 3.988402 22.661375 18 21 31
-6.214032 3.991495 22.678949 32 21 22
-6.175022 3.995603 22.702288 29 38 25
-6.133544 3.998162 22.716829 38 17 43
-6.093835 4.001922 22.738192 26 40 33
-6.053235 4.005148 22.756523 19 27 40
-6.011424 4.007616 22.770546 31 35 17
-5.968904 4.009646 22.782078 41 40 23
-5.923892 4.010019 22.784199 34 16 33
-5.878734 4.010299 22.785789 35 43 21
-5.833456 4.010501 22.786936 27 19 34
-5.787430 4.010187 22.785156 26 36 31
-5.740811 4.009455 22.780996 15 34 15
-5.693983 4.008564 22.775930 36 27 23
-5.646716 4.007347 22.769014 27 32 20
-5.599872 4.006412 22.763706 21 38 19
-5.553276 4.005642 22.759327 16 38 23
-5.507050 4.005127 22.756403 36 18 40
-5.461561 4.005145 22.756504 22 41 17
-5.414525 4.004018 22.750103 43 17 23
-5.366781 4.002345 22.740597 24 38 38
-5.318512 4.000248 22.728683 39 31 29
-5.269968 3.997906 22.715378 36 16 40
-5.222522 3.996365 22.706619 36 27 27
-5.174977 3.994719 22.697268 36 19 29
-5.128921 3.994204 22.694342 44 16 36
-5.082678 3.993532 22.690525 38 23 38
-5.034289 3.991148 22.676975 27 39 23
-4.985815 3.988652 22.662794 28 20 31
-4.938585 3.987114 22.654058 35 23 37
-4.893449 3.987255 22.654856 120 120 120
-4.849787 3.988610 22.662558 120 120 120
-4.806379 3.990202 22.671600 120 120 120
-4.762788 3.991670 22.679941 20 29 19
-4.720523 3.994289 22.694824 18 16 38
-4.677212 3.996065 22.704914 31 18 28
-4.634993 3.998818 22.720554 19 44 29
-4.595190 4.003730 22.748465 20 33 43
-4.554645 4.008087 22.773224 32 34 44
-4.516485 4.014653 22.810528 22 25 26
-4.476220 4.019463 22.837858 28 39 33
-4.436220 4.024612 22.867111 38 17 36
-4.398267 4.031744 22.907639 37 40 38
-4.357909 4.036800 22.936365 15 30 41
-4.320218 4.044459 22.979883 25 21 16
-4.280584 4.050446 23.013895 17 35 19
-4.240612 4.056238 23.046806 34 33 29
-4.201732 4.063213 23.086437 27 18 26
-4.159810 4.067370 23.110056 22 17 27
-4.120950 4.074647 23.151403 27 37 20
-4.080788 4.080788 23.186295 39 30 22
-4.041000 4.087448 23.224136 25 32 40
-4.002974 4.096066 23.273104 16 29 26
-3.962060 4.101897 23.306232 16 25 41
-3.924363 4.111237 23.359301 42 40 40
-3.884621 4.118634 23.401329 21 23 35
-3.845031 4.126375 23.445311 25 22 37
-3.807728 4.136791 23.504496 37 26 36
