ply
format ascii 1.0
element vertex 1256
property float x
property float y
property float z
property uchar red
property uchar green
property uchar blue
end_header
-7.304964 2.059117 24.513302 32 17 42
-7.259596 2.060156 24.525661 40 21 27
-7.215734 2.061638 24.543314 43 38 20
-7.174180 2.063805 24.569111 22 15 15
-7.131041 2.065543 24.589798 25 21 26
-7.091289 2.068293 24.622530 16 38 20
-7.049529 2.070491 24.648705 24 22 36
-7.007799 2.072729 24.675350 36 39 29
-6.967972 2.075566 24.709122 40 24 41
-6.924691 2.077407 24.731039 20 28 39
-6.883313 2.079850 24.760118 26 40 15
-6.839710 2.081651 24.781559 17 21 19
-6.794592 2.083014 24.797781 16 24 36
-6.749680 2.084460 24.814999 36 23 23
-6.701926 2.085044 24.821949 25 29 36
-6.654195 2.085643 24.829086 19 19 44
-6.605446 2.085930 24.832502 43 23 43
-6.556061 2.086019 24.833563 16 20 31
-6.506903 2.086183 24.835508 17 31 26
-6.457342 2.086218 24.835932 18 28 30
-6.408876 2.086611 24.840605 30 30 29
-6.360432 2.087017 24.845436 37 40 21
-6.312960 2.087751 24.854174 19 29 40
-6.266842 2.088947 24.868420 18 33 31
-6.220236 2.089999 24.880945 19 25 32
-6.175577 2.091728 24.901520 40 29 28
-6.129952 2.093154 24.918505 18 38 40
-6.084383 2.094624 24.935995 19 43 26
-6.039757 2.096445 24.957674 44 19 30
-5.993182 2.097614 24.971592 26 17 36
-5.947315 2.099052 24.988718 22 34 32
-5.899532 2.099833 24.998016 29 21 17
-5.851684 2.100604 25.007195 21 29 17
-5.805423 2.101964 25.023376 36 30 44
-5.758299 2.103031 25.036083 40 17 23
-5.713709 2.105051 25.060127 37 30 30
-5.668093 2.106725 25.080059 30 38 15
-5.623479 2.108805 25.104818 23 34 40
-5.580382 2.111496 25.136858 33 21 25
-5.535066 2.113389 25.159389 31 42 21
-5.496476 2.117908 25.213192 19 28 32
-5.457175 2.122235 25.264700 120 120 120
-5.420583 2.127705 25.329826 120 120 120
-5.388311 2.134991 25.416559 120 120 120
-5.350896 2.140358 25.480457 28 23 34
-5.320389 2.148619 25.578794 36 40 16
-5.284250 2.154743 25.651699 16 21 28
-5.249139 2.161410 25.731075 33 16 42
-5.220817 2.171033 25.845627 31 36 44
-5.185954 2.178101 25.929771 38 17 43
-5.158193 2.188324 26.051481 31 44 21
-5.124141 2.196060 26.143576 37 40 19
-5.088406 2.203228 26.228899 41 37 26
-5.055937 2.211973 26.333008 32 17 16
-5.014908 2.217117 26.394255 22 25 33
-4.980015 2.225113 26.489439 38 36 37
-4.941309 2.231559 26.566177 23 41 22
-4.901681 2.237724 26.639572 36 40 36
-4.864501 2.245154 26.728025 24 15 21
-4.820454 2.249545 26.780298 22 30 31
-4.782608 2.256961 26.868584 33 22 35
-4.741921 2.263190 26.942736 22 32 27
-4.701430 2.269656 27.019714 43 17 43
-4.664400 2.277963 27.118603 24 34 20
-4.621292 2.283462 27.184069 19 23 41
-4.582264 2.291132 27.275383 41 32 20
-4.537975 2.296324 27.337196 37 21 24
-4.493515 2.301556 27.399479 44 31 39
-4.453976 2.309469 27.493681 19 18 29
-4.410055 2.315279 27.562843 36 30 42
-4.370631 2.323627 27.662224 44 18 25
-4.326172 2.329477 27.731874 16 33 31
-4.281756 2.335503 27.803608 39 40 27
-4.242101 2.344319 27.908558 19 23 21
-4.197700 2.350712 27.984667 20 41 38
-4.157916 2.359898 28.094025 21 22 16
-4.114305 2.367134 28.180172 15 34 32
-4.068514 2.373300 28.253569 39 32 35
-4.022786 2.379676 28.329479 16 38 37
-3.970761 2.382456 28.362576 36 36 19
-3.922362 2.387525 28.422915 41 15 16
-3.873051 2.392179 28.478317 43 39 18
-3.823427 2.396775 28.533037 25 29 40
-8.601279 2.125603 24.716318 28 21 21
-8.521592 2.118084 24.628880 44 37 33
-8.446868 2.111717 24.554848 18 30 28
-8.368031 2.104242 24.467926 27 17 25
-8.303121 2.100201 24.420944 21 27 26
-8.236617 2.095707 24.368690 31 38 33
-8.178218 2.093234 24.339933 44 37 32
-8.123771 2.091749 24.322668 27 25 20
-8.065712 2.089311 24.294313 22 40 43
-8.011488 2.087842 24.277235 31 28 39
-7.957805 2.086498 24.261600 43 37 24
-7.906274 2.085704 24.252375 31 37 35
-7.858407 2.085873 24.254341 20 31 35
-7.813163 2.086745 24.264482 21 23 32
-7.769565 2.088071 24.279890 43 42 21
-7.730664 2.090683 24.310263 24 37 39
-7.692149 2.093433 24.342243 35 18 38
-7.652685 2.095958 24.371609 20 32 35
-7.610784 2.097844 24.393538 29 37 15
-7.563383 2.098229 24.398010 29 37 26
-7.516457 2.098751 24.404081 21 42 25
-7.468649 2.099032 24.407349 40 23 30
-7.420915 2.099338 24.410904 18 40 18
-7.374643 2.100064 24.419348 35 33 43
-7.328075 2.100715 24.426916 34 20 31
-7.284177 2.102145 24.443546 19 37 23
-7.239627 2.103405 24.458200 28 34 21
-7.196423 2.105076 24.477629 42 17 31
-7.155506 2.107444 24.505157 44 25 23
-7.112668 2.109274 24.526440 25 26 31
-7.073294 2.112164 24.560049 33 33 44
-7.031871 2.114479 24.586960 43 15 15
-6.990411 2.116815 24.614122 15 28 40
-6.950852 2.119763 24.648411 38 27 28
-6.907738 2.121662 24.670494 39 43 25
-6.866444 2.124152 24.699438 42 36 34
-6.822885 2.125971 24.720596 33 33 34
-6.777742 2.127320 24.736284 23 42 22
-6.732816 2.128758 24.752998 19 38 20
-6.685091 2.129325 24.759598 27 44 32
-6.637250 2.129864 24.765860 26 36 27
-6.588403 2.130085 24.768433 21 40 17
-6.538851 2.130080 24.768375 34 17 18
-6.489469 2.130131 24.768965 21 15 39
-6.439786 2.130083 24.768408 32 29 34
-6.391004 2.130335 24.771332 31 22 29
-6.342329 2.130626 24.774721 17 30 28
-6.294580 2.131236 24.781811 35 36 26
-6.248010 2.132257 24.793692 31 15 30
-6.201112 2.133182 24.804447 33 23 39
-6.155956 2.134727 24.822405 33 41 28
-6.109993 2.136014 24.837368 33 33 38
-6.064126 2.137356 24.852976 34 33 38
-6.019134 2.139031 24.872454 19 33 40
-5.972429 2.140120 24.885120 29 18 23
-5.926287 2.141431 24.900364 29 17 26
-5.878316 2.142098 24.908119 30 33 16
-5.830340 2.142775 24.915983 22 41 26
-5.783952 2.144051 24.930828 19 38 26
-5.736872 2.145091 24.942923 39 15 27
-5.692268 2.147084 24.966087 39 18 29
-5.646744 2.148761 24.985594 44 21 44
-5.602163 2.150830 25.009655 25 20 32
-5.558897 2.153447 25.040077 21 42 37
-5.513422 2.155247 25.061008 28 23 15
-5.474549 2.159684 25.112608 33 33 41
-5.435090 2.163971 25.162455 120 120 120
-5.398376 2.169441 25.226055 120 120 120
-5.365927 2.176744 25.310976 120 120 120
-5.328507 2.182151 25.373844 20 31 17
-5.297958 2.190502 25.470951 22 27 38
-5.261859 2.196698 25.543003 29 33 34
-5.226877 2.203487 25.621946 18 40 18
-5.198710 2.213312 25.736187 39 35 23
-5.164099 2.220562 25.820494 27 19 33
-5.136663 2.231076 25.942743 43 17 22
-5.103078 2.239105 26.036110 35 15 22
-5.067649 2.246484 26.121904 35 34 15
-5.035051 2.255283 26.224224 32 19 19
-4.993690 2.260302 26.282579 31 28 31
-4.958376 2.268193 26.374338 39 36 34
-4.919536 2.274624 26.449118 31 42 41
-4.879835 2.280792 26.520840 19 19 40
-4.842470 2.288200 26.606976 27 28 40
-4.798412 2.292574 26.657843 40 32 22
-4.760284 2.299913 26.743170 33 37 16
-4.719264 2.306004 26.814001 34 28 27
-4.678516 2.312370 26.888025 34 20 22
-4.641264 2.320632 26.984095 41 17 26
-4.598223 2.326160 27.048370 43 28 44
-4.559874 2.334221 27.142109 18 15 26
-4.516726 2.339991 27.209192 18 34 17
-4.473573 2.345898 27.277884 38 23 27
-4.435215 2.354497 27.377872 36 24 22
-4.392003 2.360702 27.450022 36 43 40
-4.352951 2.369327 27.550320 35 44 44
-4.308550 2.375226 27.618910 24 20 15
-4.263759 2.381060 27.686745 43 31 26
-4.223216 2.389451 27.784319 40 16 40
-4.177929 2.395346 27.852861 31 20 36
-4.138059 2.404548 27.959860 44 35 37
-4.095526 2.412433 28.051550 32 23 15
-4.051106 2.419410 28.132679 35 17 29
-4.006138 2.426253 28.212240 44 31 44
-3.954324 2.429085 28.245173 32 20 27
-3.906046 2.434202 28.304680 21 20 18
-3.856863 2.438898 28.359283 34 34 22
-3.807247 2.443457 28.412292 44 22 24
-3.758459 2.448693 28.473175 20 15 26
-8.620167 2.167356 24.629047 21 19 39
-8.529004 2.156760 24.508631 21 34 21
-8.451819 2.149596 24.427223 31 31 39
-8.381125 2.144009 24.363735 16 39 39
-8.306598 2.137370 24.288298 29 20 36
-8.244892 2.133972 24.249681 39 30 21
-8.182820 2.130438 24.209528 16 37 27
-8.127497 2.128630 24.188978 37 28 19
-8.076366 2.127905 24.180737 29 22 32
-8.023260 2.126647 24.166445 44 41 31
-7.972891 2.126104 24.160276 28 41 36
-7.923994 2.125950 24.158520 30 18 36
-7.875825 2.125990 24.158972 30 43 18
-7.830532 2.126811 24.168310 22 21 19
-7.788336 2.128489 24.187378 26 43 21
-7.746388 2.130257 24.207462 15 37 18
-7.707825 2.132983 24.238443 25 36 21
-7.668181 2.135443 24.266396 44 37 38
-7.626734 2.137429 24.288963 43 29 20
-7.583124 2.138830 24.304884 20 17 41
-7.534771 2.138903 24.305712 38 29 27
-7.486865 2.139104 24.308002 36 18 17
-7.438593 2.139203 24.309128 27 20 21
-7.390841 2.139454 24.311977 23 31 24
-7.344677 2.140171 24.320124 39 37 30
-7.298532 2.140903 24.328440 39 26 38
-7.255104 2.142447 24.345985 20 18 23
-7.210919 2.143787 24.361214 26 27 38
-7.168051 2.145539 24.381124 39 25 38
-7.127450 2.147999 24.409077 16 32 22
-7.084848 2.149885 24.430510 39 16 30
-7.045706 2.152855 24.464256 15 30 19
-7.004506 2.155233 24.491280 35 23 36
-6.963241 2.157624 24.518454 42 44 36
-6.923886 2.160645 24.552786 18 26 34
-6.880968 2.162590 24.574886 37 30 24
-6.839810 2.165120 24.603632 19 23 40
-6.796334 2.166947 24.624399 42 19 41
-6.751267 2.168290 24.639662 38 28 34
-6.706453 2.169735 24.656078 39 19 29
-6.658900 2.170308 24.662594 15 29 16
-6.611132 2.170819 24.668402 15 28 28
-6.562333 2.170997 24.670425 37 19 31
-6.512781 2.170927 24.669626 39 33 39
-6.463333 2.170891 24.669210 16 41 44
-6.413650 2.170774 24.667885 20 34 22
-6.364662 2.170893 24.669233 26 39 28
-6.315848 2.171073 24.671280 21 22 24
-6.267859 2.171542 24.676609 29 41 31
-6.220850 2.172360 24.685913 24 18 15
-6.173663 2.173129 24.694651 36 43 22
-6.128097 2.174486 24.710070 18 41 39
-6.081997 2.175674 24.723566 22 27 15
-6.036017 2.176924 24.737776 31 30 23
-5.990694 2.178434 24.754934 31 26 39
-5.943806 2.179396 24.765860 39 36 27
-5.897302 2.180515 24.778578 22 39 34
-5.849096 2.181019 24.784306 18 40 22
-5.800969 2.181561 24.790466 22 35 38
-5.754426 2.182713 24.803562 32 29 30
-5.707429 2.183712 24.814907 34 44 19
-5.662847 2.185660 24.837048 38 25 27
-5.617440 2.187322 24.855930 25 20 33
-5.572968 2.189380 24.879322 41 22 34
-5.529679 2.191945 24.908463 16 28 17
-5.484234 2.193694 24.928337 17 31 34
-5.445341 2.198119 24.978630 19 30 29
-5.405971 2.202433 25.027645 120 120 120
-5.369409 2.207981 25.090694 120 120 120
-5.337094 2.215398 25.174973 120 120 120
-5.299891 2.220907 25.237577 16 26 40
-5.269610 2.229450 25.334663 27 44 43
-5.233799 2.235798 25.406790 39 39 43
-5.199185 2.242786 25.486202 17 33 26
-5.171466 2.252916 25.601315 44 23 31
-5.137299 2.260412 25.686495 22 18 15
-5.110435 2.271305 25.810280 27 17 23
-5.077511 2.279699 25.905666 25 15 43
-5.042528 2.287332 25.992413 18 37 37
-5.009931 2.296218 26.093390 30 43 22
-4.968301 2.301108 26.148954 19 25 38
-4.932677 2.308913 26.237642 18 21 34
-4.893841 2.315366 26.310972 31 44 15
-4.854197 2.321573 26.381508 18 29 18
-4.816801 2.329003 26.465939 32 36 19
-4.772837 2.333387 26.515762 31 17 21
-4.734543 2.340673 26.598558 17 25 33
-4.693329 2.346664 26.666641 31 37 43
-4.652374 2.352925 26.737780 26 31 18
-4.614879 2.361101 26.830690 20 27 16
-4.571820 2.366589 26.893061 25 22 32
-4.533563 2.374723 26.985493 37 30 39
-4.490781 2.380655 27.052898 42 41 19
-4.448039 2.386753 27.122189 36 27 25
-4.409854 2.395476 27.221319 37 30 36
-4.366742 2.401708 27.292137 35 38 34
-4.327715 2.410373 27.390602 41 33 27
-4.283494 2.416330 27.458292 36 15 24
-4.238806 2.422175 27.524715 34 44 15
-4.198101 2.430480 27.619085 29 39 23
-4.152676 2.436237 27.684507 23 19 41
-4.112684 2.445379 27.788403 32 24 42
-4.070106 2.453215 27.877441 44 42 19
-4.026060 2.460370 27.958748 19 44 21
-3.982165 2.467820 28.043413 17 22 36
-3.931733 2.471375 28.083809 32 18 27
-3.884448 2.477040 28.148176 33 42 27
-3.835497 2.481792 28.202183 16 32 40
-3.785772 2.486178 28.252028 35 34 38
-3.736973 2.491315 28.310400 38 38 41
-3.684619 2.494203 28.343220 18 26 25
-8.653180 2.212461 24.582899 32 42 43
-8.571828 2.204184 24.490936 39 23 16
-8.482959 2.193869 24.376318 16 34 40
-8.407633 2.186957 24.299517 39 18 15
-8.339205 2.181769 24.241875 20 36 30
-8.267441 2.175642 24.173803 25 23 26
-8.207770 2.172645 24.140499 31 28 23
-8.148400 2.169692 24.107693 29 40 44
-8.094771 2.168242 24.091581 15 21 20
-8.045639 2.167987 24.088739 20 41 22
-7.996089 2.167614 24.084604 21 18 34
-7.948825 2.167861 24.087347 38 21 43
-7.903361 2.168605 24.095613 27 40 23
-7.857324 2.169200 24.102221 26 35 32
-7.813307 2.170363 24.115145 31 43 23
-7.772638 2.172477 24.138628 22 26 31
-7.731354 2.174443 24.160482 17 42 21
-7.691466 2.176830 24.187000 18 18 44
-7.648709 2.178430 24.204777 17 18 30
-7.604084 2.179514 24.216827 35 39 41
-7.559082 2.180504 24.227827 28 16 22
-7.511282 2.180695 24.229940 37 37 17
-7.464111 2.181071 24.234127 16 38 44
-7.416496 2.181322 24.236914 37 39 29
-7.369371 2.181722 24.241352 41 21 15
-7.323498 2.182499 24.249994 30 23 39
-7.277329 2.183199 24.257763 18 39 41
-7.233882 2.184730 24.274773 41 43 18
-7.189821 2.186094 24.289934 23 42 32
-7.147044 2.187871 24.309673 30 31 25
-7.106452 2.190345 24.337166 31 23 17
-7.063855 2.192231 24.358122 19 20 42
-7.024642 2.195201 24.391119 40 16 24
-6.983401 2.197574 24.417486 27 41 44
-6.942118 2.199967 24.444077 26 20 43
-6.902763 2.203009 24.477882 32 27 23
-6.859942 2.204981 24.499792 37 18 16
-6.818850 2.207541 24.528238 31 35 20
-6.775454 2.209387 24.548746 22 19 26
-6.730507 2.210750 24.563892 17 24 34
-6.685844 2.212228 24.580309 25 41 18
-6.638492 2.212831 24.587006 16 23 33
-6.590913 2.213366 24.592958 42 20 21
-6.542274 2.213551 24.595015 23 39 42
-6.492857 2.213474 24.594154 22 33 42
-6.443528 2.213425 24.593616 21 22 32
-6.393963 2.213295 24.592165 30 32 33
-6.344995 2.213370 24.593002 16 35 44
-6.296192 2.213505 24.594500 23 26 42
-6.248153 2.213912 24.599026 33 30 17
-6.200980 2.214636 24.607065 43 29 28
-6.153682 2.215325 24.614727 16 30 41
-6.108040 2.216627 24.629194 31 25 17
-6.062080 2.217834 24.642601 15 31 27
-6.016226 2.219100 24.656662 23 24 26
-5.970819 2.220553 24.672808 30 36 29
-5.923818 2.221432 24.682573 15 28 15
-5.877102 2.222434 24.693707 18 36 24
-5.828778 2.222839 24.698212 19 34 19
-5.780587 2.223303 24.703362 43 28 30
-5.733992 2.224393 24.715483 37 26 37
-5.687082 2.225380 24.726444 25 29 17
-5.642592 2.227339 24.748211 40 28 24
-5.597315 2.229019 24.766880 22 44 24
-5.553006 2.231119 24.790207 43 41 39
-5.509874 2.233733 24.819254 35 43 32
-5.464594 2.235516 24.839066 23 31 18
-5.425938 2.240066 24.889626 15 29 38
-5.386828 2.244511 24.939016 120 120 120
-5.350573 2.250241 25.002680 120 120 120
-5.318603 2.257898 25.087751 120 120 120
-5.281703 2.263587 25.150965 20 30 32
-5.251833 2.272428 25.249195 35 37 20
-5.216397 2.279009 25.322317 40 18 34
-5.182193 2.286261 25.402905 29 39 41
-5.154961 2.296765 25.519609 21 26 36
-5.121200 2.304540 25.606001 26 19 25
-5.094833 2.315833 25.731478 39 39 26
-5.062391 2.324567 25.828526 29 23 25
-5.027749 2.332461 25.916231 24 25 20
-4.995296 2.341545 26.017168 19 44 40
-4.953617 2.346450 26.071667 21 31 15
-4.917915 2.354321 26.159124 18 25 42
-4.879102 2.360856 26.231733 29 20 34
-4.839495 2.367144 26.301601 36 39 35
-4.802113 2.374671 26.385237 17 28 32
-4.758226 2.379113 26.434589 37 38 26
-4.719882 2.386457 26.516190 28 29 22
-4.678627 2.392480 26.583107 17 17 29
-4.637572 2.398744 26.652712 31 41 27
-4.599905 2.406927 26.743631 42 38 34
-4.556773 2.412409 26.804548 31 17 30
-4.518214 2.420472 26.894129 16 40 19
-4.475182 2.426304 26.958929 31 20 27
-4.432147 2.432276 27.025284 35 41 34
-4.393484 2.440825 27.120274 24 38 31
-4.350078 2.446919 27.187984 20 21 28
-4.310983 2.455623 27.284702 20 26 43
-4.267145 2.461814 27.353493 25 19 21
-4.222944 2.467955 27.421717 26 29 29
-4.182558 2.476514 27.516827 41 38 44
-4.137336 2.482402 27.582243 30 26 34
-4.096957 2.491393 27.682144 23 16 20
-4.053325 2.498625 27.762497 35 24 34
-4.008649 2.505405 27.837837 38 34 20
-3.965597 2.513407 27.926741 41 19 21
-3.916893 2.518002 27.977804 23 25 42
-3.870870 2.524481 28.049786 37 40 33
-3.822085 2.529321 28.103567 40 17 23
-3.772130 2.533520 28.150225 24 27 29
-3.723334 2.538637 28.207075 40 17 42
-3.671069 2.541509 28.238993 17 29 20
-3.621062 2.546059 28.289545 22 16 36
-8.677186 2.255088 24.511826 21 41 40
-8.582964 2.243275 24.383419 40 20 16
-8.504529 2.235476 24.298655 27 39 31
-8.419484 2.225840 24.193918 26 25 20
-8.346785 2.219376 24.123655 15 25 17
-8.281151 2.214727 24.073114 15 21 17
-8.212935 2.209328 24.014431 34 34 38
-8.155801 2.206864 23.987650 22 44 40
-8.099759 2.204668 23.963785 42 41 28
-8.048372 2.203721 23.953489 18 32 19
-8.001559 2.204022 23.956764 36 34 32
-7.955568 2.204555 23.962555 26 37 20
-7.911116 2.205523 23.973080 22 16 26
-7.869055 2.207174 23.991020 41 44 30
-7.825685 2.208476 24.005169 17 24 34
-7.783220 2.210050 24.022284 17 27 34
-7.743273 2.212364 24.047432 42 25 34
-7.701420 2.214158 24.066938 40 36 27
-7.659729 2.216022 24.087198 34 31 30
-7.614613 2.216913 24.096878 38 26 41
-7.567959 2.217364 24.101782 22 22 36
-7.522243 2.218097 24.109755 27 32 31
-7.475235 2.218457 24.113663 31 29 33
-7.429080 2.219076 24.120388 25 40 18
-7.382332 2.219525 24.125267 39 29 22
-7.335997 2.220104 24.131569 22 29 35
-7.290662 2.220996 24.141264 17 18 40
-7.244656 2.221695 24.148853 24 30 23
-7.201373 2.223243 24.165680 15 44 37
-7.157555 2.224645 24.180929 39 26 43
-7.114913 2.226436 24.200386 36 42 32
-7.074307 2.228891 24.227077 15 16 18
-7.031661 2.230734 24.247107 36 15 18
-6.992207 2.233622 24.278498 20 33 35
-6.950772 2.235913 24.303398 34 37 44
-6.909308 2.238227 24.328550 33 25 28
-6.869770 2.241201 24.360886 21 17 37
-6.826973 2.243148 24.382048 44 24 29
-6.785889 2.245690 24.409672 41 18 31
-6.742553 2.247518 24.429539 35 19 22
-6.697774 2.248888 24.444429 15 34 23
-6.653324 2.250389 24.460751 33 18 37
-6.606272 2.251026 24.467672 43 31 21
-6.558984 2.251592 24.473822 19 44 21
-6.510613 2.251791 24.475988 17 36 39
-6.461428 2.251710 24.475105 44 32 38
-6.412298 2.251647 24.474419 25 43 25
-6.362914 2.251493 24.472748 28 19 15
-6.313995 2.251502 24.472847 22 33 22
-6.265233 2.251568 24.473566 32 15 27
-6.217160 2.251885 24.477007 22 29 25
-6.169865 2.252491 24.483593 16 22 22
-6.122526 2.253090 24.490105 23 19 43
-6.076784 2.254291 24.503162 22 39 27
-6.030886 2.255453 24.515799 31 31 24
-5.985080 2.256669 24.529015 22 36 33
-5.939539 2.258006 24.543549 36 40 21
-5.892466 2.258779 24.551941 19 24 30
-5.845549 2.259624 24.561129 20 44 42
-5.797131 2.259899 24.564116 44 33 41
-5.748898 2.260250 24.567940 30 43 21
-5.702197 2.261216 24.578434 36 17 21
-5.655337 2.262135 24.588423 25 43 27
-5.611089 2.264124 24.610039 38 38 33
-5.566281 2.265920 24.629562 27 39 18
-5.522539 2.268186 24.654192 37 18 29
-5.479823 2.270918 24.683889 38 35 40
-5.434834 2.272749 24.703791 38 22 31
-5.396605 2.277466 24.755070 36 15 15
-5.357940 2.282086 24.805279 120 120 120
-5.322230 2.288062 24.870235 120 120 120
-5.290925 2.296062 24.957191 120 120 120
-5.254603 2.302017 25.021919 20 25 40
-5.225551 2.311301 25.122839 18 43 36
-5.190847 2.318242 25.198288 15 16 19
-5.157405 2.325888 25.281395 18 27 41
-5.131122 2.336946 25.401592 32 34 19
-5.098095 2.345124 25.490475 38 42 40
-5.072521 2.356929 25.618795 39 42 18
-5.040634 2.366012 25.717522 34 31 20
-5.006399 2.374169 25.806183 15 15 36
-4.974397 2.383565 25.908319 27 22 20
-4.933026 2.388623 25.963295 36 21 36
-4.897549 2.396673 26.050791 20 23 16
-4.858899 2.403326 26.123114 18 15 28
-4.819375 2.409687 26.192253 26 38 17
-4.782076 2.417313 26.275143 35 20 36
-4.738310 2.421803 26.323942 35 26 33
-4.699923 2.429174 26.404062 23 22 32
-4.658658 2.435208 26.469650 29 15 38
-4.617474 2.441423 26.537205 15 21 32
-4.579485 2.449492 26.624912 28 18 25
-4.536135 2.454850 26.683147 40 30 32
-4.497088 2.462691 26.768383 29 35 33
-4.453740 2.468338 26.829760 24 36 26
-4.410370 2.474110 26.892498 21 33 38
-4.371158 2.482386 26.982454 41 32 22
-4.327458 2.488288 27.046614 22 33 44
-4.288137 2.496890 27.140108 40 25 15
-4.244480 2.503155 27.208204 43 21 38
-4.200555 2.509422 27.276331 37 44 34
-4.160242 2.518041 27.370010 38 34 30
-4.115117 2.523938 27.434113 36 24 38
-4.074426 2.532751 27.529907 25 20 37
-4.030130 2.539534 27.603630 32 31 23
-3.985136 2.546059 27.674559 39 20 16
-3.942688 2.554418 27.765411 33 16 40
-3.895225 2.559719 27.823032 18 39 35
-3.850421 2.566947 27.901598 40 44 38
-3.802391 2.572206 27.958755 40 30 42
-3.752903 2.576620 28.006742 27 43 29
-3.704440 2.581882 28.063938 33 21 31
-3.652275 2.584687 28.094423 34 38 26
-3.602188 2.589073 28.142096 24 30 44
-3.550278 2.592267 28.176813 15 26 30
-8.624475 2.290115 24.362923 33 29 23
-8.531531 2.278307 24.237305 20 30 44
-8.455818 2.270991 24.159479 40 28 24
-8.373903 2.261916 24.062941 36 36 18
-8.303079 2.255750 23.997337 17 30 24
-8.239184 2.251405 23.951117 21 34 44
-8.173290 2.246460 23.898510 31 19 33
-8.117804 2.244334 23.875895 23 32 17
-8.063911 2.242626 23.857725 44 16 42
-8.014122 2.242046 23.851555 37 19 44
-7.968725 2.242695 23.858459 29 38 32
-7.924350 2.243641 23.868525 38 26 21
-7.880852 2.244849 23.881369 30 43 42
-7.840431 2.246953 23.903753 30 28 37
-7.799114 2.248824 23.923662 18 28 28
-7.757893 2.250747 23.944115 38 31 30
-7.717390 2.252903 23.967051 43 43 32
-7.673744 2.254162 23.980450 16 20 31
-7.630646 2.255600 23.995743 31 33 42
-7.585337 2.256398 24.004230 41 28 17
-7.539101 2.256928 24.009874 26 31 24
-7.493815 2.257752 24.018639 27 41 38
-7.447384 2.258239 24.023819 21 40 18
-7.401928 2.259030 24.032232 43 22 17
-7.355757 2.259612 24.038422 27 23 38
-7.309913 2.260302 24.045765 17 32 39
-7.265035 2.261302 24.056406 38 24 22
-7.219290 2.262044 24.064299 18 24 40
-7.176238 2.263646 24.081337 30 24 29
-7.132650 2.265098 24.096792 21 25 32
-7.090118 2.266908 24.116047 33 22 24
-7.049472 2.269351 24.142027 33 19 44
-7.006752 2.271154 24.161215 29 43 19
-6.967017 2.273957 24.191032 37 37 37
-6.925341 2.276161 24.214478 43 22 23
-6.883635 2.278386 24.238152 30 29 41
-6.843820 2.281273 24.268866 24 33 36
-6.800949 2.283176 24.289104 15 31 19
-6.759758 2.285674 24.315678 17 39 41
-6.716439 2.287483 24.334925 27 18 28
-6.671760 2.288852 24.349489 35 27 16
-6.627428 2.290361 24.365545 20 28 26
-6.580586 2.291019 24.372541 20 34 38
-6.533503 2.291602 24.378742 25 35 36
-6.485332 2.291809 24.380949 20 33 36
-6.436327 2.291722 24.380026 28 34 39
-6.387334 2.291639 24.379137 20 38 34
-6.338074 2.291457 24.377207 42 19 28
-6.289183 2.291408 24.376678 18 34 21
-6.240435 2.291410 24.376699 27 18 26
-6.192354 2.291658 24.379345 44 39 37
-6.145048 2.292200 24.385111 23 15 41
-6.097788 2.292768 24.391151 25 27 18
-6.051978 2.293895 24.403135 30 36 20
-6.006025 2.294985 24.414734 18 39 26
-5.960146 2.296122 24.426828 24 39 30
-5.914483 2.297361 24.440014 15 40 20
-5.867421 2.298073 24.447586 15 25 37
-5.820426 2.298824 24.455570 18 31 24
-5.771992 2.299014 24.457592 24 42 41
-5.723775 2.299294 24.460575 24 33 23
-5.676977 2.300154 24.469728 30 36 22
-5.630104 2.300999 24.478712 19 41 38
-5.586150 2.303062 24.500656 42 28 23
-5.541966 2.305065 24.521973 27 38 34
-5.498911 2.307579 24.548712 15 19 32
-5.456623 2.310462 24.579382 29 27 15
-5.411803 2.312316 24.599104 35 27 35
-5.373902 2.317187 24.650927 42 21 33
-5.335629 2.321987 24.701986 120 120 120
-5.300425 2.328224 24.768341 120 120 120
-5.269760 2.336592 24.857357 120 120 120
-5.234004 2.342840 24.923828 32 24 37
-5.205755 2.352601 25.027668 25 33 42
-5.171743 2.359922 25.105551 33 34 15
-5.139025 2.367982 25.191301 29 22 39
-5.113656 2.379622 25.315130 30 23 31
-5.081327 2.388224 25.406635 20 32 41
-5.056446 2.400535 25.537605 30 40 21
-5.024908 2.409905 25.637283 25 22 43
-4.990956 2.418298 25.726576 25 39 38
-4.959510 2.428093 25.830780 21 44 26
-4.918648 2.433436 25.887619 18 19 27
-4.883622 2.441811 25.976711 35 18 35
-4.845196 2.448647 26.049438 16 15 17
-4.805765 2.455119 26.118288 20 26 37
-4.768575 2.462890 26.200962 16 41 16
-4.724898 2.467447 26.249435 33 23 23
-4.686459 2.474872 26.328423 31 37 36
-4.645169 2.480943 26.393007 35 36 23
-4.603837 2.487131 26.458836 23 20 38
-4.565489 2.495093 26.543543 23 42 26
-4.521839 2.500311 26.599054 40 23 40
-4.482353 2.507983 26.680674 39 30 41
-4.438765 2.513518 26.739550 31 20 21
-4.395201 2.519201 26.800009 37 26 43
-4.355676 2.527368 26.886889 44 22 26
-4.311851 2.533212 26.949068 38 35 37
-4.272287 2.541740 27.039791 21 30 17
-4.228520 2.547954 27.105896 27 28 42
-4.184517 2.554185 27.172186 17 40 20
-4.144007 2.562741 27.263206 35 38 19
-4.098815 2.568591 27.325436 36 24 29
-4.058085 2.577432 27.419495 34 43 32
-4.013926 2.584309 27.492647 22 29 29
-3.969129 2.590959 27.563398 19 31 30
-3.926661 2.599339 27.652544 18 17 16
-3.879160 2.604579 27.708288 21 28 39
-3.834898 2.612177 27.789116 21 35 17
-3.788028 2.618196 27.853146 20 29 33
-3.739613 2.623311 27.907560 42 17 18
-3.691523 2.628812 27.966084 31 41 27
-3.639148 2.631384 27.993443 35 21 23
-3.588633 2.635402 28.036196 23 41 40
-3.536416 2.638278 28.066792 36 42 27
-8.661073 2.335570 24.328856 36 40 31
-8.574629 2.325323 24.222115 39 26 21
-8.484370 2.313919 24.103325 30 17 24
-8.411789 2.307234 24.033684 44 28 20
-8.333259 2.298830 23.946148 30 27 19
-8.264273 2.292978 23.885183 38 29 15
-8.201791 2.288872 23.842417 43 25 24
-8.137880 2.284317 23.794970 28 36 25
-8.083689 2.282453 23.775555 21 23 15
-8.031422 2.281114 23.761604 35 27 41
-7.982904 2.280830 23.758644 43 16 24
-7.938425 2.281703 23.767738 38 39 34
-7.894750 2.282819 23.779367 23 20 21
-7.851391 2.284041 23.792095 39 37 42
-7.811472 2.286284 23.815462 15 35 28
-7.771320 2.288487 23.838406 25 28 25
-7.730649 2.290563 23.860027 33 16 16
-7.688967 2.292363 23.878778 22 28 17
-7.643329 2.292999 23.885405 39 29 42
-7.599106 2.294070 23.896559 37 27 44
-7.554333 2.294987 23.906118 19 38 38
-7.509326 2.295845 23.915052 35 18 35
-7.464948 2.296907 23.926115 33 32 32
-7.419149 2.297543 23.932737 39 38 23
-7.374461 2.298533 23.943056 23 36 18
-7.328876 2.299255 23.950577 29 43 16
-7.283517 2.300058 23.958937 22 29 30
-7.239168 2.301192 23.970755 21 36 18
-7.193765 2.302005 23.979218 28 21 34
-7.151016 2.303683 23.996698 29 31 18
-7.107676 2.305192 24.012419 23 40 33
-7.065222 2.307011 24.031368 16 20 22
-7.024521 2.309431 24.056578 17 19 37
-6.981687 2.311179 24.074783 15 43 39
-6.941613 2.313871 24.102821 27 26 21
-6.899642 2.315964 24.124622 19 35 15
-6.857638 2.318075 24.146614 32 37 22
-6.817491 2.320848 24.175499 18 43 15
-6.774527 2.322695 24.194740 29 16 17
-6.733227 2.325143 24.220240 40 32 27
-6.689925 2.326930 24.238857 36 22 39
-6.645383 2.328309 24.253222 21 44 16
-6.601208 2.329838 24.269148 27 27 23
-6.554601 2.330525 24.276299 21 32 30
-6.507758 2.331137 24.282679 19 26 42
-6.459844 2.331372 24.285130 21 38 33
-6.411064 2.331296 24.284334 18 36 36
-6.362264 2.331211 24.283451 29 23 28
-6.313171 2.331017 24.281425 18 19 38
-6.264366 2.330927 24.280489 23 28 23
-6.215705 2.330889 24.280098 41 29 26
-6.167673 2.331089 24.282177 44 25 27
-6.120412 2.331586 24.287350 29 28 17
-6.073252 2.332129 24.293007 21 22 20
-6.027386 2.333182 24.303976 35 43 32
-5.981356 2.334188 24.314455 37 16 37
-5.935379 2.335231 24.325323 37 35 25
-5.889634 2.336384 24.337330 33 44 30
-5.842627 2.337051 24.344278 29 44 24
-5.795604 2.337723 24.351276 33 26 29
-5.747193 2.337841 24.352514 43 18 27
-5.698998 2.338050 24.354692 32 30 25
-5.652099 2.338800 24.362495 19 28 31
-5.605187 2.339557 24.370380 31 20 43
-5.561511 2.341689 24.392591 17 23 23
-5.517932 2.343900 24.415627 27 33 20
-5.475597 2.346684 24.444628 39 39 41
-5.433861 2.349778 24.476852 16 25 17
-5.389352 2.351717 24.497053 24 24 42
-5.351899 2.356799 24.549994 34 36 25
-5.314029 2.361791 24.601988 120 120 120
-5.279300 2.368284 24.669626 120 120 120
-5.249287 2.377036 24.760788 120 120 120
-5.214099 2.383588 24.829041 40 19 22
-5.186668 2.393847 24.935904 23 26 28
-5.153360 2.401566 25.016312 33 36 35
-5.121378 2.410060 25.104794 42 41 31
-5.096919 2.422298 25.232273 42 29 30
-5.065269 2.431329 25.326344 18 24 33
-5.041000 2.444121 25.459597 21 43 36
-5.009671 2.453716 25.559546 37 32 26
-4.975892 2.462297 25.648930 34 39 23
-4.945022 2.472511 25.755323 18 23 28
-4.904788 2.478209 25.814672 35 19 32
-4.870305 2.486964 25.905878 26 21 41
-4.832114 2.493994 25.979105 39 26 18
-4.792765 2.500573 26.047634 34 17 30
-4.755706 2.508504 26.130251 32 39 28
-4.712130 2.513136 26.178501 41 39 29
-4.673725 2.520661 26.256884 27 35 37
-4.632523 2.526831 26.321154 32 15 39
-4.591154 2.533051 26.385944 16 42 30
-4.552542 2.540953 26.468266 40 26 32
-4.508626 2.546048 26.521332 35 35 24
-4.468749 2.553571 26.599695 41 15 16
-4.424969 2.559018 26.656439 18 36 24
-4.381233 2.564624 26.714838 32 42 32
-4.341445 2.572708 26.799042 32 34 41
-4.297519 2.578511 26.859493 19 41 36
-4.257641 2.586921 26.947096 44 19 29
-4.213597 2.592983 27.010237 37 40 16
-4.169334 2.599065 27.073595 37 30 40
-4.128476 2.607459 27.161028 26 35 32
-4.083152 2.613217 27.221010 41 27 38
-4.042437 2.622122 27.313766 29 38 19
-3.998673 2.629264 27.388168 32 43 16
-3.954231 2.636154 27.459936 21 31 20
-3.911544 2.644424 27.546085 15 37 22
-3.863617 2.649337 27.597265 28 20 28
-3.819543 2.657073 27.677849 41 39 40
-3.773647 2.663751 27.747402 19 44 19
-3.726328 2.669608 27.808420 42 33 31
-3.678900 2.675563 27.870453 35 43 36
-3.626726 2.678198 27.897896 39 32 26
-3.576065 2.682049 27.938009 44 42 34
-3.523519 2.684586 27.964439 38 31 27
-3.471268 2.687433 27.994095 43 39 44
-8.595251 2.366109 24.143965 23 34 24
-8.512247 2.356498 24.045895 17 20 37
-8.425713 2.345795 23.936684 16 19 20
-8.356452 2.339807 23.875578 43 39 21
-8.281807 2.332233 23.798296 15 35 28
-8.215271 2.326869 23.743557 24 30 18
-8.154816 2.323174 23.705860 29 38 44
-8.093552 2.319205 23.665358 35 26 30
-8.041083 2.317724 23.650244 36 15 21
-7.990885 2.316884 23.641672 27 43 19
-7.943876 2.316964 23.642488 21 33 41
-7.900528 2.318119 23.654274 24 34 42
-7.858066 2.319550 23.668875 28 24 27
-7.815331 2.320916 23.682821 22 23 20
-7.775951 2.323303 23.707169 40 16 15
-7.736271 2.325627 23.730892 26 34 31
-7.695589 2.327678 23.751818 28 39 22
-7.653205 2.329236 23.767717 23 30 18
-7.606624 2.329529 23.770700 39 28 31
-7.561733 2.330345 23.779034 34 33 18
-7.517007 2.331224 23.787996 32 15 20
-7.472501 2.332182 23.797773 19 33 34
-7.428719 2.333380 23.809996 30 43 21
-7.383599 2.334170 23.818062 32 32 38
-7.339760 2.335378 23.830391 39 29 42
-7.294874 2.336267 23.839457 22 17 33
-7.250148 2.337219 23.849171 27 34 27
-7.206477 2.338526 23.862507 31 37 19
-7.161536 2.339435 23.871788 24 43 43
-7.119214 2.341218 23.889978 28 26 31
-7.076201 2.342796 23.906086 20 31 43
-7.033905 2.344635 23.924849 39 27 25
-6.993206 2.347035 23.949335 33 44 17
-6.950300 2.348722 23.966553 18 28 34
-6.909931 2.351296 23.992817 22 19 31
-6.867704 2.353269 24.012951 30 38 27
-6.825442 2.355258 24.033245 38 26 19
-6.785022 2.357915 24.060362 26 22 23
-6.742010 2.359704 24.078608 40 36 16
-6.700682 2.362111 24.103174 17 26 18
-6.657482 2.363889 24.121313 29 30 38
-6.613161 2.365291 24.135624 41 41 19
-6.569235 2.366857 24.151600 41 15 18
-6.522940 2.367586 24.159039 33 31 22
-6.476440 2.368250 24.165819 15 31 18
-6.428851 2.368524 24.168613 39 30 34
-6.380369 2.368470 24.168064 17 41 22
-6.331829 2.368394 24.167288 29 30 42
-6.282947 2.368188 24.165182 16 17 44
-6.234294 2.368065 24.163931 23 37 44
-6.185801 2.368002 24.163284 42 24 20
-6.137863 2.368152 24.164816 21 15 33
-6.090567 2.368554 24.168917 23 28 15
-6.043400 2.369013 24.173599 26 28 31
-5.997385 2.369934 24.183002 30 34 30
-5.951281 2.370835 24.192198 18 27 43
-5.905242 2.371778 24.201813 34 35 18
-5.859392 2.372812 24.212364 28 26 19
-5.812431 2.373409 24.218462 43 44 27
-5.765333 2.373961 24.224087 25 15 20
-5.716907 2.373970 24.224184 33 29 15
-5.668710 2.374075 24.225256 39 44 26
-5.621690 2.374680 24.231424 43 27 18
-5.574770 2.375337 24.238129 27 37 37
-5.531290 2.377485 24.260046 18 41 34
-5.488131 2.379809 24.283766 29 21 24
-5.446404 2.382802 24.314302 15 32 28
-5.405344 2.386143 24.348396 31 16 22
-5.361438 2.388277 24.370173 24 33 15
-5.324619 2.393636 24.424856 28 43 32
-5.287165 2.398806 24.477615 120 120 120
-5.252848 2.405510 24.546019 120 120 120
-5.223435 2.414607 24.638844 120 120 120
-5.188795 2.421438 24.708548 24 37 18
-5.162156 2.432170 24.818058 31 37 15
-5.129567 2.440279 24.900810 18 35 36
-5.098325 2.449195 24.991787 28 33 36
-5.074755 2.462010 25.122547 34 18 21
-5.043773 2.471449 25.218864 24 20 37
-5.020064 2.484678 25.353859 27 39 38
-4.988929 2.494465 25.453720 33 35 37
-4.955286 2.503186 25.542713 30 33 30
-4.924893 2.513748 25.650486 40 36 24
-4.885220 2.519745 25.711683 17 21 42
-4.851169 2.528801 25.804090 36 24 19
-4.813155 2.535963 25.877176 16 39 24
-4.773870 2.542605 25.944944 20 21 25
-4.736932 2.550656 26.027098 15 42 29
-4.693512 2.555357 26.075068 24 39 17
-4.655240 2.562997 26.153032 25 34 30
-4.614259 2.569303 26.217381 23 33 34
-4.573011 2.575604 26.281673 35 23 18
-4.534281 2.583486 26.362101 22 18 31
-4.490210 2.588474 26.413000 35 42 40
-4.450032 2.595852 26.488287 30 34 33
-4.406122 2.601205 26.542904 29 21 39
-4.362238 2.606703 26.599014 40 40 40
-4.322156 2.614638 26.679977 15 24 33
-4.278087 2.620328 26.738043 41 29 25
-4.237833 2.628530 26.821730 33 25 27
-4.193511 2.634385 26.881483 42 27 27
-4.148992 2.640267 26.941504 30 32 22
-4.107773 2.648433 27.024824 17 40 28
-4.062335 2.654059 27.082235 26 26 43
-4.021580 2.662938 27.172838 24 24 27
-3.978066 2.670208 27.247025 34 28 27
-3.933945 2.677268 27.319065 16 42 32
-3.891358 2.685585 27.403929 23 43 21
-3.843505 2.690453 27.453606 26 23 25
-3.799623 2.698283 27.533501 21 17 33
-3.753957 2.705057 27.602625 41 17 43
-3.707172 2.711216 27.665466 15 21 29
-3.660863 2.717914 27.733814 34 25 37
-3.609930 2.721332 27.768692 36 20 31
-3.559871 2.725526 27.811493 25 35 38
-3.507034 2.727693 27.833603 32 20 28
-3.454172 2.729910 27.856228 42 40 15
-8.635103 2.412040 24.120399 17 42 40
-8.552464 2.402378 24.023775 32 20 26
-8.473477 2.393638 23.936377 28 43 28
-8.390133 2.383561 23.835606 28 19 19
-8.322873 2.377964 23.779638 32 35 21
-8.250655 2.370878 23.708778 23 23 19
-8.185752 2.365824 23.658243 44 22 42
-8.126604 2.362385 23.623848 43 17 20
-8.066980 2.358766 23.587662 23 32 44
-8.015524 2.357507 23.575069 26 23 29
-7.966469 2.356944 23.569435 16 17 43
-7.920244 2.357215 23.572155 38 27 41
-7.877397 2.358502 23.585020 22 22 18
-7.835514 2.360095 23.600946 36 18 31
-7.793075 2.361538 23.615377 26 40 37
-7.753507 2.363874 23.638741 27 17 17
-7.713214 2.366017 23.660166 43 27 31
-7.671865 2.367859 23.678595 18 24 21
-7.629178 2.369310 23.693100 42 38 27
-7.582751 2.369610 23.696098 16 35 40
-7.537946 2.370423 23.704231 35 41 27
-7.493221 2.371272 23.712725 34 24 23
-7.448833 2.372240 23.722397 21 36 40
-7.405349 2.373509 23.735094 36 17 44
-7.360629 2.374396 23.743963 35 26 43
-7.317306 2.375749 23.757486 28 26 31
-7.272848 2.376748 23.767477 18 37 24
-7.228550 2.377813 23.778126 34 32 36
-7.185361 2.379259 23.792585 40 38 19
-7.140769 2.380256 23.802565 22 43 22
-7.098773 2.382138 23.821384 39 44 44
-7.056004 2.383785 23.837851 40 37 23
-7.013818 2.385653 23.856525 31 40 36
-6.973160 2.388068 23.880684 20 40 19
-6.930247 2.389740 23.897402 33 26 26
-6.889732 2.392268 23.922680 29 33 19
-6.847372 2.394186 23.941860 32 17 38
-6.804989 2.396123 23.961227 16 26 43
-6.764443 2.398738 23.987385 36 39 39
-6.721438 2.400514 24.005136 40 39 19
-6.680142 2.402929 24.029289 21 32 33
-6.637050 2.404728 24.047281 25 27 28
-6.592903 2.406169 24.061689 29 22 31
-6.549180 2.407787 24.077868 27 37 19
-6.503106 2.408558 24.085579 38 38 17
-6.456860 2.409276 24.092760 21 41 20
-6.409504 2.409588 24.095881 29 23 29
-6.361236 2.409559 24.095592 42 38 40
-6.312890 2.409500 24.095001 38 24 18
-6.264165 2.409294 24.092943 27 33 42
-6.215647 2.409166 24.091656 31 18 22
-6.167324 2.409111 24.091110 18 43 34
-6.119480 2.409244 24.092440 18 37 22
-6.072140 2.409579 24.095795 42 32 29
-6.024903 2.409961 24.099613 31 44 33
-5.978748 2.410785 24.107853 17 26 24
-5.932606 2.411628 24.116283 42 26 30
-5.886534 2.412514 24.125139 20 31 27
-5.840631 2.413484 24.134838 30 28 40
-5.793712 2.414047 24.140467 40 38 40
-5.746566 2.414524 24.145237 31 18 18
-5.698123 2.414459 24.144590 29 29 24
-5.649907 2.414490 24.144903 37 29 17
-5.602814 2.415006 24.150061 15 40 32
-5.555897 2.415607 24.156073 20 33 17
-5.512456 2.417744 24.177441 24 34 42
-5.469385 2.420082 24.200819 27 30 15
-5.427895 2.423168 24.231676 18 29 18
-5.387319 2.426720 24.267202 38 16 28
-5.343972 2.429078 24.290783 40 42 42
-5.307649 2.434702 24.347015 39 18 15
-5.270412 2.440005 24.400055 120 120 120
-5.236252 2.446847 24.468468 120 120 120
-5.207113 2.456185 24.561853 120 120 120
-5.172742 2.463211 24.632107 28 30 35
-5.146487 2.474273 24.742725 37 31 32
-5.114276 2.482658 24.826582 31 42 28
-5.083415 2.491870 24.918699 40 31 19
-5.060269 2.505084 25.050838 23 37 18
-5.029618 2.514809 25.148090 21 39 40
-5.006125 2.528346 25.283459 41 32 20
-4.975013 2.538272 25.382717 19 41 19
-4.941367 2.547096 25.470963 24 42 35
-4.911156 2.557894 25.578939 21 16 23
-4.871766 2.564087 25.640875 41 15 19
-4.837902 2.573352 25.733521 38 28 41
-4.799941 2.580613 25.806133 15 21 15
-4.760675 2.587323 25.873232 39 44 34
-4.723800 2.595494 25.954945 27 40 31
-4.680497 2.600276 26.002760 41 27 35
-4.642398 2.608088 26.080885 41 33 16
-4.601662 2.614581 26.145807 33 39 29
-4.560625 2.621049 26.210487 36 17 31
-4.521975 2.629055 26.290554 41 33 16
-4.477907 2.634063 26.340630 24 25 29
-4.437655 2.641461 26.414612 32 35 41
-4.393741 2.646832 26.468319 41 41 33
-4.349806 2.652320 26.523205 28 34 30
-4.309568 2.660227 26.602270 41 39 34
-4.265412 2.665883 26.658827 41 25 40
-4.224893 2.673983 26.739828 35 42 33
-4.180361 2.679718 26.797184 43 36 36
-4.135638 2.685479 26.854790 19 19 43
-4.094171 2.693534 26.935337 25 35 20
-4.048662 2.699108 26.991077 31 25 21
-4.007880 2.708027 27.080271 36 16 26
-3.964501 2.715412 27.154116 21 25 19
-3.920593 2.722634 27.226341 42 16 30
-3.878194 2.731122 27.311222 39 40 23
-3.830546 2.736104 27.361042 39 44 39
-3.786611 2.743921 27.439213 19 15 17
-3.740481 2.750354 27.503540 29 33 27
-3.693588 2.756409 27.564087 15 15 27
-3.648286 2.763853 27.638527 35 30 21
-3.598874 2.768365 27.683645 16 27 21
-3.549742 2.773236 27.732359 23 36 24
-3.496759 2.775205 27.752052 43 15 42
-3.443377 2.776917 27.769169 40 27 42
-3.393066 2.781201 27.812014 26 20 43
-8.574826 2.443107 23.952028 26 26 22
-8.494888 2.433929 23.862045 21 34 40
-8.420289 2.426185 23.786127 32 20 29
-8.340888 2.416962 23.695704 33 26 22
-8.276197 2.411920 23.646278 29 40 44
-8.207175 2.405551 23.583838 40 20 41
-8.144537 2.400991 23.539124 27 24 23
-8.087202 2.397949 23.509308 39 15 18
-8.029727 2.394831 23.478735 30 42 17
-7.979518 2.393855 23.469170 40 16 34
-7.931877 2.393643 23.467093 25 23 26
-7.886646 2.394160 23.472160 28 37 44
-7.844439 2.395607 23.486343 31 30 43
-7.803295 2.397398 23.503901 17 34 24
-7.761267 2.398937 23.518990 21 37 30
-7.721424 2.401174 23.540926 15 42 23
-7.680276 2.403031 23.559128 29 43 21
-7.637976 2.404548 23.574001 16 39 20
-7.594869 2.405828 23.586550 41 19 22
-7.548657 2.406134 23.589552 40 35 31
-7.503890 2.406908 23.597139 30 20 17
-7.459027 2.407661 23.604515 32 24 38
-7.414614 2.408569 23.613420 43 23 38
-7.371328 2.409857 23.626053 43 30 29
-7.327009 2.410822 23.635511 40 39 33
-7.284196 2.412299 23.649986 22 23 43
-7.240203 2.413401 23.660795 38 23 32
-7.196357 2.414567 23.672228 18 16 28
-7.153642 2.416131 23.687555 21 24 29
-7.109405 2.417198 23.698017 41 41 36
-7.067661 2.419132 23.716984 23 22 38
-7.025074 2.420803 23.733358 44 22 23
-6.982902 2.422639 23.751368 25 36 33
-6.942112 2.424984 23.774355 43 38 24
-6.899058 2.426565 23.789856 15 25 23
-6.858202 2.428947 23.813202 37 42 32
-6.815573 2.430729 23.830673 29 16 43
-6.772967 2.432545 23.848476 35 41 17
-6.732218 2.435058 23.873114 31 19 24
-6.689259 2.436802 23.890211 20 21 26
-6.648073 2.439221 23.913933 33 42 26
-6.605196 2.441051 23.931870 16 15 39
-6.561392 2.442562 23.946688 38 29 22
-6.518066 2.444275 23.963476 37 37 43
-6.472404 2.445131 23.971869 21 20 38
-6.426666 2.445970 23.980097 40 30 43
-6.379754 2.446372 23.984037 30 23 29
-6.331918 2.446423 23.984539 30 36 33
-6.284030 2.446454 23.984846 25 16 15
-6.235648 2.446293 23.983263 20 31 27
-6.187476 2.446212 23.982466 23 44 36
-6.139484 2.446201 23.982361 42 30 28
-6.091837 2.446328 23.983612 25 19 17
-6.044511 2.446588 23.986155 41 41 28
-5.997202 2.446859 23.988810 26 28 39
-5.950971 2.447577 23.995850 35 28 42
-5.904931 2.448386 24.003784 32 23 21
-5.858980 2.449246 24.012215 20 22 17
-5.813070 2.450137 24.020950 35 29 27
-5.766177 2.450625 24.025738 33 17 22
-5.718922 2.450967 24.029085 30 36 34
-5.670429 2.450779 24.027241 30 36 36
-5.622140 2.450676 24.026239 25 18 20
-5.574911 2.451038 24.029789 42 44 43
-5.527985 2.451541 24.034718 32 33 30
-5.484541 2.453611 24.055006 21 15 33
-5.441496 2.455897 24.077417 36 44 29
-5.400299 2.459065 24.108477 34 29 22
-5.360436 2.462903 24.146109 41 27 23
-5.317978 2.465608 24.172626 17 30 44
-5.282430 2.471596 24.231329 44 39 44
-5.245513 2.477048 24.284781 120 120 120
-5.211562 2.484015 24.353092 120 120 120
-5.182818 2.493620 24.447254 120 120 120
-5.148838 2.500864 24.518276 18 26 29
-5.123117 2.512298 24.630371 24 43 29
-5.091424 2.520997 24.715652 42 25 18
-5.061086 2.530543 24.809244 21 33 36
-5.038515 2.544200 24.943142 32 34 24
-5.008302 2.554234 25.041512 30 44 33
-4.985099 2.568081 25.177267 21 22 38
-4.954036 2.578121 25.275692 42 20 37
-4.920393 2.587011 25.362848 21 22 37
-4.890386 2.598017 25.470758 31 20 40
-4.851333 2.604400 25.533329 39 44 29
-4.817672 2.613843 25.625914 16 16 31
-4.779751 2.621154 25.697588 18 44 19
-4.740511 2.627892 25.763645 16 19 28
-4.703756 2.636171 25.844812 33 34 38
-4.660674 2.641049 25.892633 19 29 36
-4.622928 2.649093 25.971504 37 34 36
-4.582646 2.655852 26.037762 42 23 38
-4.542045 2.662578 26.103706 26 41 31
-4.503713 2.670806 26.184376 30 18 23
-4.459822 2.675893 26.234249 23 30 20
-4.419680 2.683377 26.307621 29 35 31
-4.375931 2.688825 26.361032 30 42 23
-4.332045 2.694321 26.414907 40 18 44
-4.291692 2.702177 26.491928 39 15 30
-4.247431 2.707737 26.546444 38 29 18
-4.206504 2.715591 26.623446 18 39 25
-4.161615 2.721056 26.677021 16 37 38
-4.116492 2.726508 26.730467 22 23 32
-4.074503 2.734206 26.805943 24 18 34
-4.028754 2.739553 26.858360 24 21 16
-3.987722 2.748295 26.944065 17 15 38
-3.944368 2.755655 27.016222 19 15 24
-3.900616 2.762937 27.087614 34 38 37
-3.858314 2.771465 27.171225 29 43 32
-3.810871 2.776491 27.220505 41 15 26
-3.766929 2.784252 27.296585 36 19 26
-3.720490 2.790367 27.356543 28 31 23
-3.673631 2.796346 27.415155 36 22 41
-3.629240 2.804412 27.494240 37 30 20
-3.581174 2.809844 27.547495 33 35 40
-3.533278 2.815581 27.603737 40 35 30
-3.480918 2.817886 27.626337 18 40 24
-3.427848 2.819681 27.643932 29 24 24
-3.377800 2.824062 27.686886 33 35 18
-8.625328 2.491762 23.959246 37 24 32
-8.531903 2.478542 23.832130 42 18 28
-8.453785 2.469645 23.746588 30 34 16
-8.381511 2.462365 23.676586 37 33 36
-8.304629 2.453641 23.592697 24 16 38
-8.241682 2.448957 23.547663 22 35 40
-8.174833 2.443053 23.490898 32 37 20
-8.113745 2.438814 23.450130 15 30 35
-8.057659 2.436036 23.423428 42 15 28
-8.001611 2.433238 23.396523 32 34 32
-7.952185 2.432433 23.388781 18 25 29
-7.905476 2.432454 23.388983 17 31 17
-7.860939 2.433148 23.395653 21 37 30
-7.819220 2.434727 23.410839 21 29 28
-7.778658 2.436688 23.429691 30 24 27
-7.736975 2.438319 23.445377 20 35 44
-7.697077 2.440537 23.466698 20 38 43
-7.655492 2.442243 23.483105 25 30 15
-7.612686 2.443578 23.495945 44 28 18
-7.569387 2.444771 23.507412 33 19 36
-7.523348 2.445088 23.510464 31 17 34
-7.478542 2.445812 23.517427 19 42 35
-7.433480 2.446462 23.523670 41 26 35
-7.388905 2.447281 23.531544 16 17 23
-7.345609 2.448536 23.543617 22 24 20
-7.301487 2.449531 23.553183 21 43 34
-7.258908 2.451060 23.567884 20 37 37
-7.215158 2.452211 23.578949 16 32 16
-7.171555 2.453427 23.590641 43 17 37
-7.129058 2.455040 23.606152 30 35 40
-7.084993 2.456131 23.616644 17 33 42
-7.043302 2.458065 23.635242 21 18 40
-7.000766 2.459729 23.651236 21 44 15
-6.958527 2.461520 23.668461 21 34 16
-6.917532 2.463779 23.690178 21 40 18
-6.874312 2.465270 23.704523 21 18 16
-6.833119 2.467515 23.726109 31 38 15
-6.790229 2.469174 23.742058 44 22 29
-6.747437 2.470892 23.758581 27 27 34
-6.706544 2.473335 23.782072 28 39 19
-6.663661 2.475074 23.798788 40 18 43
-6.622622 2.477528 23.822380 24 21 39
-6.579962 2.479406 23.840443 32 37 28
-6.536489 2.481003 23.855799 34 28 26
-6.493573 2.482837 23.873430 28 17 34
-6.448300 2.483789 23.882591 44 17 33
-6.403048 2.484765 23.891972 41 42 33
-6.356560 2.485272 23.896843 38 23 33
-6.309137 2.485417 23.898245 39 38 33
-6.261702 2.485561 23.899628 40 27 17
-6.213662 2.485465 23.898701 24 19 33
-6.165856 2.485462 23.898668 35 20 25
-6.118213 2.485524 23.899269 38 40 29
-6.070781 2.485674 23.900713 33 36 24
-6.023459 2.485872 23.902615 20 21 24
-5.976028 2.486028 23.904112 23 40 15
-5.929731 2.486661 23.910204 32 17 18
-5.883869 2.487489 23.918167 20 21 17
-5.838094 2.488368 23.926615 38 38 21
-5.792188 2.489205 23.934662 39 25 35
-5.745269 2.489617 23.938622 43 31 30
-5.697850 2.489817 23.940548 42 21 27
-5.649264 2.489506 23.937561 26 23 31
-5.600875 2.489278 23.935362 35 35 39
-5.553475 2.489489 23.937393 35 27 39
-5.506511 2.489901 23.941353 32 18 16
-5.463005 2.491897 23.960548 33 22 35
-5.419905 2.494116 23.981882 29 44 44
-5.378889 2.497341 24.012897 31 23 19
-5.339604 2.501436 24.052271 19 31 15
-5.297913 2.504468 24.081423 44 15 15
-5.263054 2.510815 24.142448 33 44 38
-5.226426 2.516427 24.196415 120 120 120
-5.192674 2.523542 24.264832 120 120 120
-5.164312 2.533436 24.359964 120 120 120
-5.130708 2.540922 24.431942 25 34 31
-5.105484 2.552742 24.545597 29 42 38
-5.074253 2.561759 24.632298 19 36 29
-5.044365 2.571637 24.727280 35 43 16
-5.022298 2.585737 24.862860 28 29 23
-4.992451 2.596074 24.962254 19 24 20
-4.969528 2.610257 25.098627 17 37 38
-4.938561 2.620461 25.196741 20 19 22
-4.904961 2.629464 25.283306 31 21 21
-4.875123 2.640691 25.391264 19 34 24
-4.836293 2.647234 25.454176 28 38 31
-4.802764 2.656848 25.546618 28 15 21
-4.764859 2.664222 25.617521 20 32 33
-4.725638 2.671013 25.682814 30 20 28
-4.688997 2.679427 25.763718 41 42 44
-4.646119 2.684424 25.811769 17 33 40
-4.608710 2.692730 25.891630 16 15 41
-4.568828 2.699762 25.959249 15 36 15
-4.528645 2.706777 26.026697 36 17 29
-4.490675 2.715292 26.108576 21 38 24
-4.447012 2.720525 26.158895 37 26 36
-4.407087 2.728197 26.232660 31 42 25
-4.363554 2.733793 26.286470 43 35 34
-4.319758 2.739359 26.339989 25 15 37
-4.279347 2.747235 26.415720 43 19 33
-4.234983 2.752739 26.468641 16 24 33
-4.193664 2.760386 26.542175 29 32 26
-4.148415 2.765610 26.592405 34 20 38
-4.102863 2.770765 26.641970 27 16 23
-4.060291 2.778094 26.712439 19 17 28
-4.014201 2.783180 26.761343 24 28 20
-3.972761 2.791670 26.842981 26 28 16
-3.929260 2.798925 26.912737 25 18 22
-3.885481 2.806181 26.982508 34 28 23
-3.843088 2.814656 27.064001 25 24 40
-3.795713 2.819672 27.112234 30 30 41
-3.751799 2.827442 27.186947 37 35 39
-3.705374 2.833521 27.245394 17 44 35
-3.658680 2.839572 27.303581 23 38 33
-3.614593 2.847861 27.383278 25 33 26
-3.566943 2.853555 27.438025 31 42 16
-3.519911 2.859928 27.499308 25 32 25
-3.468634 2.863000 27.528845 18 40 18
-3.416547 2.865491 27.552801 36 39 33
-3.367073 2.870292 27.598961 15 28 15
-3.316149 2.873996 27.634577 29 42 30
-8.586204 2.528160 23.850567 15 38 24
-8.495465 2.515417 23.730350 26 23 35
-8.418980 2.506775 23.648819 15 33 27
-8.348326 2.499781 23.582842 19 39 39
-8.273481 2.491446 23.504208 20 15 29
-8.211948 2.487047 23.462709 19 30 27
-8.146989 2.481554 23.410889 34 33 35
-8.087376 2.477635 23.373919 34 44 15
-8.032517 2.475136 23.350340 22 34 26
-7.977717 2.472626 23.326658 30 18 44
-7.928912 2.471955 23.320330 35 32 22
-7.882879 2.472145 23.322126 21 24 34
-7.838828 2.472964 23.329845 41 25 32
-7.797402 2.474625 23.345516 35 17 16
-7.757191 2.476693 23.365032 42 15 37
-7.715711 2.478380 23.380943 20 18 15
-7.675480 2.480490 23.400852 21 26 23
