ply
format ascii 1.0
element vertex 1256
property float x
property float y
property float z
property uchar red
property uchar green
property uchar blue
end_header
-6.911812 2.404109 21.465256 18 16 27
-6.880750 2.408262 21.502342 19 32 44
-6.856122 2.414735 21.560133 31 33 34
-6.827605 2.419911 21.606346 27 42 26
-6.798589 2.424974 21.651556 25 21 43
-6.773072 2.431359 21.708563 15 44 17
-6.740828 2.435396 21.744608 19 27 23
-6.712257 2.440821 21.793041 35 30 42
-6.678906 2.444567 21.826490 20 19 17
-6.644202 2.447864 21.855927 30 40 41
-6.612613 2.452360 21.896069 42 19 35
-6.576510 2.455230 21.921700 36 27 15
-6.542899 2.459076 21.956038 15 20 18
-6.505808 2.461657 21.979080 18 27 17
-6.468073 2.464028 22.000248 42 34 30
-6.432929 2.467425 22.030579 44 31 17
-6.394818 2.469723 22.051098 43 30 43
-6.359563 2.473164 22.081818 21 42 26
-6.321966 2.475735 22.104776 39 42 34
-6.284318 2.478323 22.127880 20 28 41
-6.248802 2.481794 22.158873 35 27 15
-6.210324 2.484130 22.179729 25 42 43
-6.174919 2.487737 22.211939 37 41 29
-6.137875 2.490732 22.238676 18 43 16
-6.100035 2.493445 22.262901 27 17 26
-6.062805 2.496449 22.289722 36 28 34
-6.022012 2.498020 22.303749 17 32 34
-5.982066 2.499968 22.321140 15 41 39
-5.940397 2.501220 22.332321 42 20 40
-5.897931 2.502152 22.340647 25 42 15
-5.856239 2.503430 22.352057 17 19 24
-5.813212 2.504153 22.358509 21 35 31
-5.771242 2.505345 22.369156 27 29 44
-5.728589 2.506258 22.377302 44 30 18
-5.686164 2.507285 22.386471 42 39 16
-5.644735 2.508771 22.399740 40 25 32
-5.602388 2.509870 22.409552 32 23 30
-5.561529 2.511658 22.425520 20 34 17
-5.520110 2.513221 22.439470 25 32 31
-5.478353 2.514654 22.452265 15 23 41
-5.436948 2.516273 22.466726 35 28 16
-5.393924 2.517165 22.474684 36 30 19
-5.349735 2.517522 22.477877 18 20 20
-5.304108 2.517204 22.475033 27 26 28
-5.257272 2.516301 22.466976 25 32 30
-5.210233 2.515285 22.457901 29 37 43
-5.163586 2.514442 22.450375 40 36 33
-5.116193 2.513217 22.439442 28 23 22
-5.069135 2.512138 22.429800 37 28 39
-5.022673 2.511337 22.422649 16 43 17
-4.976092 2.510461 22.414829 26 38 28
-4.930433 2.510039 22.411060 29 24 24
-4.888649 2.511599 22.424994 29 42 15
-4.848322 2.513945 22.445936 120 120 120
-4.810786 2.517795 22.480310 120 120 120
-4.775599 2.522958 22.526409 120 120 120
-4.738290 2.527088 22.563284 33 26 44
-4.705011 2.533468 22.620247 37 41 18
-4.668585 2.538260 22.663036 23 34 36
-4.632687 2.543436 22.709248 18 44 15
-4.600651 2.550856 22.775501 30 35 40
-4.564808 2.556293 22.824041 30 16 28
-4.531074 2.563032 22.884212 34 37 19
-4.492197 2.566970 22.919374 30 25 41
-4.452582 2.570563 22.951452 26 28 35
-4.416625 2.576364 23.003254 24 27 27
-4.377827 2.580614 23.041193 44 33 26
-4.342732 2.587160 23.099640 15 15 40
-4.305012 2.592265 23.145227 43 37 19
-4.267137 2.597388 23.190962 21 26 29
-4.231300 2.603877 23.248901 34 32 44
-4.191480 2.608032 23.285997 27 21 18
-4.155275 2.614555 23.344240 20 39 39
-4.117020 2.619922 23.392160 36 44 19
-4.078140 2.625010 23.437586 24 40 20
-4.040491 2.631018 23.491228 34 33 37
-3.998810 2.634510 23.522413 21 41 32
-3.958810 2.639207 23.564344 42 20 31
-3.916478 2.642443 23.593239 29 43 28
-3.873447 2.645281 23.618582 30 17 23
-3.831875 2.649198 23.653551 31 23 36
-3.788167 2.651717 23.676044 36 20 38
-3.745839 2.655279 23.707844 19 30 15
-3.701780 2.657688 23.729361 19 29 31
-3.657753 2.660184 23.751642 31 31 39
-3.615116 2.663770 23.783659 25 27 17
-3.570945 2.666305 23.806297 19 41 37
-3.530219 2.671517 23.852831 36 22 30
-3.489150 2.676608 23.898285 43 15 28
-3.448331 2.682035 23.946743 17 29 15
-3.408075 2.688059 24.000526 37 38 29
-3.364489 2.691591 24.032063 37 31 23
-3.322926 2.696868 24.079176 29 22 29
-3.279783 2.700998 24.116053 20 29 19
-3.236127 2.704822 24.150198 31 33 40
-3.193781 2.709875 24.195312 41 42 16
-3.149185 2.713144 24.224501 44 41 24
-3.103820 2.715842 24.248592 16 20 22
-3.055441 2.715948 24.249535 23 40 22
-3.006698 2.715727 24.247561 42 33 34
-2.960136 2.717502 24.263407 25 21 17
-2.913854 2.719597 24.282114 15 43 20
-7.440056 2.409564 21.136522 29 19 38
-7.398691 2.409859 21.139116 30 41 17
-7.356247 2.409805 21.138641 41 37 29
-7.311943 2.409137 21.132784 33 16 29
-7.268364 2.408702 21.128965 20 41 38
-7.227758 2.409253 21.133797 33 24 24
-7.188635 2.410307 21.143044 31 44 36
-7.151732 2.412123 21.158972 24 35 16
-7.113028 2.413349 21.169727 22 19 34
-7.076173 2.415221 21.186148 30 40 30
-7.042498 2.418207 21.212343 37 42 33
-7.007335 2.420716 21.234348 17 17 27
-6.979743 2.425886 21.279703 32 30 30
-6.951274 2.430814 21.322926 34 30 22
-6.924351 2.436346 21.371454 36 24 17
-6.899997 2.442856 21.428562 41 18 24
-6.868801 2.447010 21.465002 20 19 29
-6.843981 2.453502 21.521952 35 16 34
-6.815373 2.458710 21.567635 28 36 33
-6.786272 2.463806 21.612331 17 36 29
-6.760612 2.470224 21.668629 44 20 30
-6.728287 2.474273 21.704151 23 38 33
-6.699569 2.479710 21.751846 15 39 40
-6.666094 2.483447 21.784622 24 39 22
-6.631337 2.486752 21.813610 36 28 38
-6.599761 2.491300 21.853512 21 39 43
-6.563781 2.494237 21.879269 17 15 35
-6.530349 2.498187 21.913921 31 32 15
-6.493455 2.500858 21.937349 20 15 36
-6.455895 2.503306 21.958828 33 27 23
-6.420862 2.506775 21.989252 15 25 37
-6.382801 2.509101 22.009657 23 36 40
-6.347578 2.512583 22.040203 32 26 16
-6.310048 2.515194 22.063107 38 33 21
-6.272428 2.517806 22.086016 18 28 36
-6.236906 2.521303 22.116690 22 36 36
-6.198433 2.523648 22.137262 31 18 15
-6.162904 2.527234 22.168720 40 21 34
-6.125699 2.530180 22.194563 16 34 35
-6.087703 2.532840 22.217894 27 29 23
-6.050349 2.535808 22.243931 40 17 22
-6.009554 2.537367 22.257608 21 41 44
-5.969717 2.539357 22.275064 33 39 38
-5.928249 2.540678 22.286652 24 41 34
-5.886059 2.541707 22.295679 34 39 39
-5.844633 2.543084 22.307758 30 21 27
-5.801811 2.543871 22.314659 21 15 40
-5.760108 2.545164 22.326000 38 23 16
-5.717685 2.546156 22.334705 25 25 44
-5.675501 2.547272 22.344492 22 21 26
-5.634384 2.548888 22.358667 15 22 20
-5.592287 2.550083 22.369146 24 33 26
-5.551791 2.552033 22.386253 33 43 42
-5.510684 2.553732 22.401155 15 25 35
-5.469260 2.555310 22.414999 15 30 35
-5.428276 2.557122 22.430893 25 40 34
-5.385566 2.558144 22.439857 28 16 22
-5.341768 2.558662 22.444403 30 38 27
-5.296374 2.558418 22.442265 15 23 32
-5.249818 2.557603 22.435118 40 42 29
-5.203331 2.556809 22.428152 37 29 16
-5.157205 2.556180 22.422630 31 23 35
-5.110217 2.555108 22.413231 22 39 19
-5.063320 2.554064 22.404070 28 22 22
-5.016796 2.553191 22.396410 41 31 24
-4.970082 2.552204 22.387756 23 35 42
-4.924249 2.551656 22.382948 29 42 23
-4.882085 2.553017 22.394886 30 19 39
-4.841442 2.555206 22.414085 120 120 120
-4.803526 2.558888 22.446383 120 120 120
-4.767853 2.563846 22.489874 120 120 120
-4.730237 2.567843 22.524937 36 43 36
-4.696457 2.574020 22.579119 23 28 25
-4.659657 2.578645 22.619692 32 25 20
-4.623400 2.583665 22.663725 34 35 33
-4.590887 2.590897 22.727163 31 24 40
-4.554772 2.596220 22.773861 27 30 35
-4.520656 2.602802 22.831594 28 39 19
-4.481549 2.606615 22.865046 35 26 39
-4.441775 2.610115 22.895748 30 19 43
-4.405585 2.615816 22.945753 36 27 27
-4.366717 2.620030 22.982719 43 29 18
-4.331518 2.626559 23.039988 40 43 30
-4.293764 2.631662 23.084751 15 40 33
-4.255934 2.636829 23.130077 37 23 26
-4.220204 2.643425 23.187937 42 41 19
-4.180568 2.647693 23.225380 36 21 15
-4.144610 2.654413 23.284327 26 18 17
-4.106593 2.659952 23.332914 31 21 43
-4.067968 2.665220 23.379126 40 18 25
-4.030604 2.671447 23.433746 15 21 24
-3.989151 2.675078 23.465595 22 35 22
-3.949458 2.679989 23.508677 33 21 15
-3.907430 2.683416 23.538736 24 16 23
-3.864664 2.686413 23.565025 17 28 18
-3.823316 2.690482 23.600716 23 30 40
-3.779719 2.693050 23.623241 17 25 26
-3.737485 2.696666 23.654966 22 40 32
-3.693497 2.699094 23.676266 21 30 29
-3.649544 2.701610 23.698336 38 43 17
-3.607029 2.705271 23.730452 42 39 29
-3.563002 2.707882 23.753347 43 37 26
-3.522438 2.713229 23.800257 23 44 25
-3.481495 2.718428 23.845858 36 24 24
-3.440832 2.723992 23.894665 41 19 16
-3.400793 2.730214 23.949245 29 15 30
-3.357419 2.733899 23.981567 34 22 38
-3.316152 2.739430 24.030090 18 22 21
-3.273205 2.743716 24.067686 31 37 23
-3.229862 2.747793 24.103451 27 35 28
-3.188139 2.753393 24.152571 17 15 38
-3.144166 2.757192 24.185896 39 43 28
-3.099313 2.760326 24.213383 25 15 17
-3.051105 2.760523 24.215118 15 26 30
-3.002355 2.760229 24.212538 24 26 25
-2.955822 2.761998 24.228048 26 25 29
-2.909541 2.764064 24.246178 19 26 22
-7.426062 2.447225 21.096767 25 41 37
-7.384948 2.447583 21.099852 17 37 42
-7.342792 2.447597 21.099976 43 26 25
-7.298691 2.446960 21.094482 38 34 33
-7.255314 2.446559 21.091030 34 23 38
-7.214965 2.447181 21.096390 40 43 24
-7.176049 2.448299 21.106026 27 18 21
-7.139347 2.450190 21.122330 42 30 42
-7.100781 2.451460 21.133276 33 33 42
-7.064012 2.453369 21.149736 41 38 31
-7.030451 2.456423 21.176058 29 19 31
-6.995371 2.458979 21.198093 32 18 17
-6.967826 2.464231 21.243372 41 36 31
-6.939399 2.469234 21.286501 25 28 29
-6.912458 2.474831 21.334747 19 16 27
-6.887992 2.481388 21.391279 41 38 42
-6.856687 2.485549 21.427147 19 31 15
-6.831656 2.492051 21.483194 29 40 17
-6.802914 2.497272 21.528210 19 39 16
-6.773662 2.502372 21.572172 25 42 34
-6.747756 2.508781 21.627422 15 30 27
-6.715284 2.512816 21.662207 19 35 16
-6.686378 2.518246 21.709019 20 16 23
-6.652787 2.521972 21.741135 32 44 30
-6.618022 2.525298 21.769808 19 30 16
-6.586542 2.529930 21.809740 29 42 24
-6.550762 2.532961 21.835873 20 40 26
-6.517575 2.537043 21.871058 15 41 32
-6.480900 2.539812 21.894934 44 40 22
-6.443529 2.542345 21.916765 25 33 35
-6.408638 2.545897 21.947390 40 30 23
-6.370651 2.548260 21.967762 15 29 26
-6.335480 2.551790 21.998194 16 41 36
-6.298017 2.554440 22.021038 39 19 32
-6.260429 2.557077 22.043764 18 32 18
-6.224920 2.560605 22.074184 32 35 16
-6.186459 2.562962 22.094496 40 27 39
-6.150809 2.566525 22.125212 41 35 30
-6.113417 2.569407 22.150063 40 39 43
-6.075266 2.572011 22.172504 33 21 42
-6.037839 2.574961 22.197939 19 24 39
-5.997111 2.576536 22.211521 22 20 43
-5.957511 2.578624 22.229519 22 28 35
-5.916394 2.580082 22.242085 23 23 21
-5.874589 2.581259 22.252230 33 20 38
-5.833465 2.582755 22.265133 34 42 24
-5.790804 2.583589 22.272322 40 38 27
-5.749326 2.584968 22.284208 37 31 20
-5.707103 2.586031 22.293371 42 34 42
-5.665140 2.587229 22.303701 35 34 34
-5.624310 2.588968 22.318689 20 18 37
-5.582448 2.590256 22.329790 19 24 32
-5.542304 2.592368 22.348001 32 16 31
-5.501495 2.594201 22.363802 28 18 26
-5.460392 2.595924 22.378654 27 26 29
-5.419812 2.597926 22.395916 21 16 35
-5.377412 2.599083 22.405884 17 16 19
-5.334000 2.599765 22.411764 25 33 33
-5.288872 2.599615 22.410475 30 25 36
-5.242599 2.598895 22.404268 19 38 41
-5.196544 2.598272 22.398897 16 15 41
-5.150769 2.597779 22.394648 20 18 41
-5.104170 2.596858 22.386709 21 39 21
-5.057578 2.595925 22.378666 15 33 43
-5.011189 2.595080 22.371380 44 21 29
-4.964433 2.594028 22.362310 22 25 20
-4.918418 2.593348 22.356447 17 41 18
-4.875856 2.594492 22.366312 22 29 37
-4.834877 2.596508 22.383690 120 120 120
-4.796546 2.599997 22.413767 120 120 120
-4.760321 2.604704 22.454344 120 120 120
-4.722335 2.608528 22.487309 33 26 34
-4.687958 2.614438 22.538260 21 44 31
-4.650701 2.618841 22.576220 23 29 28
-4.614015 2.623656 22.617722 34 25 40
-4.580980 2.630662 22.678118 24 31 22
-4.544596 2.635866 22.722982 43 17 24
-4.510044 2.642248 22.778000 44 36 31
-4.470631 2.645884 22.809341 30 25 40
-4.430596 2.649222 22.838123 19 34 19
-4.394063 2.654746 22.885744 23 39 25
-4.355038 2.658865 22.921251 37 30 36
-4.319654 2.665318 22.976881 43 34 35
-4.281826 2.670386 23.020571 22 42 33
-4.244040 2.675591 23.065435 23 17 25
-4.208379 2.682263 23.122959 19 36 22
-4.168915 2.686634 23.160639 15 31 32
-4.133198 2.693545 23.220215 16 24 37
-4.095417 2.699252 23.269413 34 32 35
-4.057075 2.704716 23.316521 22 35 37
-4.020034 2.711186 23.372293 23 33 17
-3.978854 2.714983 23.405025 33 33 21
-3.939515 2.720141 23.449492 17 31 33
-3.897805 2.723767 23.480751 36 20 18
-3.855321 2.726934 23.508055 35 29 43
-3.814235 2.731180 23.544659 40 27 36
-3.770799 2.733829 23.567493 24 15 39
-3.728736 2.737553 23.599594 38 16 15
-3.684880 2.740039 23.621027 17 15 32
-3.641065 2.742621 23.643282 29 20 40
-3.598749 2.746413 23.675978 30 42 44
-3.554917 2.749135 23.699444 39 26 29
-3.514586 2.754675 23.747200 22 40 28
-3.473825 2.760026 23.793324 35 17 39
-3.433365 2.765767 23.842815 38 38 32
-3.393600 2.772236 23.898590 33 30 37
-3.350465 2.776100 23.931896 24 42 43
-3.309542 2.781934 23.982191 41 23 33
-3.266858 2.786438 24.021017 42 29 39
-3.223844 2.790790 24.058538 40 26 31
-3.182641 2.796867 24.110920 40 36 42
-3.139130 2.801070 24.147158 18 28 31
-3.094710 2.804581 24.177420 34 44 35
-3.046727 2.804924 24.180376 42 34 19
-2.998072 2.804648 24.177998 30 42 29
-2.951645 2.806482 24.193810 30 27 37
-2.905407 2.808560 24.211727 41 20 23
-7.408362 2.483485 21.046484 37 43 43
-7.367522 2.483907 21.050062 23 25 22
-7.325675 2.483993 21.050789 32 43 27
-7.281802 2.483389 21.045670 26 39 26
-7.238603 2.483009 21.042452 15 28 42
-7.198418 2.483665 21.048006 43 32 38
-7.159602 2.484803 21.057652 31 27 37
-7.122924 2.486701 21.073740 16 34 40
-7.084358 2.487959 21.084400 19 42 35
-7.047547 2.489852 21.100441 16 39 37
-7.013912 2.492897 21.126242 20 31 29
-6.978816 2.495455 21.147926 18 39 30
-6.951162 2.500723 21.192566 38 32 34
-6.922668 2.505751 21.235178 29 32 43
-6.895626 2.511370 21.282797 30 38 18
-6.870981 2.517937 21.338451 15 42 35
-6.839561 2.522088 21.373629 42 32 39
-6.814320 2.528584 21.428679 26 21 24
-6.785451 2.533808 21.472946 34 40 33
-6.756081 2.538909 21.516182 41 15 26
-6.729971 2.545309 21.570419 28 28 27
-6.697391 2.549329 21.604486 17 28 41
-6.668394 2.554774 21.650629 20 17 33
-6.634791 2.558514 21.682323 16 32 18
-6.600158 2.561903 21.711046 18 30 27
-6.568995 2.566694 21.751640 40 35 27
-6.533628 2.569894 21.778759 21 34 44
-6.500792 2.574139 21.814737 42 33 22
-6.464263 2.576970 21.838726 17 34 43
-6.426957 2.579527 21.860399 19 31 34
-6.392177 2.583140 21.891016 43 17 28
-6.354289 2.585538 21.911341 19 43 26
-6.319240 2.589133 21.941807 18 42 26
-6.281927 2.591844 21.964779 41 25 26
-6.244490 2.594542 21.987640 31 26 17
-6.209093 2.598131 22.018059 26 19 36
-6.170723 2.600519 22.038296 15 31 29
-6.135136 2.604123 22.068836 27 37 37
-6.097796 2.607029 22.093464 37 37 31
-6.059722 2.609661 22.115772 39 44 26
-6.022415 2.612665 22.141232 18 40 40
-5.981846 2.614288 22.154985 25 26 20
-5.942512 2.616479 22.173552 42 20 44
-5.901695 2.618045 22.186823 36 42 17
-5.860205 2.619334 22.197744 40 17 40
-5.819360 2.620933 22.211296 35 38 16
-5.776873 2.621811 22.218740 38 39 18
-5.735619 2.623268 22.231081 35 44 31
-5.693598 2.624393 22.240618 24 34 19
-5.651855 2.625665 22.251398 17 18 39
-5.611297 2.627512 22.267052 24 24 33
-5.569673 2.628885 22.278690 42 25 39
-5.529876 2.631151 22.297886 34 34 21
-5.489372 2.633113 22.314520 37 36 27
-5.448621 2.634989 22.330412 39 30 42
-5.408472 2.637189 22.349058 33 18 37
-5.366409 2.638485 22.360039 28 20 41
-5.323443 2.639354 22.367407 44 19 25
-5.278648 2.639324 22.367151 24 36 40
-5.232718 2.638721 22.362043 38 20 28
-5.187112 2.638273 22.358242 37 37 35
-5.141683 2.637907 22.355145 32 44 42
-5.095605 2.637199 22.349146 15 15 33
-5.049577 2.636505 22.343260 43 34 29
-5.003572 2.635810 22.337376 44 33 18
-4.956947 2.634774 22.328590 34 25 32
-4.910783 2.633965 22.321739 21 37 36
-4.867849 2.634891 22.329584 36 17 32
-4.826559 2.636732 22.345182 120 120 120
-4.787799 2.640001 22.372892 120 120 120
-4.750985 2.644416 22.410307 120 120 120
-4.712590 2.648027 22.440903 29 38 40
-4.677528 2.653598 22.488117 24 19 19
-4.639749 2.657720 22.523052 17 28 32
-4.602555 2.662262 22.561544 35 36 21
-4.568894 2.668958 22.618286 16 16 29
-4.532185 2.673989 22.660927 21 20 23
-4.497100 2.680090 22.712627 27 21 31
-4.457312 2.683484 22.741390 30 16 26
-4.416955 2.686601 22.767809 44 26 29
-4.379993 2.691871 22.812464 40 44 43
-4.340770 2.695847 22.846159 20 25 42
-4.305135 2.702159 22.899652 15 44 26
-4.267204 2.707151 22.941957 21 24 26
-4.229425 2.712349 22.986006 15 36 33
-4.193780 2.719044 23.042746 30 34 16
-4.154450 2.723473 23.080280 28 42 35
-4.118892 2.730501 23.139843 40 36 44
-4.081282 2.736314 23.189104 34 26 30
-4.043143 2.741901 23.236452 29 41 37
-4.006330 2.748529 23.292616 18 25 28
-3.965366 2.752430 23.325682 31 19 38
-3.926297 2.757756 23.370817 37 28 16
-3.884861 2.761528 23.402777 34 25 30
-3.842638 2.764825 23.430721 44 26 26
-3.801781 2.769198 23.467781 20 41 41
-3.758506 2.771898 23.490662 31 22 15
-3.716628 2.775709 23.522961 36 35 36
-3.672953 2.778259 23.544571 33 39 34
-3.629341 2.780924 23.567152 18 33 20
-3.587276 2.784859 23.600498 28 42 42
-3.543686 2.787700 23.624575 23 42 37
-3.503640 2.793443 23.673244 30 37 30
-3.463117 2.798958 23.719980 34 20 26
-3.422913 2.804887 23.770227 23 16 17
-3.383473 2.811619 23.827278 28 21 29
-3.340628 2.815673 23.861631 30 20 40
-3.300086 2.821813 23.913666 26 40 31
-3.257695 2.826530 23.953640 38 18 26
-3.215051 2.831164 23.992918 37 40 44
-3.174441 2.837758 24.048794 26 32 18
-3.131473 2.842414 24.088257 20 29 42
-3.087599 2.846380 24.121866 26 18 39
-3.039939 2.846927 24.126497 39 42 25
-2.991482 2.846733 24.124853 35 41 19
-2.945274 2.848707 24.141586 21 15 33
-2.899167 2.850848 24.159727 25 39 42
-7.397160 2.521759 21.014660 27 32 17
-7.356461 2.522215 21.018461 31 20 15
-7.314768 2.522334 21.019447 30 43 38
-7.271039 2.521748 21.014563 32 32 34
-7.227903 2.521361 21.011345 18 34 32
-7.187688 2.521996 21.016630 34 16 41
-7.148778 2.523098 21.025818 38 37 30
-7.111932 2.524946 21.041220 28 38 41
-7.073241 2.526158 21.051313 17 20 19
-7.036295 2.528010 21.066751 19 23 26
-7.002502 2.531025 21.091873 20 16 26
-6.967332 2.533575 21.113127 15 16 31
-6.939520 2.538849 21.157072 25 27 32
-6.910899 2.543889 21.199078 16 27 17
-6.883739 2.549533 21.246107 22 42 16
-6.858950 2.556130 21.301086 18 22 24
-6.827479 2.560304 21.335871 23 22 35
-6.802125 2.566840 21.390329 25 41 15
-6.773177 2.572092 21.434103 17 38 21
-6.743744 2.577227 21.476891 42 34 32
-6.717519 2.583661 21.530508 38 37 43
-6.684894 2.587701 21.564173 21 19 43
-6.655908 2.593211 21.610090 23 37 28
-6.622367 2.597007 21.641722 21 18 43
-6.587926 2.600497 21.670811 41 16 32
-6.557113 2.605475 21.712296 17 19 36
-6.522133 2.608853 21.740444 41 28 24
-6.489576 2.613252 21.777102 23 31 24
-6.453084 2.616115 21.800961 37 41 41
-6.415735 2.618668 21.822229 27 41 37
-6.380992 2.622325 21.852711 42 17 44
-6.343174 2.624762 21.873014 20 21 25
-6.308239 2.628433 21.903608 41 30 30
-6.271059 2.631213 21.926779 42 40 39
-6.233777 2.633990 21.949921 37 25 18
-6.198515 2.637666 21.980549 20 35 30
-6.160238 2.640102 22.000851 21 26 44
-6.124818 2.643806 22.031719 30 15 39
-6.087649 2.646804 22.056698 18 15 25
-6.049775 2.649536 22.079470 28 38 39
-6.012680 2.652653 22.105442 28 23 22
-5.972278 2.654346 22.119549 15 23 20
-5.933155 2.656637 22.138638 16 17 27
-5.892520 2.658280 22.152330 28 28 26
-5.851184 2.659629 22.163576 38 24 41
-5.810473 2.661286 22.177380 31 26 28
-5.768064 2.662183 22.184860 44 40 33
-5.726905 2.663677 22.197306 16 32 37
-5.684972 2.664831 22.206923 31 19 15
-5.643330 2.666140 22.217834 39 27 33
-5.602891 2.668044 22.233696 34 41 18
-5.561374 2.669459 22.245495 22 36 39
-5.521743 2.671811 22.265095 19 41 15
-5.481399 2.673853 22.282110 17 15 19
-5.440831 2.675818 22.298487 40 34 31
-5.400911 2.678138 22.317816 41 32 30
-5.359034 2.679517 22.329309 31 39 22
-5.316331 2.680503 22.337524 38 37 33
-5.271765 2.680558 22.337986 34 17 23
-5.226049 2.680025 22.333544 37 42 23
-5.180630 2.679636 22.330303 42 39 27
-5.135295 2.679284 22.327370 22 16 18
-5.089559 2.678715 22.322626 41 20 25
-5.044044 2.678253 22.318779 30 35 40
-4.998499 2.677767 22.314728 39 32 41
-4.952091 2.676806 22.306717 19 16 22
-4.905879 2.675934 22.299448 28 16 19
-4.862764 2.676751 22.306255 24 30 21
-4.821326 2.678514 22.320953 120 120 120
-4.782318 2.681674 22.347282 120 120 120
-4.745162 2.685941 22.382839 120 120 120
-4.706506 2.689432 22.411932 32 29 42
-4.671003 2.694809 22.456745 20 28 44
-4.632877 2.698763 22.489695 20 17 21
-4.595345 2.703144 22.526199 20 28 38
-4.561287 2.709675 22.580627 42 18 31
-4.524379 2.714627 22.621895 32 39 34
-4.488938 2.720569 22.671406 41 21 34
-4.448884 2.723806 22.698387 20 29 28
-4.408282 2.726773 22.723104 33 19 33
-4.370999 2.731874 22.765619 16 15 24
-4.331615 2.735757 22.797974 23 37 44
-4.295780 2.741987 22.849892 25 43 22
-4.257758 2.746941 22.891174 15 30 41
-4.219959 2.752147 22.934561 16 21 21
-4.184272 2.758860 22.990503 44 33 43
-4.144986 2.763324 23.027699 36 25 19
-4.109449 2.770415 23.086792 26 30 29
-4.071881 2.776283 23.135689 22 32 43
-4.033805 2.781934 23.182787 18 16 23
-3.997051 2.788640 23.238670 25 33 39
-3.956178 2.792596 23.271637 28 23 40
-3.917210 2.798007 23.316725 19 34 15
-3.875889 2.801847 23.348728 21 36 21
-3.833785 2.805209 23.376740 24 18 28
-3.793036 2.809656 23.413801 38 19 37
-3.749861 2.812396 23.436632 44 39 34
-3.708119 2.816293 23.469107 36 27 37
-3.664588 2.818913 23.490946 42 41 31
-3.621148 2.821674 23.513950 23 35 43
-3.579274 2.825742 23.547853 37 17 19
-3.535858 2.828686 23.572386 30 41 32
-3.496021 2.834612 23.621765 21 38 15
-3.455675 2.840281 23.669006 22 27 29
-3.415655 2.846379 23.719826 44 35 44
-3.376434 2.853325 23.777706 33 20 44
-3.333775 2.857522 23.812679 32 44 26
-3.293475 2.863891 23.865759 16 30 24
-3.251277 2.868774 23.906452 17 20 36
-3.208856 2.873602 23.946686 31 43 44
-3.168547 2.880497 24.004143 22 27 39
-3.125844 2.885395 24.044956 20 20 17
-3.082285 2.889643 24.080355 39 40 22
-3.034875 2.890357 24.086311 29 29 20
-2.986633 2.890290 24.085749 27 36 27
-2.940650 2.892443 24.103691 18 31 15
-2.894687 2.894687 24.122393 16 17 38
-7.380884 2.558147 20.968420 35 20 35
-7.340260 2.558605 20.972172 27 44 27
-7.298633 2.558716 20.973083 33 23 38
-7.255023 2.558129 20.968273 28 38 44
-7.211886 2.557704 20.964785 25 21 36
-7.171494 2.558252 20.969280 34 37 44
-7.132385 2.559267 20.977602 39 34 16
-7.095279 2.561018 20.991949 35 37 44
-7.056472 2.562171 21.001404 32 27 40
-7.019484 2.564003 21.016420 30 17 29
-6.985653 2.567017 21.041124 27 33 36
-6.950560 2.569601 21.062302 21 34 16
-6.922721 2.574915 21.105858 22 39 32
-6.894034 2.579976 21.147345 39 19 32
-6.866779 2.585639 21.193764 43 26 15
-6.841899 2.592272 21.248133 38 33 24
-6.810426 2.596475 21.282581 40 37 38
-6.784910 2.603016 21.336195 24 29 26
-6.755812 2.608256 21.379150 21 36 40
-6.726166 2.613351 21.420912 42 38 41
-6.699596 2.619714 21.473064 42 23 21
-6.666731 2.623681 21.505583 24 29 25
-6.637562 2.629164 21.550528 38 33 18
-6.604008 2.632971 21.581726 31 42 15
-6.569742 2.636541 21.610994 15 33 35
-6.539231 2.641676 21.653084 37 17 44
-6.504642 2.645221 21.682138 31 32 23
-6.472392 2.649771 21.719437 30 44 26
-6.435973 2.652664 21.743151 28 36 39
-6.398687 2.655238 21.764242 35 32 42
-6.364190 2.659011 21.795172 26 41 15
-6.326683 2.661570 21.816147 20 29 17
-6.292079 2.665395 21.847496 32 31 20
-6.255128 2.668271 21.871077 19 27 38
-6.218051 2.671135 21.894547 23 22 29
-6.183046 2.674935 21.925695 44 21 26
-6.144979 2.677455 21.946352 16 29 23
-6.109848 2.681300 21.977869 25 16 30
-6.072942 2.684416 22.003412 22 18 43
-6.035344 2.687270 22.026802 37 40 30
-5.998583 2.690541 22.053614 16 37 20
-5.958437 2.692331 22.068287 38 42 31
-5.919664 2.694772 22.088299 31 43 38
-5.879367 2.696552 22.102884 16 24 29
-5.838329 2.698016 22.114883 27 28 18
-5.797880 2.699776 22.129313 16 31 40
-5.755610 2.700709 22.136963 18 15 42
-5.714627 2.702265 22.149715 19 20 25
-5.672850 2.703468 22.159571 37 39 27
-5.631372 2.704832 22.170757 22 25 31
-5.591113 2.706809 22.186958 16 39 24
-5.549750 2.708278 22.198999 34 33 40
-5.510337 2.710730 22.219101 16 18 39
-5.470195 2.712861 22.236567 37 41 37
-5.429856 2.714928 22.253510 39 19 17
-5.390219 2.717383 22.273634 36 24 33
-5.348575 2.718859 22.285728 32 19 37
-5.306198 2.719984 22.294950 43 42 26
-5.261921 2.720146 22.296276 33 29 37
-5.216502 2.719714 22.292742 31 17 41
-5.171368 2.719426 22.290379 30 35 40
-5.126203 2.719116 22.287838 36 25 39
-5.081006 2.718784 22.285112 30 35 40
-5.036262 2.718690 22.284346 30 35 40
-4.991393 2.718526 22.283003 30 35 40
-4.945343 2.717711 22.276318 41 23 25
-4.899090 2.716768 22.268589 38 32 16
-4.855765 2.717447 22.274153 20 34 21
-4.814150 2.719103 22.287731 120 120 120
-4.774826 2.722097 22.312269 120 120 120
-4.737199 2.726124 22.345280 120 120 120
-4.698185 2.729422 22.372309 33 17 39
-4.662053 2.734474 22.413717 44 23 38
-4.623428 2.738147 22.443827 41 24 32
-4.585385 2.742240 22.477377 42 38 24
-4.550695 2.748439 22.528193 33 37 35
-4.513439 2.753198 22.567196 17 17 22
-4.477391 2.758797 22.613087 29 17 32
-4.436876 2.761729 22.637123 23 37 19
-4.395834 2.764391 22.658939 20 38 36
-4.357961 2.769121 22.697716 28 37 26
-4.318252 2.772772 22.727642 30 32 42
-4.281990 2.778738 22.776545 38 16 32
-4.243747 2.783533 22.815845 28 29 21
-4.205828 2.788647 22.857761 28 42 35
-4.169954 2.795244 22.911837 23 35 29
-4.130645 2.799659 22.948029 37 27 33
-4.095039 2.806712 23.005835 28 15 41
-4.057469 2.812564 23.053801 30 29 35
-4.019440 2.818228 23.100231 29 16 30
-3.982719 2.824952 23.155344 43 44 26
-3.941952 2.828931 23.187956 31 42 39
-3.903122 2.834410 23.232872 30 30 27
-3.861975 2.838319 23.264912 44 17 37
-3.820089 2.841774 23.293226 41 18 23
-3.779558 2.846334 23.330603 25 42 21
-3.736592 2.849152 23.353703 23 43 38
-3.695154 2.853220 23.387051 41 42 22
-3.651928 2.855995 23.409796 20 15 22
-3.608837 2.858949 23.434008 18 20 33
-3.567369 2.863283 23.469532 43 44 35
-3.524294 2.866426 23.495293 24 15 40
-3.484869 2.872662 23.546410 17 26 17
-3.444854 2.878576 23.594889 34 21 22
-3.405159 2.884926 23.646936 44 39 18
-3.366320 2.892190 23.706478 16 28 26
-3.323958 2.896592 23.742558 38 37 41
-3.284016 2.903260 23.797215 37 36 31
-3.242104 2.908358 23.838999 23 32 41
-3.199975 2.913410 23.880413 23 35 21
-3.160047 2.920649 23.939747 17 24 17
-3.117665 2.925808 23.982035 27 28 26
-3.074471 2.930356 24.019308 38 41 20
-3.027346 2.931240 24.026556 37 43 41
-2.979349 2.931295 24.027012 41 37 16
-2.933632 2.933632 24.046167 27 29 27
-2.887866 2.935997 24.065548 32 24 44
-7.368918 2.595869 20.934425 32 31 29
-7.328257 2.596297 20.937878 16 24 30
-7.286500 2.596339 20.938217 18 18 38
-7.242826 2.595695 20.933023 30 39 17
-7.199541 2.595183 20.928898 18 43 28
-7.158834 2.595601 20.932262 34 23 15
-7.119446 2.596504 20.939548 27 19 38
-7.082060 2.598152 20.952839 43 36 16
-7.043135 2.599252 20.961712 42 16 30
-7.006147 2.601085 20.976488 20 34 30
-6.972374 2.604140 21.001125 42 43 41
-6.937434 2.606793 21.022528 43 26 16
-6.909705 2.612206 21.066174 34 16 40
-6.881066 2.617338 21.107565 30 24 16
-6.853835 2.623073 21.153811 27 30 40
-6.828990 2.629797 21.208044 39 17 28
-6.797589 2.634066 21.242464 18 22 36
-6.771988 2.640650 21.295561 36 22 34
-6.742777 2.645900 21.337902 33 38 23
-6.712917 2.650961 21.378717 21 35 30
-6.685991 2.657253 21.429459 38 40 20
-6.652839 2.661136 21.460772 27 29 28
-6.623408 2.666567 21.504570 22 36 41
-6.589775 2.670366 21.535213 41 19 30
-6.555581 2.673987 21.564411 15 21 38
-6.525214 2.679227 21.606670 33 40 32
-6.490846 2.682883 21.636154 18 36 21
-6.458797 2.687553 21.673815 34 40 27
-6.422434 2.690479 21.697411 42 22 16
-6.385265 2.693105 21.718590 39 27 35
-6.351124 2.697053 21.750425 22 30 30
-6.314035 2.699794 21.772533 42 29 34
-6.279863 2.703830 21.805080 35 19 42
-6.243151 2.706821 21.829199 24 29 37
-6.206269 2.709779 21.853060 31 39 28
-6.171553 2.713733 21.884941 28 32 35
-6.133724 2.716363 21.906157 30 22 44
-6.098892 2.720369 21.938461 18 32 28
-6.062227 2.723609 21.964590 44 26 15
-6.024862 2.726580 21.988546 20 17 18
-5.988386 2.730000 22.016127 25 34 28
-5.948453 2.731882 22.031307 25 38 44
-5.909998 2.734477 22.052231 30 26 16
-5.870009 2.736395 22.067701 18 31 18
-5.829249 2.737981 22.080488 23 34 37
-5.789044 2.739853 22.095587 31 39 16
-5.746896 2.740827 22.103445 33 34 18
-5.706058 2.742447 22.116505 36 28 18
-5.664418 2.743702 22.126633 17 28 31
-5.623064 2.745118 22.138046 21 40 23
-5.582944 2.747163 22.154541 18 23 16
-5.541685 2.748676 22.166740 38 29 31
-5.502409 2.751205 22.187134 19 25 15
-5.462393 2.753401 22.204849 27 20 38
-5.422191 2.755540 22.222095 26 25 34
-5.382722 2.758089 22.242651 27 21 20
-5.341220 2.759631 22.255085 38 29 19
-5.299060 2.760855 22.264957 30 35 40
-5.254964 2.761083 22.266798 30 35 40
-5.209750 2.760722 22.263889 30 35 40
-5.164839 2.760517 22.262236 30 35 40
-5.119830 2.760256 22.260132 30 35 40
-5.075073 2.760128 22.259094 30 35 40
-5.030940 2.760339 22.260798 30 35 40
-4.986605 2.760442 22.261629 30 35 40
-4.940828 2.759742 22.255983 30 35 40
-4.894533 2.758737 22.247877 26 41 23
-4.851054 2.759315 22.252542 18 22 38
-4.809319 2.760906 22.265368 120 120 120
-4.769774 2.763794 22.288662 120 120 120
-4.731808 2.767662 22.319851 120 120 120
-4.692523 2.770823 22.345348 34 20 34
-4.655904 2.775635 22.384155 39 38 16
-4.616887 2.779097 22.412071 21 33 27
-4.578421 2.782962 22.443239 23 29 31
-4.543197 2.788893 22.491074 31 31 19
-4.505619 2.793484 22.528093 27 24 19
-4.469009 2.798774 22.570755 25 32 22
-4.428056 2.801423 22.592123 30 23 40
-4.386568 2.803786 22.611177 15 27 35
-4.348112 2.808156 22.646416 30 44 19
-4.308055 2.811573 22.673975 44 20 30
-4.271334 2.817263 22.719864 40 39 37
-4.232824 2.821883 22.757118 37 24 26
-4.194727 2.826881 22.797430 28 29 41
-4.158601 2.833333 22.849459 22 38 38
-4.119218 2.837683 22.884542 21 28 23
-4.083496 2.844683 22.940990 44 42 25
-4.045886 2.850510 22.987988 38 18 33
-4.007879 2.856189 23.033785 27 16 23
-3.971160 2.862929 23.088140 36 43 39
-3.930476 2.866935 23.120447 37 23 40
-3.891763 2.872492 23.165258 23 17 32
-3.850765 2.876475 23.197378 18 40 43
-3.809081 2.880037 23.226105 26 21 15
-3.768772 2.884739 23.264025 38 17 28
-3.726025 2.887669 23.287657 41 35 26
-3.684908 2.891953 23.322201 37 17 18
-3.641989 2.894914 23.346081 37 42 20
-3.599249 2.898097 23.371746 41 23 25
-3.558197 2.902740 23.409191 42 15 18
-3.515459 2.906113 23.436394 37 32 36
-3.476452 2.912703 23.489540 19 18 26
-3.436774 2.918904 23.539547 18 22 34
-3.397396 2.925536 23.593031 34 32 43
-3.358913 2.933135 23.654314 24 21 33
-3.316800 2.937737 23.691429 42 29 38
-3.277149 2.944684 23.747456 29 32 16
-3.235451 2.949970 23.790081 38 28 40
-3.193519 2.955197 23.832233 18 39 31
-3.153861 2.962718 23.892885 31 33 42
-3.111704 2.968087 23.936182 41 42 37
-3.068734 2.972836 23.974483 38 41 30
-3.021743 2.973779 23.982090 23 19 21
-2.973859 2.973859 23.982737 26 35 17
-2.928293 2.976298 24.002403 32 39 24
-2.882666 2.978754 24.022213 30 21 26
-7.316557 2.633960 20.904448 21 26 17
-7.274691 2.633940 20.904284 27 24 33
-7.231038 2.633268 20.898952 42 38 18
-7.187703 2.632705 20.894485 26 32 18
-7.146784 2.633026 20.897028 44 26 34
-7.107181 2.633838 20.903473 24 15 36
-7.069657 2.635434 20.916145 34 15 15
-7.030758 2.636534 20.924875 36 42 43
-6.993942 2.638433 20.939947 25 39 17
-6.960403 2.641599 20.965071 17 31 17
-6.925730 2.644370 20.987061 30 23 16
-6.898204 2.649920 21.031111 35 33 39
-6.869633 2.655134 21.072495 31 41 17
-6.842396 2.660932 21.118505 18 42 17
-6.817601 2.667757 21.172674 40 16 31
-6.786270 2.672094 21.207094 37 30 44
-6.760548 2.678708 21.259584 42 18 18
-6.731163 2.683945 21.301149 23 37 40
-6.701010 2.688940 21.340797 15 31 17
-6.673619 2.695115 21.389805 30 24 44
-6.640106 2.698882 21.419697 16 19 26
-6.610307 2.704217 21.462036 31 35 18
-6.576553 2.707992 21.492002 34 37 34
-6.542368 2.711639 21.520947 36 26 31
-6.511964 2.716912 21.562796 18 24 26
-6.477648 2.720612 21.592159 32 43 26
-6.445687 2.725358 21.629824 43 28 40
-6.409400 2.728326 21.653379 15 21 33
-6.372426 2.731040 21.674919 19 22 16
-6.338666 2.735178 21.707762 40 31 29
-6.301994 2.738108 21.731012 24 28 33
-6.268209 2.742342 21.764616 34 34 32
-6.231659 2.745416 21.789019 36 35 30
-6.194889 2.748437 21.812988 28 44 19
-6.160402 2.752520 21.845396 38 26 26
-6.122777 2.755250 21.867062 20 26 19
-6.088189 2.759395 21.899961 24 41 36
-6.051712 2.762738 21.926493 30 17 26
-6.014541 2.765811 21.950880 28 16 44
-5.978299 2.769359 21.979042 22 22 25
-5.938555 2.771326 21.994650 35 28 30
-5.900401 2.774069 22.016422 27 20 33
-5.860720 2.776131 22.032784 15 32 20
-5.820251 2.777847 22.046404 27 15 27
-5.780305 2.779841 22.062231 27 43 20
-5.738282 2.780860 22.070316 22 37 20
-5.697608 2.782553 22.083754 25 29 40
-5.656117 2.783870 22.094206 32 16 24
-5.614898 2.785343 22.105896 26 22 38
-5.574920 2.787460 22.122700 16 34 21
-5.533762 2.789016 22.135048 21 28 21
-5.494617 2.791620 22.155712 44 25 32
-5.454711 2.793876 22.173622 39 40 24
-5.414631 2.796080 22.191111 19 43 23
-5.375296 2.798708 22.211967 37 34 37
-5.333911 2.800303 22.224630 30 35 40
-5.291919 2.801604 22.234955 30 35 40
-5.247982 2.801889 22.237211 30 35 40
-5.202954 2.801591 22.234848 30 35 40
-5.158252 2.801464 22.233843 30 35 40
-5.113398 2.801253 22.232164 30 35 40
-5.069067 2.801326 22.232750 30 35 40
-5.025490 2.801822 22.236683 30 35 40
-4.981669 2.802189 22.239594 30 35 40
-4.936217 2.801637 22.235210 38 28 17
-4.889951 2.800608 22.227051 36 15 39
-4.846405 2.801133 22.231216 21 32 40
-4.804603 2.802685 22.243530 120 120 120
-4.764875 2.805487 22.265770 120 120 120
-4.726634 2.809226 22.295443 120 120 120
-4.687125 2.812275 22.319645 44 30 37
-4.650083 2.816878 22.356171 42 24 28
-4.610730 2.820156 22.382187 40 33 15
-4.571897 2.823819 22.411259 42 16 32
-4.536188 2.829504 22.456377 41 38 27
-4.498317 2.833939 22.491583 31 38 15
-4.461197 2.838944 22.531300 20 44 35
-4.419861 2.841339 22.550312 32 44 43
-4.377991 2.843437 22.566963 43 39 24
-4.339010 2.847475 22.599009 40 18 39
-4.298638 2.850676 22.624411 20 21 42
-4.261496 2.856109 22.667530 43 31 21
-4.222748 2.860571 22.702944 20 35 32
-4.184474 2.865455 22.741707 39 44 18
-4.148081 2.871748 22.791655 17 40 33
-4.108590 2.876013 22.825502 19 44 44
-4.072696 2.882920 22.880314 28 44 32
-4.035001 2.888694 22.926140 24 34 43
-3.996963 2.894353 22.971054 20 36 19
-3.960188 2.901068 23.024349 24 34 41
-3.919537 2.905068 23.056099 16 20 20
-3.880892 2.910669 23.100546 35 30 18
-3.840017 2.914712 23.132635 26 41 29
-3.798522 2.918377 23.161720 21 34 33
-3.758426 2.923221 23.200163 34 42 43
-3.715892 2.926265 23.224325 44 31 24
-3.675098 2.930774 23.260113 16 41 22
-3.632492 2.933936 23.285206 44 21 40
-3.590101 2.937356 23.312346 33 33 16
-3.549465 2.942319 23.351742 30 18 16
-3.507055 2.945926 23.380367 15 26 24
-3.468445 2.952865 23.435438 23 38 34
-3.429069 2.959333 23.486773 19 18 19
-3.389964 2.966219 23.541418 44 35 43
-3.351803 2.974135 23.604248 20 23 18
-3.309924 2.978931 23.642311 28 23 26
-3.270531 2.986137 23.699501 22 27 36
-3.229038 2.991608 23.742924 40 38 23
-3.187278 2.996993 23.785658 34 32 42
-3.147801 3.004719 23.846979 23 32 25
-3.105773 3.010211 23.890564 44 33 25
-3.062945 3.015087 23.929260 38 16 24
-3.016076 3.016076 23.937109 19 19 15
-2.968310 3.016186 23.937983 15 29 37
-2.922883 3.018715 23.958059 28 39 44
-7.301114 2.670122 20.860325 32 30 44
-7.259357 2.670108 20.860222 28 20 19
-7.216008 2.669506 20.855515 15 33 34
-7.172944 2.669002 20.851582 22 42 33
-7.132128 2.669334 20.854176 24 26 27
-7.092487 2.670113 20.860256 23 35 37
-7.055105 2.671756 20.873093 24 18 41
-7.016509 2.672956 20.882467 40 24 44
-6.980083 2.675002 20.898453 35 42 37
-6.947019 2.678369 20.924755 29 15 23
-6.912729 2.681301 20.947664 34 44 29
-6.885434 2.686999 20.992176 19 27 15
-6.856862 2.692265 21.033319 19 38 44
-6.829481 2.698066 21.078644 28 41 42
-6.804606 2.704937 21.132317 26 39 16
-6.773268 2.709307 21.166462 16 32 22
-6.747263 2.715880 21.217810 27 28 28
-6.717550 2.721033 21.258068 26 22 30
-6.686938 2.725885 21.295980 43 35 28
-6.658893 2.731854 21.342606 17 24 25
-6.624902 2.735443 21.370651 34 33 39
-6.594617 2.740620 21.411095 16 32 20
-6.560696 2.744344 21.440184 17 23 37
-6.526481 2.747992 21.468687 38 30 18
-6.495908 2.753232 21.509628 22 35 28
-6.461526 2.756918 21.538420 19 42 33
-6.429603 2.761709 21.575850 25 40 37
-6.393482 2.764749 21.599602 38 23 43
-6.356777 2.767576 21.621689 42 30 23
-6.323349 2.771879 21.655306 38 32 31
-6.286983 2.774944 21.679251 25 25 18
-6.253420 2.779298 21.713263 44 15 40
-6.216921 2.782398 21.737486 22 44 41
-6.180147 2.785418 21.761080 43 36 23
-6.145736 2.789554 21.793390 42 42 39
-6.108237 2.792337 21.815132 17 18 39
-6.073777 2.796559 21.848120 39 26 23
-6.037398 2.799953 21.874630 38 33 44
-6.000356 2.803086 21.899109 34 22 41
-5.964283 2.806721 21.927509 30 33 16
-5.924714 2.808753 21.943386 44 39 28
-5.886855 2.811632 21.965876 29 25 22
-5.847506 2.813837 21.983105 35 25 30
-5.807369 2.815694 21.997610 31 15 30
-5.767723 2.817819 22.014212 21 20 21
-5.725873 2.818891 22.022589 17 27 21
-5.685420 2.820674 22.036512 35 22 36
-5.644127 2.822064 22.047373 22 25 16
-5.603099 2.823609 22.059444 18 27 41
-5.563335 2.825821 22.076725 33 37 32
-5.522345 2.827440 22.089378 25 32 35
-5.483411 2.830148 22.110529 20 18 22
-5.443704 2.832496 22.128878 25 44 32
-5.403828 2.834795 22.146837 18 34 19
-5.364724 2.837540 22.168282 30 35 40
-5.323522 2.839212 22.181341 30 35 40
-5.281788 2.840625 22.192385 30 35 40
-5.238071 2.840988 22.195215 30 35 40
-5.193293 2.840776 22.193562 30 35 40
-5.148874 2.840758 22.193424 30 35 40
-5.104226 2.840613 22.192287 30 35 40
-5.060405 2.840929 22.194757 30 35 40
-5.017484 2.841761 22.201258 30 35 40
-4.974261 2.842435 22.206524 30 35 40
-4.929215 2.842070 22.203671 30 35 40
-4.883041 2.841042 22.195642 22 22 32
-4.839448 2.841510 22.199301 20 42 38
-4.797562 2.843000 22.210936 120 120 120
-4.757614 2.845676 22.231842 120 120 120
-4.719053 2.849239 22.259682 120 120 120
-4.679284 2.852135 22.282307 15 24 28
-4.641770 2.856474 22.316202 24 25 31
-4.602056 2.859530 22.340076 30 32 33
-4.562830 2.862952 22.366816 28 39 37
-4.526615 2.868350 22.408987 17 15 35
-4.488437 2.872600 22.442186 22 43 29
-4.450835 2.877307 22.478964 41 29 21
-4.409167 2.879456 22.495749 41 16 37
-4.366986 2.881311 22.510239 28 35 22
-4.327563 2.885042 22.539392 41 38 16
-4.286950 2.888050 22.562893 35 34 34
-4.249478 2.893262 22.603607 17 31 37
-4.210578 2.897602 22.637516 21 35 33
-4.172206 2.902404 22.675032 24 32 38
-4.135609 2.908560 22.723125 17 19 26
-4.096031 2.912733 22.755728 27 20 39
-4.059973 2.919531 22.808840 43 28 33
-4.022202 2.925238 22.853418 15 19 43
-3.984127 2.930852 22.897282 43 20 42
-3.947263 2.937498 22.949203 35 17 16
-3.906625 2.941458 22.980145 43 37 31
-3.868031 2.947071 23.023994 17 35 15
-3.827288 2.951162 23.055954 16 43 21
-3.785996 2.954924 23.085340 25 41 15
-3.746111 2.959890 23.124142 30 42 32
-3.703793 2.963035 23.148708 18 30 33
-3.663310 2.967745 23.185505 33 34 16
-3.621010 2.971085 23.211605 31 28 44
-3.578962 2.974722 23.240015 25 25 38
-3.538720 2.979975 23.281052 37 23 26
-3.496626 2.983788 23.310843 43 21 37
-3.458359 2.991013 23.367290 39 27 19
-3.419224 2.997676 23.419346 22 29 36
-3.380342 3.004749 23.474600 32 31 29
-3.342473 3.012933 23.538540 28 17 28
-3.300847 3.017917 23.577477 28 43 16
-3.261754 3.025395 23.635899 17 34 16
-3.220520 3.031078 23.680296 42 44 28
-3.178990 3.036647 23.723804 39 43 35
-3.139719 3.044576 23.785748 15 35 18
-3.097826 3.050167 23.829430 24 33 34
-3.055204 3.055204 23.868784 35 36 40
-3.008576 3.056331 23.877586 23 42 25
-2.961045 3.056563 23.879398 25 15 33
-2.915832 3.059233 23.900259 38 41 29
-7.290981 2.708079 20.831373 18 20 15
-7.249425 2.708119 20.831682 25 24 33
-7.206463 2.707631 20.827929 19 32 26
-7.163797 2.707249 20.824991 15 35 15
-7.123289 2.707683 20.828331 40 39 29
-7.083769 2.708500 20.834614 18 28 23
-7.046720 2.710277 20.848284 31 31 39
-7.008521 2.711630 20.858692 24 20 39
-6.972524 2.713857 20.875820 25 24 36
-6.939944 2.717448 20.903446 41 44 20
-6.905977 2.720536 20.927202 35 43 25
-6.878861 2.726378 20.972137 23 30 17
-6.850247 2.731694 21.013029 30 22 38
-6.822690 2.737499 21.057686 43 37 28
-6.797690 2.744409 21.110838 37 33 36
-6.766291 2.748806 21.144659 29 18 21
-6.740012 2.755351 21.195005 25 24 27
-6.709998 2.760442 21.234171 27 18 25
-6.679007 2.765194 21.270721 32 16 21
-6.650449 2.771020 21.315540 30 26 21
-6.616101 2.774494 21.342262 40 20 33
-6.585435 2.779567 21.381281 35 44 16
-6.551379 2.783266 21.409737 23 28 37
-6.517087 2.786912 21.437786 23 17 17
-6.486274 2.792105 21.477728 16 27 28
-6.451702 2.795738 21.505674 37 24 27
-6.419713 2.800546 21.542662 44 18 18
-6.383740 2.803670 21.566689 18 33 30
-6.347262 2.806612 21.589325 21 28 20
-6.313978 2.811017 21.623211 38 18 26
-6.277693 2.814138 21.647217 42 30 32
-6.244111 2.818522 21.680941 23 23 15
-6.207523 2.821601 21.704626 21 26 39
-6.170633 2.824586 21.727581 16 39 37
-6.136131 2.828713 21.759331 42 40 19
-6.098627 2.831505 21.780811 41 44 37
-6.064129 2.835744 21.813414 17 35 44
-6.027717 2.839142 21.839556 29 33 43
-5.990675 2.842291 21.863777 38 19 22
-5.954614 2.845955 21.891962 25 32 43
-5.915110 2.848016 21.907816 24 40 33
-5.877391 2.850973 21.930565 34 39 23
-5.838220 2.853266 21.948196 18 42 42
-5.798287 2.855217 21.963209 26 22 15
-5.758819 2.857429 21.980225 34 26 30
-5.717092 2.858546 21.988815 41 20 43
-5.676791 2.860399 22.003067 22 35 29
-5.635638 2.861848 22.014212 18 24 16
-5.594749 2.863454 22.026571 33 31 18
-5.555145 2.865749 22.044226 33 40 25
-5.514275 2.867423 22.057100 42 17 26
-5.475515 2.870230 22.078690 25 32 33
-5.435962 2.872663 22.097408 41 34 22
-5.396237 2.875044 22.115725 44 22 22
-5.357304 2.877891 22.137621 30 35 40
-5.316222 2.879620 22.150925 30 35 40
-5.274659 2.881116 22.162432 30 35 40
-5.231090 2.881532 22.165634 30 35 40
-5.186477 2.881376 22.164431 30 35 40
-5.142238 2.881426 22.164818 30 35 40
-5.097732 2.881327 22.164053 30 35 40
-5.054218 2.881791 22.167624 30 35 40
-5.011677 2.882823 22.175564 30 35 40
-4.968805 2.883682 22.182167 30 35 40
-4.924036 2.883444 22.180342 30 35 40
-4.877970 2.882437 22.172592 25 25 21
-4.834402 2.882900 22.176155 31 33 18
-4.792486 2.884367 22.187435 120 120 120
-4.752421 2.886985 22.207575 120 120 120
-4.713689 2.890469 22.234381 120 120 120
-4.673789 2.893298 22.256140 41 24 42
-4.636038 2.897524 22.288643 24 23 43
-4.596145 2.900480 22.311384 28 33 33
-4.556732 2.903800 22.336922 19 16 42
-4.520267 2.909083 22.377558 23 33 26
-4.481940 2.913261 22.409700 26 34 44
-4.444132 2.917864 22.445110 43 15 33
-4.402354 2.919929 22.460989 28 40 29
-4.360089 2.921709 22.474684 19 27 32
-4.320526 2.925356 22.502737 24 29 30
-4.279848 2.928317 22.525517 16 42 17
-4.242294 2.933501 22.565395 41 43 32
-4.203391 2.937854 22.598879 37 34 23
-4.165024 2.942680 22.636000 38 33 24
-4.128359 2.948828 22.683289 37 41 26
-4.088741 2.952979 22.715225 30 34 44
-4.052584 2.959753 22.767328 26 43 25
-4.014761 2.965448 22.811140 41 40 21
-3.976642 2.971054 22.854263 37 17 30
-3.939691 2.977674 22.905182 16 25 22
-3.899025 2.981608 22.935444 44 44 18
-3.860424 2.987233 22.978716 19 24 20
-3.819743 2.991365 23.010498 40 43 21
-3.778558 2.995198 23.039988 43 30 17
-3.738775 3.000252 23.078859 44 33 27
-3.696566 3.003460 23.103539 32 34 39
-3.656231 3.008291 23.140699 29 23 22
-3.614089 3.011741 23.167240 16 15 18
-3.572206 3.015499 23.196146 37 17 17
-3.532143 3.020912 23.237785 29 22 16
-3.490203 3.024843 23.268021 33 19 16
-3.452056 3.032212 23.324705 23 27 41
-3.412990 3.038964 23.376644 18 15 43
-3.374163 3.046119 23.431688 30 17 36
-3.336406 3.054456 23.495817 24 18 17
-3.294913 3.059562 23.535095 22 15 18
-3.255984 3.067231 23.594088 18 23 21
-3.214917 3.073083 23.639097 26 37 27
-3.173529 3.078797 23.683054 26 38 20
-3.134345 3.086855 23.745039 21 24 26
-3.092485 3.092485 23.788349 42 24 36
-3.049978 3.097634 23.827951 31 35 35
-3.003547 3.098898 23.837673 32 24 28
-2.956218 3.099261 23.840469 36 30 28
-2.911153 3.102049 23.861914 19 40 15
-7.234438 2.744097 20.788616 39 37 18
-7.192070 2.743795 20.786329 15 21 23
-7.149972 2.743594 20.784801 35 24 39
-7.109978 2.744202 20.789410 16 25 36
-7.070698 2.745095 20.796171 17 43 24
-7.034118 2.747052 20.810999 19 43 31
-6.996420 2.748594 20.822680 37 37 24
-6.960923 2.751023 20.841085 15 26 43
-6.928890 2.754860 20.870152 42 36 39
-6.895274 2.758110 20.894770 27 37 18
-6.868311 2.764077 20.939974 24 20 21
-6.839607 2.769412 20.980391 15 34 18
-6.811822 2.775187 21.024141 21 44 20
-6.786696 2.782124 21.076694 27 23 25
-6.755285 2.786555 21.110266 36 15 41
-6.728797 2.793086 21.159740 31 17 35
-6.698538 2.798124 21.197906 26 28 32
-6.667225 2.802782 21.233200 33 32 25
-6.638249 2.808490 21.276440 38 15 28
-6.603631 2.811869 21.302036 28 16 41
-6.572691 2.816868 21.339907 19 36 35
-6.538605 2.820575 21.367990 40 30 15
-6.504284 2.824228 21.395670 37 24 23
-6.473160 2.829328 21.434303 41 41 33
-6.438267 2.832837 21.460890 17 38 15
-6.406117 2.837609 21.497038 31 22 23
-6.370311 2.840814 21.521320 40 17 37
-6.334095 2.843879 21.544540 33 34 32
-6.300940 2.848370 21.578562 35 15 18
-6.264718 2.851527 21.602476 43 15 19
-6.231050 2.855898 21.635592 40 19 27
-6.194313 2.858914 21.658436 36 23 28
-6.157250 2.861820 21.680458 16 34 16
-6.122617 2.865906 21.711409 42 38 33
-6.085114 2.868697 21.732552 24 39 30
-6.050563 2.872929 21.764616 22 35 40
-6.014113 2.876315 21.790266 38 30 33
-5.977083 2.879471 21.814173 26 35 39
-5.941071 2.883167 21.842175 44 22 35
-5.901681 2.885266 21.858078 31 36 19
-5.864204 2.888339 21.881357 32 22 30
-5.825327 2.890764 21.899725 44 20 39
-5.785718 2.892859 21.915598 38 43 42
-5.746558 2.895212 21.933426 21 31 25
-5.705021 2.896395 21.942387 40 24 26
-5.664967 2.898355 21.957237 29 43 40
-5.624028 2.899889 21.968859 42 34 17
-5.583336 2.901576 21.981636 28 15 34
-5.543938 2.903967 21.999752 34 22 24
-5.503213 2.905697 22.012854 16 22 34
-5.464629 2.908593 22.034796 29 23 27
-5.425246 2.911107 22.053844 15 15 39
-5.385681 2.913565 22.072462 32 25 32
-5.346908 2.916495 22.094660 30 35 40
-5.305943 2.918269 22.108095 30 35 40
-5.264554 2.919837 22.119974 30 35 40
-5.221148 2.920303 22.123510 30 35 40
-5.176734 2.920209 22.122795 30 35 40
-5.132751 2.920358 22.123926 30 35 40
-5.088463 2.920335 22.123753 30 35 40
-5.045295 2.920960 22.128489 30 35 40
-5.003059 2.922141 22.137428 30 35 40
-4.960545 2.923178 22.145288 30 35 40
-4.916308 2.923210 22.145531 30 35 40
-4.870690 2.922414 22.139500 28 34 42
-4.827396 2.923011 22.144020 44 34 20
-4.785488 2.924465 22.155035 120 120 120
-4.745236 2.926968 22.174000 120 120 120
-4.706293 2.930333 22.199495 120 120 120
-4.666225 2.933056 22.220118 22 27 29
-4.628171 2.937109 22.250822 32 17 28
-4.588064 2.939924 22.272154 32 16 20
-4.548434 2.943105 22.296247 31 42 25
-4.511670 2.948220 22.335001 38 38 32
-4.473169 2.952292 22.365847 43 21 36
-4.435170 2.956780 22.399847 20 33 42
-4.393344 2.958782 22.415018 19 18 19
-4.351073 2.960524 22.428211 16 23 43
-4.311416 2.964099 22.455292 23 43 38
-4.270696 2.967010 22.477348 19 37 35
-4.233050 2.972142 22.516224 40 41 29
-4.194142 2.976488 22.549149 40 23 28
-4.155738 2.981290 22.585533 16 20 41
-4.118927 2.987354 22.631468 31 31 21
-4.079202 2.991415 22.662235 24 41 31
-4.042819 2.998045 22.712465 31 15 23
-4.004839 3.003629 22.754766 20 43 16
-3.966565 3.009119 22.796352 27 41 20
-3.929396 3.015583 22.845325 17 18 35
-3.888624 3.019402 22.874260 17 32 23
-3.849941 3.024954 22.916315 19 43 19
-3.809299 3.029081 22.947582 37 22 26
-3.768231 3.032966 22.977016 38 15 22
-3.728541 3.038071 23.015686 26 35 39
-3.686454 3.041324 23.040335 34 19 24
-3.646293 3.046270 23.077806 28 36 32
-3.604346 3.049831 23.104784 42 15 18
-3.562681 3.053727 23.134295 33 44 44
-3.522860 3.059325 23.176708 31 15 20
-3.481130 3.063394 23.207531 35 40 38
-3.443156 3.070923 23.264568 36 31 30
-3.404184 3.077755 23.316326 17 24 34
-3.365444 3.084990 23.371140 25 15 30
-3.327831 3.093477 23.435429 42 41 18
-3.286513 3.098712 23.475090 34 31 44
-3.247792 3.106583 23.534721 34 16 32
-3.206964 3.112641 23.580616 31 33 34
