ply
format ascii 1.0
element vertex 1255
property float x
property float y
property float z
property uchar red
property uchar green
property uchar blue
end_header
-4.442114 3.793266 24.955696 31 29 21
-4.401655 3.801429 25.009403 16 24 33
-4.361810 3.810317 25.067875 35 42 33
-4.324448 3.821605 25.142139 37 24 22
-4.282584 3.829134 25.191669 40 33 41
-4.246089 3.841699 25.274338 36 18 36
-4.206747 3.851961 25.341848 20 26 34
-4.167919 3.862949 25.414139 17 19 32
-4.132556 3.877460 25.509607 16 28 18
-4.092007 3.887407 25.575047 23 34 32
-4.056048 3.902021 25.671190 43 30 21
-4.015461 3.912500 25.740133 36 37 41
-3.975014 3.923390 25.811779 20 28 41
-3.938949 3.938949 25.914135 35 38 42
-3.898077 3.950051 25.987177 32 30 28
-3.863313 3.967727 26.103466 43 36 22
-3.825082 3.982277 26.199190 22 24 36
-3.786222 3.996568 26.293209 22 39 25
-3.750091 4.014182 26.409092 24 33 35
-3.707357 4.025131 26.481123 21 32 40
-7.984561 3.513207 22.813032 39 28 42
-7.941868 3.514505 22.821459 34 21 17
-7.898948 3.515717 22.829330 43 22 38
-7.856618 3.517207 22.839005 31 15 23
-7.815223 3.519135 22.851528 35 33 31
-7.772542 3.520504 22.860418 43 31 29
-7.732645 3.523158 22.877649 15 17 17
-7.691786 3.525402 22.892220 22 27 44
-7.652062 3.528196 22.910364 35 27 20
-7.614502 3.532028 22.935247 22 17 40
-7.574713 3.534866 22.953674 27 30 26
-7.539916 3.540083 22.987549 26 38 31
-7.503695 3.544690 23.017469 43 22 34
-7.468271 3.549734 23.050220 42 37 19
-7.435164 3.555948 23.090572 24 41 21
-7.397437 3.560017 23.116991 21 34 21
-7.364147 3.566285 23.157696 18 23 17
-7.327616 3.571053 23.188658 31 41 33
-7.291303 3.575989 23.220709 30 28 44
-7.258516 3.582729 23.264473 36 20 32
-7.221374 3.587392 23.294756 38 24 42
-7.188619 3.594310 23.339672 17 37 32
-7.152009 3.599377 23.372578 36 28 43
-7.115508 3.604567 23.406277 17 34 36
-7.083026 3.611874 23.453728 25 26 19
-7.046163 3.617030 23.487209 34 44 20
-7.013140 3.624240 23.534027 22 41 16
-6.976147 3.629482 23.568064 17 37 30
-6.938099 3.634242 23.598976 26 16 30
-6.902301 3.640254 23.638016 34 28 38
-6.861858 3.643883 23.661579 17 34 18
-6.824629 3.649281 23.696629 44 19 32
-6.785075 3.653502 23.724039 24 36 36
-6.744766 3.657373 23.749176 43 37 25
-6.706118 3.662206 23.780560 31 28 27
-6.663863 3.665124 23.799509 38 21 28
-6.622630 3.668651 23.822411 23 33 23
-6.578944 3.670860 23.836752 39 34 38
-6.534073 3.672435 23.846981 34 23 35
-6.490045 3.674511 23.860460 31 19 41
-6.444234 3.675600 23.867535 21 43 18
-6.399403 3.677269 23.878368 18 15 19
-6.354230 3.678765 23.888083 29 16 32
-6.308382 3.679889 23.895386 41 23 41
-6.261899 3.680658 23.900377 30 27 30
-6.214019 3.680611 23.900072 27 15 20
-6.166856 3.680991 23.902542 23 29 23
-6.119541 3.681286 23.904455 26 39 23
-6.073229 3.682194 23.910351 30 28 41
-6.028717 3.684216 23.923481 32 29 41
-5.984177 3.686253 23.936708 17 31 31
-5.941347 3.689385 23.957045 15 34 37
-5.897422 3.691882 23.973261 23 19 27
-5.853329 3.694314 23.989054 18 19 19
-5.810030 3.697292 24.008390 24 42 41
-5.764877 3.699129 24.020319 25 19 23
-5.719630 3.700937 24.032061 15 16 33
-5.672978 3.701858 24.038042 26 30 20
-5.625114 3.701998 24.038948 31 23 26
-5.576701 3.701776 24.037506 18 34 43
-5.527532 3.701043 24.032749 19 36 35
-5.479235 3.700887 24.031734 26 35 37
-5.431889 3.701376 24.034908 33 21 39
-5.385126 3.702274 24.040739 15 42 15
-5.338054 3.702974 24.045286 26 36 27
-5.290439 3.703307 24.047449 32 34 30
-5.245583 3.705596 24.062309 18 38 16
-5.201381 3.708392 24.080465 120 120 120
-5.158489 3.712184 24.105089 120 120 120
-5.116946 3.717027 24.136539 120 120 120
-5.073552 3.720605 24.159771 17 33 20
-5.031599 3.725319 24.190380 36 26 37
-4.986314 3.727633 24.205410 16 22 30
-4.942284 3.730940 24.226881 15 22 15
-4.902995 3.737927 24.272251 34 42 20
-4.862839 3.744386 24.314196 34 41 32
-4.827429 3.754667 24.380957 25 16 38
-4.789679 3.763319 24.437136 20 25 21
-4.751240 3.771603 24.490927 32 28 19
-4.713276 3.780440 24.548313 18 26 41
-4.669781 3.784981 24.577797 16 23 35
-4.630086 3.792730 24.628119 18 26 39
-4.588695 3.799242 24.670401 39 23 33
-4.547447 3.806015 24.714386 37 23 39
-4.508108 3.814553 24.769823 39 37 21
-4.465020 3.820072 24.805664 32 23 44
-4.426664 3.829810 24.868898 24 34 24
-4.386398 3.838098 24.922716 24 26 37
-4.346753 3.847126 24.981337 26 30 24
-4.309585 3.858582 25.055729 29 43 27
-4.267914 3.866228 25.105375 38 25 38
-4.231602 3.878968 25.188107 22 18 37
-4.192371 3.889308 25.255245 19 37 36
-4.153742 3.900465 25.327698 36 21 17
-4.118798 3.915401 25.424679 31 28 37
-4.078728 3.925775 25.492048 39 26 38
-4.043288 3.940926 25.590429 23 28 44
-4.003016 3.951695 25.660358 21 15 29
-3.962893 3.962893 25.733068 39 18 17
-3.927302 3.978977 25.837511 34 34 21
-3.886847 3.990496 25.912312 35 24 38
-3.852769 4.008962 26.032223 28 25 38
-3.815677 4.024755 26.134775 15 32 35
-3.777226 4.039534 26.230738 19 17 24
-3.739716 4.055748 26.336029 44 37 28
-7.924649 3.552429 22.771980 43 40 35
-7.880421 3.553022 22.775784 33 35 30
-7.836849 3.553920 22.781538 21 42 42
-7.794281 3.555286 22.790297 26 35 17
-7.751129 3.556400 22.797438 39 24 34
-7.711183 3.559008 22.814152 32 31 39
-7.670891 3.561485 22.830032 20 31 36
-7.631927 3.564613 22.850080 22 43 32
-7.594701 3.568595 22.875607 43 18 24
-7.554937 3.571425 22.893749 21 15 42
-7.520304 3.576730 22.927755 44 24 22
-7.484318 3.581453 22.958031 39 34 18
-7.449280 3.586690 22.991604 33 29 38
-7.416792 3.593228 23.033514 21 42 16
-7.379675 3.597592 23.061485 39 23 23
-7.346949 3.604164 23.103613 34 32 17
-7.310665 3.609062 23.135015 36 37 36
-7.274500 3.614083 23.167198 38 19 16
-7.241999 3.621000 23.211536 44 27 17
-7.205099 3.625792 23.242256 19 33 27
-7.172718 3.632935 23.288044 22 43 34
-7.136556 3.638244 23.322079 42 37 44
-7.100372 3.643612 23.356487 31 40 20
-7.067941 3.650989 23.403778 32 23 17
-7.030924 3.656081 23.436415 43 30 40
-6.997456 3.663098 23.481396 26 30 21
-6.959994 3.668105 23.513494 17 33 24
-6.921481 3.672622 23.542452 29 42 36
-6.885315 3.678456 23.579847 24 25 31
-6.844812 3.682037 23.602798 35 41 40
-6.807421 3.687353 23.636877 21 38 31
-6.767741 3.691495 23.663431 34 37 21
-6.727352 3.695306 23.687859 29 42 28
-6.688583 3.700067 23.718380 42 21 28
-6.646320 3.702950 23.736856 32 32 19
-6.605136 3.706479 23.759481 39 33 28
-6.561606 3.708734 23.773933 37 38 33
-6.516957 3.710384 23.784513 16 21 42
-6.473146 3.712540 23.798332 27 37 40
-6.427534 3.713687 23.805683 34 38 32
-6.382919 3.715430 23.816860 26 16 22
-6.337905 3.716967 23.826710 31 35 30
-6.292239 3.718141 23.834238 35 43 18
-6.246016 3.719002 23.839754 30 35 26
-6.198393 3.719036 23.839972 27 41 31
-6.151563 3.719550 23.843267 23 18 16
-6.104644 3.720017 23.846266 35 16 34
-6.058560 3.721006 23.852600 18 36 25
-6.013914 3.722899 23.864737 38 37 30
-5.969038 3.724679 23.876150 20 20 44
-5.925910 3.727588 23.894796 41 40 41
-5.881987 3.730040 23.910515 29 22 37
-5.837960 3.732466 23.926065 27 35 24
-5.794611 3.735369 23.944672 31 36 24
-5.749451 3.737143 23.956047 16 40 17
-5.704042 3.738784 23.966562 33 39 42
-5.657266 3.739549 23.971466 32 30 23
-5.609213 3.739475 23.970995 33 40 17
-5.560506 3.738961 23.967697 43 24 35
-5.511156 3.738001 23.961546 41 28 25
-5.462484 3.737489 23.958261 28 39 32
-5.414820 3.737663 23.959381 31 20 17
-5.367797 3.738287 23.963381 38 44 27
-5.320500 3.738730 23.966215 41 21 38
-5.272908 3.738971 23.967764 36 19 40
-5.227948 3.741101 23.981415 28 19 40
-5.183667 3.743759 23.998457 120 120 120
-5.140689 3.747418 24.021912 120 120 120
-5.099006 3.752099 24.051916 120 120 120
-5.055584 3.755577 24.074209 42 17 17
-5.013552 3.760164 24.103617 32 21 37
-4.968315 3.762414 24.118036 40 19 24
-4.924295 3.765637 24.138700 43 36 19
-4.884771 3.772397 24.182034 32 43 27
-4.844384 3.778620 24.221922 42 21 42
-4.808936 3.788858 24.287554 17 41 32
-4.771442 3.797678 24.344091 15 34 26
-4.733455 3.806283 24.399250 21 44 26
-4.695982 3.815486 24.458241 37 44 22
-4.652935 3.820305 24.489132 25 21 27
-4.613702 3.828391 24.540970 24 22 39
-4.572642 3.835119 24.584095 17 16 44
-4.531645 3.842047 24.628508 42 32 23
-4.492556 3.850762 24.684372 37 26 23
-4.449643 3.856357 24.720238 34 28 21
-4.411495 3.866254 24.783678 20 34 18
-4.371461 3.874704 24.837847 35 34 27
-4.332045 3.883903 24.896812 40 26 43
-4.295106 3.895561 24.971544 44 29 15
-4.253633 3.903334 25.021372 18 21 35
-4.217498 3.916248 25.104153 37 41 15
-4.178383 3.926673 25.170980 20 42 35
-4.139924 3.937976 25.243439 42 20 38
-4.105316 3.953267 25.341457 38 41 17
-4.065639 3.963998 25.410246 34 18 42
-4.030612 3.979592 25.510204 16 34 35
-3.990618 3.990618 25.580887 21 27 42
-3.950768 4.002077 25.654339 22 28 34
-3.915585 4.018626 25.760426 15 33 31
-3.875514 4.030534 25.836758 43 32 25
-3.841755 4.049417 25.957802 24 42 22
-3.805202 4.065832 26.063028 27 23 41
-3.766616 4.080501 26.157057 37 40 41
-7.811922 3.588034 22.709076 34 32 43
-7.768040 3.588743 22.713566 16 24 36
-7.724367 3.589559 22.718727 42 18 38
-7.684293 3.592066 22.734594 15 28 30
-7.644526 3.594747 22.751566 27 17 15
-7.606288 3.598184 22.773317 33 28 44
-7.569336 3.602274 22.799204 36 29 41
-7.529549 3.605057 22.816816 21 17 24
-7.494985 3.610389 22.850565 22 27 33
-7.459141 3.615166 22.880800 43 15 32
-7.424406 3.620544 22.914833 39 16 41
-7.392501 3.627376 22.958076 16 15 43
-7.356012 3.632031 22.987537 27 17 34
-7.323897 3.638917 23.031122 24 18 19
-7.287936 3.643968 23.063089 30 16 34
-7.251995 3.649093 23.095526 29 35 18
-7.219810 3.656186 23.140417 26 31 36
-7.183159 3.661094 23.171482 37 30 22
-7.151125 3.668434 23.217939 34 34 22
-7.115426 3.673978 23.253025 44 25 19
-7.079516 3.679485 23.287882 15 38 30
-7.047025 3.686854 23.334518 29 18 36
-7.009731 3.691792 23.365770 19 44 15
-6.975650 3.698499 23.408220 15 40 20
-6.937601 3.703179 23.437841 32 19 30
-6.898539 3.707378 23.464418 40 41 21
-6.861928 3.712961 23.499752 19 32 41
-6.821361 3.716466 23.521935 40 43 33
-6.783825 3.721682 23.554949 36 41 25
-6.744070 3.725745 23.580664 19 36 15
-6.703658 3.729500 23.604431 31 18 18
-6.664814 3.734187 23.634092 41 38 16
-6.622579 3.737027 23.652069 38 32 19
-6.581489 3.740558 23.674419 39 32 40
-6.538147 3.742853 23.688940 39 42 39
-6.493758 3.744576 23.699846 17 27 35
-6.450225 3.746822 23.714064 23 34 26
-6.404882 3.748042 23.721785 28 15 15
-6.360546 3.749874 23.733381 16 20 16
-6.315751 3.751461 23.743425 25 30 39
-6.270323 3.752693 23.751225 40 36 38
-6.224433 3.753666 23.757378 29 20 38
-6.177127 3.753793 23.758183 30 36 41
-6.130688 3.754453 23.762358 28 16 32
-6.084239 3.755116 23.766558 33 35 21
-6.038403 3.756172 23.773241 24 15 33
-5.993543 3.757856 23.783899 40 24 28
-5.948233 3.759283 23.792933 40 44 43
-5.904683 3.761855 23.809206 35 38 28
-5.860703 3.764191 23.823996 27 17 23
-5.816721 3.766565 23.839022 31 19 41
-5.773290 3.769338 23.856571 37 35 33
-5.728133 3.771021 23.867220 19 26 37
-5.682559 3.772455 23.876297 33 15 26
-5.635664 3.773029 23.879930 21 40 44
-5.587440 3.772716 23.877951 16 36 44
-5.538461 3.771883 23.872677 44 27 21
-5.488978 3.770689 23.865120 36 21 31
-5.439948 3.769788 23.859421 33 39 19
-5.391944 3.769589 23.858160 40 44 28
-5.344686 3.769912 23.860205 39 41 19
-5.297344 3.770181 23.861908 30 37 23
-5.250009 3.770461 23.863676 17 29 43
-5.205111 3.772512 23.876656 34 22 27
-5.160778 3.775013 23.892490 120 120 120
-5.117687 3.778479 23.914427 120 120 120
-5.075868 3.782958 23.942772 120 120 120
-5.032433 3.786307 23.963968 41 33 37
-4.990317 3.790722 23.991911 43 21 20
-4.945147 3.792879 24.005566 18 43 23
-4.901133 3.795976 24.025164 18 36 27
-4.861348 3.802440 24.066078 39 31 31
-4.820729 3.808376 24.103647 36 40 28
-4.785012 3.818343 24.166727 31 35 44
-4.747326 3.826926 24.221052 42 27 15
-4.709518 3.835587 24.275867 34 40 23
-4.672776 3.845305 24.337374 19 44 15
-4.630765 3.850846 24.372446 33 28 26
-4.592476 3.859634 24.428064 30 23 16
-4.551865 3.866638 24.472393 26 27 33
-4.511125 3.873684 24.516985 18 39 24
-4.472383 3.882618 24.573532 26 34 36
-4.429731 3.888320 24.609617 34 17 26
-4.391921 3.898447 24.673716 22 38 28
-4.352232 3.907117 24.728588 30 25 36
-4.313186 3.916571 24.788425 31 41 19
-4.276657 3.928557 24.864286 19 22 38
-4.235535 3.936556 24.914909 36 19 26
-4.199751 3.949766 24.998518 27 32 26
-4.160856 3.960333 25.065399 19 30 34
-4.122654 3.971825 25.138132 27 32 17
-4.088484 3.987533 25.237553 44 24 44
-4.049266 3.998650 25.307913 29 25 21
-4.014736 4.014736 25.409721 26 15 35
-3.975097 4.026060 25.481390 27 38 20
-3.935579 4.037802 25.555706 25 39 40
-3.900963 4.054948 25.664230 21 33 33
-3.861441 4.067384 25.742937 29 32 36
-3.827520 4.086136 25.861620 23 39 33
-7.751323 3.626350 22.664686 23 43 21
-7.707310 3.626970 22.668560 28 26 32
-7.667070 3.629382 22.683640 40 34 42
-7.627517 3.632151 22.700945 38 18 29
-7.589590 3.635732 22.723322 17 18 20
-7.552657 3.639835 22.748968 34 39 43
-7.512774 3.642557 22.765982 32 31 42
-7.478106 3.647857 22.799105 41 15 42
-7.442217 3.652622 22.828886 27 25 25
-7.407566 3.658057 22.862858 30 39 15
-7.375911 3.665049 22.906557 36 44 43
-7.339774 3.669887 22.936792 29 44 26
-7.308014 3.676988 22.981176 40 32 36
-7.272270 3.682162 23.013514 29 27 28
-7.236497 3.687387 23.046167 24 32 15
-7.204496 3.694613 23.091333 36 36 15
-7.167970 3.699597 23.122482 29 33 37
-7.136075 3.707052 23.169073 37 17 40
-7.100589 3.712726 23.204540 15 27 42
-7.064755 3.718292 23.239326 31 42 27
-7.032087 3.725609 23.285057 35 33 40
-6.994519 3.730410 23.315063 21 35 18
-6.959951 3.736887 23.355541 19 26 26
-6.921482 3.741342 23.383387 36 18 16
-6.882065 3.745341 23.408384 19 24 18
-6.845156 3.750771 23.442316 43 28 43
-6.804569 3.754245 23.464031 32 43 15
-6.766983 3.759435 23.496469 27 23 18
-6.727225 3.763482 23.521765 26 35 39
-6.686867 3.767249 23.545305 38 16 29
-6.648030 3.771932 23.574575 23 17 30
-6.605851 3.774772 23.592325 18 17 37
-6.564863 3.778339 23.614616 24 19 17
-6.521663 3.780674 23.629213 16 18 23
-6.477472 3.782466 23.640409 34 40 40
-6.434159 3.784799 23.654997 23 27 31
-6.389021 3.786087 23.663042 22 29 16
-6.344919 3.788011 23.675072 25 39 22
-6.300298 3.789653 23.685329 33 18 19
-6.255049 3.790939 23.693367 28 22 30
-6.209410 3.792006 23.700039 43 41 44
-6.162329 3.792202 23.701265 25 32 24
-6.116143 3.792957 23.705982 21 35 20
-6.069989 3.793743 23.710894 23 24 22
-6.024284 3.794825 23.717653 33 35 15
-5.979242 3.796344 23.727152 25 20 17
-5.933612 3.797512 23.734449 22 24 25
-5.889745 3.799836 23.748972 34 36 16
-5.845713 3.802090 23.763062 30 34 29
-5.801745 3.804423 23.777643 32 43 19
-5.758244 3.807104 23.794397 21 37 25
-5.713093 3.808729 23.804556 29 28 35
-5.667428 3.810035 23.812721 20 36 42
-5.620475 3.810492 23.815573 28 39 23
-5.572170 3.810031 23.812691 39 31 42
-5.523066 3.809011 23.806318 20 41 35
-5.473547 3.807685 23.798029 42 36 30
-5.424354 3.806564 23.791025 20 40 34
-5.376152 3.806125 23.788282 28 18 36
-5.328803 3.806288 23.789301 36 32 18
-5.281598 3.806557 23.790983 34 29 33
-5.234612 3.806991 23.793692 40 37 39
-5.189925 3.809119 23.806993 25 42 38
-5.145633 3.811580 23.822374 120 120 120
-5.102502 3.814955 23.843468 120 120 120
-5.060638 3.819349 23.870934 120 120 120
-5.017225 3.822648 23.891548 35 27 21
-4.975076 3.826981 23.918633 20 31 21
-4.929964 3.829098 23.931862 29 16 30
-4.885953 3.832120 23.950752 39 17 17
-4.846025 3.838436 23.990225 39 40 30
-4.805290 3.844232 24.026449 35 16 18
-4.769211 3.853908 24.086924 26 22 41
-4.730973 3.862019 24.137619 20 31 25
-4.692953 3.870477 24.190479 17 40 31
-4.656813 3.880677 24.254234 26 39 33
-4.615897 3.887071 24.294193 24 44 23
-4.578561 3.896648 24.354048 37 44 26
-4.538297 3.903911 24.399446 28 41 44
-4.497698 3.911042 24.444010 20 43 38
-4.459228 3.920201 24.501253 16 28 16
-4.416782 3.926029 24.537680 21 34 31
-4.379253 3.936407 24.602545 44 19 23
-4.339835 3.945305 24.658155 33 27 23
-4.301077 3.955013 24.718832 30 41 15
-4.264890 3.967339 24.795872 20 43 41
-4.224050 3.975577 24.847355 20 35 21
-4.188547 3.989092 24.931828 26 27 35
-4.149840 3.999846 24.999037 38 35 15
-4.111807 4.011519 25.071995 44 32 24
-4.077889 4.027545 25.172155 34 41 20
-4.038912 4.038912 25.243202 17 33 27
-4.004640 4.055332 25.345825 36 29 16
-3.965212 4.066884 25.418028 20 43 26
-3.925877 4.078833 25.492708 28 32 33
-3.891629 4.096451 25.602821 15 28 31
-3.852492 4.109325 25.683279 26 32 38
-7.680605 3.659582 22.590014 35 35 24
-7.640088 3.661817 22.603811 34 41 29
-7.600686 3.664617 22.621090 34 29 38
-7.562945 3.668255 22.643549 25 37 36
-7.525753 3.672205 22.667931 32 37 18
-7.485518 3.674709 22.683388 35 26 41
-7.450439 3.679790 22.714752 22 33 17
-7.414311 3.684412 22.743284 17 25 40
-7.379637 3.689818 22.776657 26 27 41
-7.348177 3.696909 22.820427 38 15 19
-7.312466 3.701936 22.851456 26 39 27
-7.281177 3.709279 22.896782 15 27 38
-7.245761 3.714599 22.929625 31 35 25
-7.210318 3.719973 22.962795 42 25 16
-7.178732 3.727419 23.008757 36 34 35
-7.142552 3.732560 23.040491 44 32 31
-7.111047 3.740226 23.087816 15 39 39
-7.075961 3.746097 23.124054 30 34 28
-7.040331 3.751755 23.158983 18 43 22
-7.007570 3.759028 23.203875 26 37 34
-6.969746 3.763663 23.232487 22 31 26
-6.934714 3.769878 23.270853 35 17 16
-6.895871 3.774092 23.296862 34 24 19
-6.856170 3.777890 23.320307 39 26 32
-6.819080 3.783188 23.353012 21 38 43
-6.778594 3.786663 23.374462 28 33 28
-6.741098 3.791868 23.406591 32 21 42
-6.701467 3.795936 23.431704 21 17 16
-6.661263 3.799735 23.455153 31 36 38
-6.622534 3.804434 23.484163 26 33 19
-6.580476 3.807276 23.501701 44 35 38
-6.539670 3.810887 23.523993 26 34 18
-6.496700 3.813280 23.538767 18 37 41
-6.452790 3.815153 23.550327 32 37 36
-6.409802 3.817602 23.565447 25 44 24
-6.364967 3.818980 23.573954 18 15 31
-6.321237 3.821046 23.586704 27 35 43
-6.276941 3.822798 23.597521 16 32 38
-6.232032 3.824201 23.606182 23 21 15
-6.186816 3.825436 23.613802 25 39 44
-6.140106 3.825759 23.615793 21 29 28
-6.094220 3.826603 23.621006 23 32 23
-6.048317 3.827451 23.626240 39 21 39
-6.002633 3.828451 23.632414 18 36 44
-5.957295 3.829689 23.640059 15 36 23
-5.911283 3.830511 23.645132 36 18 33
-5.866951 3.832444 23.657059 34 30 16
-5.822735 3.834484 23.669655 41 15 26
-5.778650 3.836645 23.682993 38 23 21
-5.734922 3.839080 23.698027 20 42 27
-5.689706 3.840551 23.707108 36 19 42
-5.643836 3.841603 23.713598 42 30 43
-5.596758 3.841842 23.715076 35 27 17
-5.548352 3.841167 23.710907 18 35 36
-5.499113 3.839898 23.703074 15 16 44
-5.449617 3.838426 23.693989 32 36 27
-5.400273 3.837036 23.685408 36 34 34
-5.351868 3.836294 23.680830 38 30 44
-5.304423 3.836235 23.680460 35 18 42
-5.257338 3.836436 23.681704 31 33 15
-5.210700 3.836970 23.685001 32 25 31
-5.166379 3.839236 23.698986 34 27 30
-5.122421 3.841816 23.714911 120 120 120
-5.079550 3.845267 23.736214 120 120 120
-5.037820 3.849655 23.763302 120 120 120
-4.994455 3.852866 23.783121 28 36 42
-4.952361 3.857128 23.809429 42 18 15
-4.907463 3.859267 23.822634 32 29 23
-4.863605 3.862275 23.841202 25 30 30
-4.823656 3.868477 23.879486 25 33 42
-4.782884 3.874136 23.914421 37 17 38
-4.746449 3.883458 23.971964 24 35 25
-4.707594 3.890971 24.018337 22 40 33
-4.669317 3.899121 24.068645 26 30 39
-4.633813 3.909780 24.134441 28 26 23
-4.594112 3.917085 24.179535 41 29 29
-4.557829 3.927491 24.243773 26 42 19
-4.517974 3.935010 24.290182 23 15 16
-4.477558 3.942198 24.334555 30 34 17
-4.439370 3.951527 24.392141 39 17 29
-4.397148 3.957433 24.428598 35 37 35
-4.359969 3.968061 24.494205 16 21 27
-4.320929 3.977219 24.550735 17 39 34
-4.282631 3.987277 24.612823 38 22 40
-4.247018 4.000098 24.691965 24 44 22
-4.206677 4.008716 24.745161 44 36 38
-4.171731 4.022741 24.831732 25 44 22
-4.133420 4.033820 24.900122 20 19 19
-4.095758 4.045810 24.974136 23 15 28
-4.062312 4.062312 25.076000 42 33 29
-4.023733 4.074030 25.148331 22 40 39
-3.989939 4.090950 25.252779 39 16 15
-3.950982 4.102943 25.326811 16 28 16
-3.911989 4.115209 25.402527 44 30 23
-3.878115 4.133254 25.513916 20 32 23
-7.618170 3.696390 22.538963 26 28 26
-7.578785 3.699169 22.555906 17 44 40
-7.541029 3.702781 22.577932 22 42 20
-7.503398 3.706498 22.600595 17 26 31
-7.462708 3.708740 22.614265 15 44 28
-7.427097 3.713548 22.643587 16 36 27
-7.390653 3.717997 22.670713 15 36 30
-7.355885 3.723349 22.703350 24 23 19
-7.324500 3.730491 22.746895 27 17 24
-7.289110 3.735669 22.778469 42 22 24
-7.258211 3.743228 22.824562 33 41 20
-7.223084 3.748689 22.857861 22 44 37
-7.187992 3.754238 22.891693 40 30 33
-7.156897 3.761959 22.938772 31 43 30
-7.121164 3.767325 22.971497 36 38 37
-7.090193 3.775298 23.020107 18 36 23
-7.055577 3.781420 23.057440 18 32 19
-7.020265 3.787248 23.092976 39 31 19
-6.987659 3.794623 23.137943 18 15 34
-6.949794 3.799221 23.165979 35 32 38
-6.914645 3.805375 23.203508 41 37 22
-6.875724 3.809523 23.228796 22 33 16
-6.836004 3.813281 23.251713 42 27 40
-6.799008 3.818621 23.284273 15 37 33
-6.758746 3.822187 23.306021 33 29 24
-6.721503 3.827522 23.338551 15 22 24
-6.682088 3.831687 23.363943 38 43 28
-6.642098 3.835578 23.387669 25 29 16
-6.603566 3.840372 23.416901 36 39 23
-6.561666 3.843262 23.434523 35 36 37
-6.521086 3.846972 23.457144 34 28 36
-6.478352 3.849455 23.472288 33 26 30
-6.434714 3.851435 23.484358 35 28 33
-6.392035 3.854021 23.500130 33 19 36
-6.347461 3.855495 23.509113 20 18 23
-6.304070 3.857714 23.522648 20 32 39
-6.260076 3.859596 23.534121 28 19 36
-6.215471 3.861126 23.543449 30 27 35
-6.170646 3.862541 23.552082 30 15 25
-6.124254 3.862991 23.554825 27 41 22
-6.078534 3.863874 23.560207 16 43 19
-6.032665 3.864676 23.565098 39 37 37
-5.986849 3.865524 23.570271 39 27 23
-5.941257 3.866533 23.576418 43 43 32
-5.895027 3.867138 23.580109 20 17 17
-5.850356 3.868783 23.590143 35 43 15
-5.805945 3.870630 23.601402 20 36 36
-5.761700 3.872618 23.613523 31 24 34
-5.717734 3.874828 23.627001 27 31 29
-5.672427 3.876158 23.635111 30 31 28
-5.626361 3.876988 23.640171 23 31 19
-5.579162 3.877045 23.640516 32 19 38
-5.530669 3.876195 23.635336 28 40 30
-5.481331 3.874734 23.626429 25 23 37
-5.431875 3.873163 23.616850 39 27 41
-5.382438 3.871578 23.607185 25 18 29
-5.333907 3.870623 23.601360 33 42 38
-5.286390 3.870393 23.599955 31 19 39
-5.239291 3.870467 23.600410 40 37 19
-5.192791 3.870990 23.603598 36 42 29
-5.148771 3.873388 23.618217 25 17 18
-5.105252 3.876210 23.635426 120 120 120
-5.062803 3.879905 23.657959 120 120 120
-5.021287 3.884392 23.685318 120 120 120
-4.977957 3.887547 23.704557 33 28 25
-4.935944 3.891802 23.730501 22 19 20
-4.891255 3.894009 23.743956 44 39 19
-4.847577 3.897072 23.762634 36 16 43
-4.807691 3.903274 23.800451 23 39 41
-4.766942 3.908893 23.834711 19 23 22
-4.730313 3.918037 23.890471 24 21 40
-4.691083 3.925192 23.934095 17 44 40
-4.652632 3.933153 23.982641 22 30 28
-4.617509 3.944122 24.049526 21 22 18
-4.578564 3.952023 24.097704 41 20 40
-4.542863 3.962923 24.164164 40 22 33
-4.503167 3.970534 24.210573 33 26 29
-4.462764 3.977681 24.254154 43 26 27
-4.424663 3.987059 24.311337 37 23 35
-4.382550 3.992990 24.347502 20 16 15
-4.345599 4.003810 24.413475 31 16 19
-4.306833 4.013185 24.470640 34 25 44
-4.268916 4.023576 24.534002 41 38 38
-4.233804 4.036883 24.615141 24 31 39
-4.193924 4.045903 24.670141 36 35 19
-4.159521 4.060485 24.759054 20 16 27
-4.121604 4.071946 24.828941 20 30 32
-4.084328 4.084328 24.904442 32 32 39
-4.051371 4.101388 25.008463 30 43 40
-4.013172 4.113502 25.082327 19 42 23
-3.979912 4.131048 25.189318 36 18 42
-3.941472 4.143598 25.265844 22 42 35
-3.902894 4.156329 25.343470 16 43 20
-7.519738 3.737355 22.514187 27 37 17
-7.481604 3.740802 22.534952 21 38 29
-7.440466 3.742780 22.546867 34 25 41
-7.404281 3.747289 22.574028 39 32 34
-7.367460 3.751529 22.599571 24 36 24
-7.332502 3.756776 22.631180 44 33 15
-7.301026 3.763883 22.673994 21 21 42
-7.265805 3.769136 22.705641 26 42 28
-7.235142 3.776835 22.752018 24 18 44
-7.200242 3.782406 22.785576 17 18 19
-7.165448 3.788103 22.819899 38 43 41
-7.134762 3.796059 22.867826 15 36 29
-7.099414 3.801622 22.901335 38 20 20
-7.068839 3.809829 22.950777 33 30 42
-7.034540 3.816123 22.988691 37 24 26
-6.999414 3.822048 23.024387 25 20 19
-6.966849 3.829460 23.069036 24 38 35
-6.928923 3.834004 23.096409 17 36 22
-6.893686 3.840107 23.133173 21 28 37
-6.854745 3.844215 23.157921 44 23 40
-6.815076 3.847968 23.180531 17 44 26
-6.778188 3.853353 23.212973 34 44 37
-6.738122 3.856994 23.234903 35 42 32
-6.701087 3.862432 23.267664 16 34 16
-6.661872 3.866681 23.293259 27 28 19
-6.622072 3.870648 23.317154 27 15 27
-6.583696 3.875509 23.346441 40 16 27
-6.541910 3.878418 23.363966 24 21 21
-6.501463 3.882168 23.386557 35 38 23
-6.458879 3.884688 23.401735 44 27 43
-6.415416 3.886712 23.413927 42 39 40
-6.372934 3.889364 23.429903 27 24 28
-6.328552 3.890888 23.439083 15 21 29
-6.285448 3.893225 23.453165 34 27 38
-6.241755 3.895231 23.465244 39 33 42
-6.197472 3.896895 23.475271 24 16 44
-6.153016 3.898476 23.484793 18 41 27
-6.106928 3.899039 23.488186 37 28 26
-6.061340 3.899932 23.493565 23 17 32
-6.015472 3.900657 23.497936 40 15 34
-5.969495 3.901323 23.501947 23 22 23
-5.923660 3.902093 23.506586 30 39 16
-5.877256 3.902498 23.509026 41 25 43
-5.832231 3.903832 23.517061 15 15 32
-5.787560 3.905426 23.526665 40 36 34
-5.743064 3.907167 23.537149 23 28 39
-5.698779 3.909080 23.548672 18 17 30
-5.653348 3.910232 23.555616 24 17 36
-5.607064 3.910810 23.559093 24 32 35
-5.559744 3.910667 23.558237 38 19 23
-5.511206 3.909659 23.552164 20 16 28
-5.461846 3.908045 23.542440 44 41 26
-5.412505 3.906416 23.532629 29 18 35
-5.363085 3.904702 23.522301 41 16 30
-5.314530 3.903592 23.515617 36 17 20
-5.267014 3.903233 23.513454 33 16 15
-5.219934 3.903194 23.513218 41 28 27
-5.173545 3.903674 23.516111 40 17 44
-5.129866 3.906228 23.531496 20 42 36
-5.086896 3.909374 23.550446 120 120 120
-5.045000 3.913411 23.574764 120 120 120
-5.003796 3.918066 23.602810 120 120 120
-4.960546 3.921193 23.621647 27 37 25
-4.918711 3.925510 23.647648 22 18 32
-4.874330 3.927858 23.661795 22 30 39
-4.830948 3.931065 23.681116 29 32 23
-4.791290 3.937397 23.719259 31 44 31
-4.750686 3.943070 23.753431 25 22 27
-4.714005 3.952146 23.808105 36 31 18
-4.674548 3.959056 23.849733 18 30 33
-4.635945 3.966839 23.896622 44 19 36
-4.600983 3.977934 23.963455 18 41 35
-4.562449 3.986139 24.012888 15 26 38
-4.527125 3.997355 24.080454 43 44 25
-4.487666 4.005121 24.127237 44 33 40
-4.447428 4.012353 24.170803 40 25 39
-4.409438 4.021795 24.227680 27 43 44
-4.367392 4.027706 24.263290 29 32 18
-4.330618 4.038667 24.329317 19 42 38
-4.292111 4.048241 24.386995 44 33 24
-4.254562 4.058950 24.451506 39 30 42
-4.219932 4.072725 24.534491 15 39 38
-4.180497 4.082133 24.591160 37 19 19
-4.146635 4.097270 24.682352 29 22 24
-4.109138 4.109138 24.753843 22 17 24
-4.072244 4.121905 24.830755 28 43 35
-4.039709 4.139455 24.936478 43 35 19
-4.001805 4.151873 25.011284 35 44 25
-3.968935 4.169894 25.119844 17 19 44
-7.455481 3.772653 22.456268 24 26 32
-7.414059 3.774430 22.466846 27 34 43
-7.377441 3.778689 22.492197 24 29 26
-7.340326 3.782745 22.516336 23 38 43
-7.305210 3.787887 22.546944 31 29 36
-7.273634 3.794940 22.588926 20 19 41
-7.238562 3.800245 22.620506 37 27 35
-7.208073 3.808039 22.666897 19 16 36
-7.173377 3.813694 22.700562 25 31 40
-7.138826 3.819499 22.735113 31 32 22
-7.108399 3.827600 22.783331 29 42 37
-7.073292 3.833268 22.817070 17 28 26
-7.042848 3.841553 22.866388 29 44 36
-7.008641 3.847882 22.904057 30 24 25
-6.973450 3.853749 22.938980 20 21 38
-6.940611 3.861002 22.982155 20 22 26
-6.902414 3.865352 23.008045 31 43 32
-6.866805 3.871219 23.042969 34 34 20
-6.827680 3.875170 23.066486 38 43 34
-6.787912 3.878807 23.088135 16 17 35
-6.750908 3.884084 23.119549 17 39 33
-6.710899 3.887693 23.141029 19 26 38
-6.673885 3.893099 23.173210 16 16 26
-6.634765 3.897344 23.198479 16 40 24
-6.595053 3.901299 23.222017 33 30 22
-6.556682 3.906109 23.250647 15 36 25
-6.514933 3.908960 23.267618 16 37 21
-6.474465 3.912627 23.289444 27 20 44
-6.431912 3.915077 23.304029 31 40 16
-6.388525 3.917052 23.315786 25 25 32
-6.346118 3.919661 23.331316 28 17 32
-6.301892 3.921177 23.340340 29 25 19
-6.259033 3.923573 23.354599 22 42 17
-6.215661 3.925681 23.367147 31 28 24
-6.171741 3.927471 23.377806 38 37 38
-6.127670 3.929193 23.388054 19 19 19
-6.081908 3.929848 23.391954 23 24 19
-6.036543 3.930772 23.397453 26 30 41
-5.990856 3.931499 23.401781 15 21 30
-5.944852 3.932028 23.404928 17 30 34
-5.898717 3.932478 23.407606 37 38 37
-5.851986 3.932535 23.407946 29 29 34
-5.806422 3.933383 23.412992 19 31 32
-5.761417 3.934626 23.420395 36 17 16
-5.716615 3.936030 23.428749 40 39 28
-5.671915 3.937528 23.437666 25 36 31
-5.626328 3.938430 23.443035 42 43 17
-5.579774 3.938664 23.444429 33 16 36
-5.532327 3.938266 23.442062 33 37 22
-5.483772 3.937067 23.434921 17 21 28
-5.434410 3.935263 23.424183 29 27 36
-5.385248 3.933572 23.414120 40 17 27
-5.335897 3.931713 23.403055 42 27 20
-5.287355 3.930423 23.395376 33 29 23
-5.239902 3.929927 23.392420 31 41 15
-5.192941 3.929793 23.391626 22 36 28
-5.146783 3.930271 23.394468 20 28 26
-5.103550 3.933011 23.410778 20 39 35
-5.061185 3.936477 23.431412 120 120 120
-5.019887 3.940846 23.457415 120 120 120
-4.979063 3.945672 23.486145 120 120 120
-4.935962 3.948769 23.504580 28 31 35
-4.894423 3.953188 23.530882 44 27 42
-4.850488 3.955738 23.546061 16 21 37
-4.807548 3.959157 23.566412 37 24 21
-4.768268 3.965688 23.605286 22 23 38
-4.727927 3.971459 23.639635 29 21 43
-4.691298 3.980496 23.693426 27 36 15
-4.651718 3.987187 23.733255 43 29 19
-4.612997 3.994761 23.778337 32 20 36
-4.578090 4.005829 23.844217 17 16 16
-4.539814 4.014151 23.893757 17 21 28
-4.504959 4.025708 23.962549 36 24 37
-4.466115 4.033910 24.011370 23 20 44
-4.426462 4.041552 24.056856 23 28 32
-4.388810 4.051209 24.114342 21 40 19
-4.346860 4.057070 24.149223 20 37 21
-4.310296 4.068145 24.215147 24 31 29
-4.272101 4.077914 24.273300 36 20 18
-4.234959 4.088926 24.338844 20 18 27
-4.200812 4.103119 24.423328 16 16 23
-4.161831 4.112868 24.481358 36 37 44
-4.128488 4.128488 24.574333 24 41 42
-4.091436 4.140730 24.647205 30 42 16
-4.054925 4.153826 24.725155 44 20 37
-4.022773 4.171764 24.831930 27 16 32
-7.361428 3.815374 22.443378 27 18 19
-7.324199 3.819368 22.466869 34 19 28
-7.288985 3.824468 22.496868 23 33 38
-7.257305 3.831497 22.538216 27 19 27
-7.222239 3.836814 22.569496 40 32 24
-7.191742 3.844642 22.615540 34 31 42
-7.157108 3.850343 22.649075 30 29 43
-7.122615 3.856193 22.683487 21 16 35
-7.092184 3.864331 22.731358 28 19 21
-7.057085 3.870014 22.764790 44 17 18
-7.026474 3.878249 22.813227 40 42 26
-6.992104 3.884502 22.850014 29 24 32
-6.956662 3.890239 22.883757 32 27 28
-6.923423 3.897291 22.925241 26 39 24
-6.884944 3.901468 22.949812 18 18 15
-6.848967 3.907129 22.983112 31 40 38
-6.809659 3.910953 23.005604 34 15 17
-6.769778 3.914497 23.026455 19 31 42
-6.732567 3.919645 23.056738 28 15 18
-6.692486 3.923182 23.077539 22 25 34
-6.655341 3.928500 23.108824 32 38 16
-6.616191 3.932701 23.133533 25 39 32
-6.576455 3.936610 23.156530 27 42 22
-6.537966 3.941327 23.184277 31 27 35
-6.496158 3.944096 23.200565 36 24 37
-6.455544 3.947635 23.221380 34 19 24
-6.412892 3.949970 23.235115 25 40 43
-6.369440 3.951842 23.246130 26 39 38
-6.326944 3.954340 23.260824 18 29 22
-6.282746 3.955803 23.269428 18 23 35
-6.239970 3.958190 23.283470 16 34 27
-6.196763 3.960337 23.296103 21 32 16
-6.153063 3.962200 23.307056 18 35 41
-6.109189 3.963977 23.317514 26 24 42
-6.063607 3.964666 23.321564 44 40 20
-6.018398 3.965611 23.327124 32 23 25
-5.972912 3.966387 23.331688 31 40 29
-5.926966 3.966867 23.334513 18 22 15
-5.880642 3.967100 23.335882 39 32 34
-5.833657 3.966887 23.334627 20 19 32
-5.787686 3.967366 23.337444 38 31 16
-5.742429 3.968345 23.343208 44 22 28
-5.697401 3.969500 23.350002 27 32 19
-5.652400 3.970694 23.357023 32 34 41
-5.606689 3.971404 23.361202 17 41 22
-5.559958 3.971399 23.361170 16 32 21
-5.512445 3.970829 23.357819 25 23 24
-5.463913 3.969509 23.350054 19 20 37
-5.414594 3.967590 23.338766 36 33 39
-5.365592 3.965872 23.328659 28 42 17
-5.316351 3.963946 23.317327 30 34 37
-5.267888 3.962571 23.309238 24 41 15
-5.220534 3.962013 23.305956 24 36 15
-5.173708 3.961848 23.304989 28 30 34
-5.127735 3.962340 23.307884 21 35 42
-5.084812 3.965221 23.324827 18 39 40
-5.042843 3.968904 23.346495 120 120 120
-5.001936 3.973500 23.373531 120 120 120
-4.961393 3.978476 23.402798 120 120 120
-4.918438 3.981592 23.421131 42 27 34
-4.877168 3.986147 23.447922 40 31 33
-4.833587 3.988882 23.464012 42 33 37
-4.791019 3.992516 23.485388 32 17 44
-4.752097 3.999289 23.525230 41 25 35
-4.712025 4.005221 23.560123 27 34 37
-4.675555 4.014366 23.613916 30 16 33
-4.636043 4.021058 23.653280 38 42 27
-4.597299 4.028561 23.697418 39 35 27
-4.562253 4.039494 23.761732 21 15 20
-4.523855 4.047659 23.809761 26 25 39
-4.489207 4.059390 23.878763 27 26 20
-4.450968 4.068089 23.929934 34 22 26
-4.411968 4.076275 23.978086 27 39 33
-4.374648 4.086210 24.036530 16 33 41
-4.332747 4.092039 24.070818 43 22 31
-4.296289 4.103198 24.136457 33 25 37
-4.258280 4.113111 24.194771 34 36 20
-4.221358 4.124315 24.260675 41 30 26
-4.187449 4.138758 24.345633 29 19 29
-4.148688 4.148688 24.404047 32 20 36
-4.115595 4.164590 24.497587 42 36 33
-4.078793 4.177077 24.571041 25 34 37
-4.042479 4.190375 24.649263 18 43 38
-4.010465 4.208513 24.755959 41 24 18
-7.267633 3.858126 22.430965 44 31 23
-7.235257 3.864796 22.469742 31 34 39
-7.199775 3.869879 22.499296 27 21 32
-7.168836 3.877484 22.543510 19 36 36
-7.134105 3.883121 22.576283 19 20 24
-7.099569 3.888936 22.610092 22 29 35
-7.068848 3.896929 22.656565 35 40 33
-7.033542 3.902481 22.688845 18 23 44
-7.002371 3.910415 22.734970 24 28 21
-6.967513 3.916380 22.769650 15 38 21
-6.931497 3.921768 22.800978 15 31 15
-6.897493 3.928374 22.839382 33 17 21
-6.858544 3.932232 22.861814 40 36 16
-6.821959 3.937507 22.892481 19 36 38
-6.782371 3.941107 22.913414 36 20 39
-6.742269 3.944456 22.932886 24 28 30
-6.704590 3.949279 22.960924 28 18 16
-6.664220 3.952572 22.980068 35 43 37
-6.626675 3.957597 23.009287 37 24 23
-6.587371 3.961636 23.032766 29 26 19
-6.547513 3.965395 23.054625 33 30 38
-6.508742 3.969871 23.080645 19 33 16
-6.466803 3.972465 23.095724 18 15 19
-6.425810 3.975681 23.114424 26 35 37
-6.382838 3.977711 23.126225 42 44 30
-6.339099 3.979289 23.135399 28 33 42
-6.296279 3.981470 23.148083 36 30 32
-6.252009 3.982761 23.155588 36 29 42
-6.209225 3.985025 23.168749 40 22 32
-6.166205 3.987170 23.181223 29 34 30
-6.122791 3.989091 23.192390 44 38 21
-6.079149 3.990892 23.202860 15 41 29
-6.033801 3.991591 23.206926 31 29 40
-5.988771 3.992514 23.212290 39 42 37
-5.943463 3.993264 23.216654 39 42 17
-5.897618 3.993662 23.218967 22 36 32
-5.851322 3.993759 23.219530 34 24 29
-5.804390 3.993420 23.217560 28 18 28
-5.758127 3.993540 23.218254 36 15 43
-5.712516 3.994117 23.221609 26 25 16
-5.667077 3.994825 23.225725 36 24 30
-5.621637 3.995544 23.229906 23 42 35
-5.575791 3.995984 23.232464 37 17 20
-5.528873 3.995656 23.230560 22 17 24
-5.481326 3.994864 23.225956 39 19 32
-5.432914 3.993424 23.217583 25 30 15
-5.383798 3.991436 23.206026 43 28 32
-5.335151 3.989765 23.196310 38 36 23
-5.286251 3.987874 23.185312 25 36 42
-5.238052 3.986482 23.177223 40 18 33
-5.190975 3.985927 23.173994 33 35 26
-5.144477 3.985811 23.173319 29 42 20
-5.098842 3.986367 23.176554 43 16 44
-5.056296 3.989371 23.194017 29 32 37
-5.014684 3.993175 23.216131 120 120 120
-4.974126 3.997896 23.243582 120 120 120
-4.933888 4.002966 23.273058 120 120 120
-4.891178 4.006108 23.291323 22 42 30
-4.850301 4.010826 23.318754 33 26 15
-4.807212 4.013789 23.335981 20 31 37
-4.765146 4.017672 23.358557 20 25 20
-4.726693 4.024709 23.399471 22 40 31
-4.686968 4.030792 23.434839 38 41 39
-4.650668 4.039974 23.488220 28 15 17
-4.611209 4.046571 23.526575 24 35 39
-4.572398 4.053879 23.569063 26 19 16
-4.537158 4.064538 23.631033 24 17 28
-4.498648 4.072460 23.677095 20 28 42
-4.464215 4.084282 23.745823 27 17 22
-4.426643 4.093455 23.799158 40 15 38
-4.388382 4.102183 23.849901 20 26 24
-4.351465 4.112374 23.909151 41 39 30
-4.309696 4.118154 23.942755 35 35 20
-4.273443 4.129395 24.008108 26 28 19
-4.235733 4.139466 24.066664 33 20 37
-4.199171 4.150905 24.133169 41 31 36
-4.165694 4.165694 24.219152 17 18 42
-4.127357 4.175914 24.278568 18 36 42
-4.094625 4.192116 24.372768 18 20 21
-4.058164 4.204845 24.446772 36 40 29
-7.220058 3.901522 22.422541 32 27 31
-7.184029 3.906316 22.450090 37 26 43
-7.152512 3.913639 22.492176 37 30 18
-7.117596 3.919182 22.524036 27 30 36
-7.082959 3.924952 22.557196 43 18 23
-7.051857 3.932766 22.602104 35 33 30
-7.016260 3.938159 22.633097 30 30 22
-6.984481 3.945778 22.676888 37 24 32
-6.949095 3.951446 22.709459 29 44 22
-6.912523 3.956510 22.738562 44 27 30
-6.877817 3.962716 22.774229 42 43 44
-6.838474 3.966315 22.794914 42 20 44
-6.801390 3.971281 22.823456 36 31 20
-6.761591 3.974719 22.843212 26 20 30
-6.721313 3.977920 22.861609 38 28 41
-6.683186 3.982447 22.887625 39 32 22
-6.642494 3.985497 22.905153 41 23 27
-6.604527 3.990235 22.932384 42 36 27
-6.565053 3.994123 22.954729 33 41 36
-6.525069 3.997754 22.975595 43 41 25
-6.486035 4.002022 23.000124 34 32 19
-6.443973 4.004469 23.014191 20 18 16
-6.402611 4.007390 23.030975 43 31 23
-6.359288 4.009116 23.040899 33 44 40
-6.315216 4.010393 23.048233 34 41 25
-6.272026 4.012252 23.058918 20 35 41
-6.227636 4.013365 23.065317 31 19 40
-6.184773 4.015487 23.077511 24 32 30
-6.141861 4.017608 23.089703 34 43 18
-6.098642 4.019559 23.100916 24 38 41
-6.055145 4.021356 23.111240 34 26 21
-6.009969 4.022056 23.115267 27 44 32
-5.965033 4.022929 23.120283 27 15 19
-5.919764 4.023589 23.124077 42 33 42
-5.873983 4.023910 23.125917 26 35 35
-5.827909 4.024032 23.126623 19 26 25
-5.781307 4.023789 23.125227 33 15 23
-5.735024 4.023767 23.125097 42 18 42
-5.689127 4.024017 23.126534 43 29 17
-5.643291 4.024314 23.128242 32 20 20
-5.597527 4.024668 23.130278 15 31 22
-5.551609 4.024916 23.131702 25 19 27
-5.504606 4.024376 23.128595 29 36 38
-5.457071 4.023434 23.123182 24 20 44
-5.408818 4.021941 23.114605 22 22 25
-5.359948 4.019961 23.103224 41 42 30
-5.311650 4.018379 23.094130 35 32 34
-5.263111 4.016584 23.083818 26 29 21
-5.215182 4.015228 23.076025 15 37 24
-5.168371 4.014717 23.073086 36 39 19
-5.122207 4.014703 23.073006 39 36 17
-5.076884 4.015354 23.076746 36 28 19
-5.034579 4.018426 23.094400 31 20 33
-4.993104 4.022223 23.116222 120 120 120
-4.952644 4.026916 23.143196 120 120 120
-4.912535 4.031986 23.172335 120 120 120
-4.869999 4.035142 23.190470 22 18 36
-4.829366 4.039950 23.218105 22 27 15
-4.786595 4.043046 23.235897 43 31 21
-4.744846 4.047074 23.259048 34 22 43
-4.706658 4.054250 23.300285 17 22 38
-4.667138 4.060410 23.335691 27 34 42
-4.630867 4.069550 23.388218 36 25 37
-4.591357 4.076001 23.425293 17 29 26
-4.552427 4.083105 23.466120 42 39 44
-4.516998 4.093530 23.526033 41 38 39
-4.478416 4.101286 23.570608 36 17 41
-4.444080 4.113138 23.638725 31 16 26
-4.406894 4.122578 23.692978 19 23 16
-4.369075 4.131625 23.744970 19 28 40
-4.332365 4.141931 23.804203 43 43 28
-4.290667 4.147645 23.837040 40 34 34
-4.254588 4.158979 23.902178 41 26 25
-4.217136 4.169214 23.961000 36 29 39
-4.180948 4.180948 24.028435 25 32 31
-4.147994 4.196227 24.116245 34 29 41
-7.137230 3.950165 22.444118 25 22 31
-7.102020 3.955555 22.474747 25 23 16
-7.067173 3.961218 22.506920 43 21 29
-7.035520 3.968755 22.549744 23 35 27
-6.999508 3.973914 22.579058 37 22 38
-6.966943 3.981110 22.619944 38 25 41
-6.930903 3.986402 22.650009 26 42 37
-6.893679 3.991077 22.676575 25 28 26
-6.858202 3.996833 22.709278 30 21 28
-6.818456 4.000161 22.728188 35 30 19
-6.780843 4.004793 22.754507 25 15 34
-6.740814 4.008051 22.773020 38 19 23
-6.700308 4.011069 22.790163 35 33 26
-6.661637 4.015233 22.813826 25 41 23
-6.620530 4.017977 22.829414 35 38 41
-6.582022 4.022347 22.854242 35 17 43
-6.542290 4.026025 22.875139 21 38 32
-6.502105 4.029474 22.894737 42 31 41
-6.462721 4.033472 22.917452 36 28 16
-6.420496 4.035740 22.930344 35 19 22
-6.378666 4.038292 22.944841 18 40 22
-6.334907 4.039651 22.952562 38 29 28
-6.290405 4.040552 22.957684 38 17 20
-6.246748 4.042014 22.965986 25 19 20
-6.202181 4.042903 22.971041 29 41 24
-6.159165 4.044825 22.981958 23 16 33
-6.116307 4.046880 22.993637 39 36 32
-6.073249 4.048833 23.004730 22 24 34
-6.029839 4.050579 23.014652 29 43 25
-5.984801 4.051250 23.018465 21 21 41
-5.939935 4.052048 23.023003 21 35 23
-5.894680 4.052593 23.026094 32 15 43
-5.849002 4.052852 23.027569 33 24 44
-5.803294 4.053094 23.028946 23 19 30
-5.757203 4.053071 23.028812 24 37 44
-5.711064 4.053013 23.028482 21 22 19
-5.664936 4.052963 23.028196 28 25 38
-5.618731 4.052855 23.027586 43 41 44
-5.572679 4.052857 23.027597 18 20 40
-5.526709 4.052920 23.027952 33 42 36
-5.479655 4.052182 23.023760 35 31 30
-5.432160 4.051102 23.017628 30 16 39
-5.384094 4.049575 23.008947 44 30 22
-5.335525 4.047640 22.997953 38 41 22
-5.287619 4.046178 22.989649 24 34 43
-5.239533 4.044551 22.980406 37 15 40
-5.191985 4.043316 22.973385 17 24 33
-5.145533 4.042919 22.971130 17 37 28
-5.099754 4.043049 22.971867 24 36 32
-5.054744 4.043795 22.976109 30 19 18
-5.012612 4.046879 22.993631 17 34 35
-4.971150 4.050567 23.014585 120 120 120
-4.930682 4.055141 23.040571 120 120 120
-4.890697 4.060201 23.069326 120 120 120
-4.848403 4.063424 23.087635 27 22 30
-4.808083 4.068378 23.115784 42 28 30
-4.765656 4.071628 23.134251 20 35 44
-4.724246 4.075820 23.158070 43 16 27
-4.686358 4.083163 23.199791 38 38 36
-4.647063 4.089416 23.235317 44 18 42
-4.610887 4.098566 23.287310 24 26 31
-4.571403 4.104933 23.323483 43 22 27
-4.532431 4.111896 23.363047 15 43 24
-4.496902 4.122160 23.421366 22 21 32
-4.458294 4.129788 23.464705 31 41 33
-4.424010 4.141626 23.531967 24 23 19
-4.387049 4.151186 23.586283 17 24 28
-4.349522 4.160412 23.638706 44 27 33
-4.313039 4.170851 23.698015 30 36 27
-4.271540 4.176617 23.730776 17 27 40
-4.235676 4.188085 23.795935 19 44 39
-4.198458 4.198458 23.854874 35 38 41
-7.013630 4.001366 22.479582 25 37 18
-6.977210 4.006269 22.507130 15 28 17
-6.943803 4.012977 22.544815 44 31 21
-6.907013 4.017805 22.571938 43 40 23
-6.869041 4.022004 22.595530 42 29 20
-6.832691 4.027215 22.624804 25 20 20
-6.792499 4.030216 22.641665 33 23 18
-6.754259 4.034423 22.665298 15 36 29
-6.713917 4.037423 22.682154 36 34 29
-6.673108 4.040181 22.697647 17 34 17
-6.633775 4.043877 22.718409 16 38 28
-6.592191 4.046241 22.731693 20 31 19
-6.553021 4.050131 22.753546 19 36 42
-6.512945 4.053511 22.772533 39 28 26
-6.472471 4.056689 22.790390 33 34 41
-6.432607 4.060298 22.810663 44 34 28
-6.390145 4.062307 22.821947 21 20 23
-6.347725 4.064370 22.833542 16 35 21
-6.303447 4.065267 22.838577 38 23 21
-6.258447 4.065707 22.841049 28 31 29
-6.214226 4.066663 22.846420 38 15 35
-6.169453 4.067269 22.849825 20 34 24
-6.126246 4.068924 22.859125 29 33 43
-6.083466 4.070891 22.870173 24 24 28
-6.040606 4.072833 22.881084 27 36 28
-5.997296 4.074499 22.890444 24 32 40
-5.952412 4.075113 22.893894 29 39 24
-5.907642 4.075815 22.897839 19 23 32
-5.862463 4.076244 22.900246 32 37 44
-5.816942 4.076440 22.901346 17 28 19
-5.771631 4.076787 22.903297 16 19 44
-5.726069 4.076961 22.904276 18 32 43
-5.680058 4.076816 22.903460 39 16 18
-5.633700 4.076417 22.901218 30 19 43
-5.587100 4.075835 22.897949 39 25 44
-5.540713 4.075400 22.895508 21 15 19
-5.494669 4.075213 22.894453 22 25 28
-5.447524 4.074199 22.888756 33 31 39
-5.400057 4.072924 22.881598 38 42 20
-5.352195 4.071328 22.872629 33 41 32
-5.303966 4.069422 22.861921 38 37 42
-5.256530 4.068097 22.854477 31 41 28
-5.209007 4.066681 22.846521 37 27 23
-5.161969 4.065622 22.840570 38 34 32
-5.115998 4.065391 22.839275 34 32 35
-5.070718 4.065711 22.841072 19 27 36
-5.026090 4.066564 22.845865 38 27 20
-4.984199 4.069667 22.863297 40 24 38
-4.942776 4.073213 22.883221 120 120 120
-4.902361 4.077665 22.908230 120 120 120
-4.862641 4.082783 22.936985 120 120 120
-4.820757 4.086166 22.955988 18 32 26
-4.780985 4.091420 22.985506 28 34 38
-4.739104 4.094954 23.005362 44 24 30
-4.698234 4.099439 23.030558 19 39 17
-4.660880 4.107112 23.073666 35 37 31
-4.621982 4.113564 23.109911 42 31 26
-4.586102 4.122860 23.162132 35 22 36
-4.546817 4.129252 23.198048 35 27 34
-4.507936 4.136148 23.236784 41 42 35
-4.472446 4.146330 23.293987 20 31 18
-4.433897 4.153861 23.336300 20 15 37
-4.399711 4.165683 23.402716 25 29 28
-4.362954 4.175300 23.456741 40 15 39
-4.325730 4.184674 23.509403 20 39 44
-4.289645 4.195367 23.569477 33 38 39
-4.248579 4.201373 23.603218 40 40 28
-6.891321 4.053719 22.520658 18 37 35
-6.852870 4.057620 22.542336 26 22 43
-6.815973 4.062500 22.569447 38 36 32
-6.775532 4.065319 22.585106 28 39 18
-6.736890 4.069262 22.607014 30 32 32
-6.696337 4.072097 22.622759 19 26 16
-6.655286 4.074665 22.637028 44 28 26
-6.615509 4.078054 22.655853 15 26 35
-6.573608 4.080171 22.667614 26 39 36
-6.533970 4.083731 22.687397 34 29 38
-6.493620 4.086894 22.704966 23 28 17
-6.452900 4.089866 22.721479 20 23 18
-6.412664 4.093190 22.739944 23 31 37
-6.370020 4.095013 22.750071 37 15 37
-6.327176 4.096733 22.759626 20 18 17
-6.282539 4.097308 22.762823 21 43 33
-6.237203 4.097432 22.763514 33 38 24
-6.192587 4.098036 22.766865 36 23 40
-6.147659 4.098439 22.769108 20 29 40
-6.104299 4.099903 22.777237 38 40 36
-6.061549 4.101800 22.787779 37 29 24
-6.018798 4.103726 22.798479 37 15 23
-5.975515 4.105316 22.807310 27 25 30
-5.930711 4.105877 22.810427 42 43 35
-5.885999 4.106511 22.813948 44 36 26
-5.840877 4.106867 22.815928 27 22 40
-5.795491 4.107041 22.816893 33 27 30
-5.750455 4.107468 22.819267 22 38 34
-5.705259 4.107787 22.821037 17 31 19
-5.659371 4.107608 22.820044 35 21 21
-5.612908 4.107006 22.816698 17 36 24
-5.566100 4.106139 22.811884 36 24 36
-5.519522 4.105430 22.807943 19 32 17
-5.473437 4.105078 22.805986 28 29 40
-5.426232 4.103873 22.799294 18 35 25
-5.378781 4.102460 22.791443 15 20 16
-5.331052 4.100809 22.782274 43 40 22
-5.283045 4.098914 22.771744 38 15 28
-5.235922 4.097678 22.764877 25 38 41
-5.188797 4.096419 22.757883 15 21 40
-5.142143 4.095512 22.752846 22 22 39
-5.096537 4.095432 22.752399 23 28 31
-5.051615 4.095904 22.755024 28 36 19
-5.007243 4.096835 22.760195 18 22 42
-4.965490 4.099946 22.777475 26 23 15
-4.924047 4.103372 22.796513 120 120 120
-4.883649 4.107742 22.820787 120 120 120
-4.844152 4.112959 22.849773 120 120 120
-4.802619 4.116531 22.869616 22 35 30
-4.763316 4.122101 22.900558 39 20 15
-4.721857 4.125894 22.921635 38 34 29
-4.681409 4.130655 22.948084 32 36 37
-4.644501 4.138664 22.992579 44 38 28
-4.605923 4.145330 23.029613 29 16 28
-4.570360 4.154873 23.082626 37 20 29
-4.531318 4.161414 23.118967 37 19 27
-4.492606 4.168397 23.157761 26 16 27
-4.457259 4.178680 23.214890 17 27 24
-4.418815 4.186246 23.256922 39 26 41
-4.384688 4.198106 23.322811 43 25 21
-4.347946 4.207690 23.376053 41 28 23
-4.310821 4.217108 23.428375 36 35 29
-6.790125 4.092062 22.483858 21 40 31
-6.749312 4.094583 22.497707 37 16 16
-6.710042 4.098079 22.516920 28 38 29
-6.669076 4.100580 22.530661 37 26 30
-6.627613 4.102808 22.542902 38 41 20
-6.587151 4.105690 22.558737 40 41 27
-6.544812 4.107434 22.568317 31 33 19
-6.504559 4.110520 22.585274 27 31 32
-6.463870 4.113372 22.600943 21 23 42
-6.422883 4.116073 22.615786 23 39 39
-6.382225 4.119025 22.632004 29 32 15
-6.339408 4.120615 22.640741 35 16 27
-6.296103 4.121909 22.647854 44 40 40
-6.251075 4.122086 22.648823 25 29 18
-6.205394 4.121831 22.647423 24 41 34
-6.160379 4.122018 22.648451 29 43 39
-6.115353 4.122201 22.649456 34 31 38
-6.071892 4.123449 22.656313 37 42 36
-6.029224 4.125259 22.666256 34 23 15
-5.986651 4.127161 22.676710 22 40 38
-5.943464 4.128666 22.684977 29 29 38
-5.898807 4.129165 22.687719 42 25 15
-5.854259 4.129749 22.690928 41 33 43
-5.809353 4.130087 22.692783 28 18 37
-5.764231 4.130275 22.693821 28 32 16
-5.719537 4.130777 22.696575 26 38 34
-5.674719 4.131195 22.698875 43 32 22
