ply
format ascii 1.0
element vertex 1256
property float x
property float y
property float z
property uchar red
property uchar green
property uchar blue
end_header
-7.230352 1.764550 21.518904 41 15 43
-7.196362 1.766771 21.545994 24 35 39
-7.165396 1.769766 21.582518 38 36 27
-7.130976 1.771940 21.609018 26 41 30
-7.098844 1.774711 21.642818 38 15 33
-7.062045 1.776343 21.662716 25 27 24
-7.025168 1.777975 21.682617 34 37 31
-6.992334 1.780656 21.715322 41 40 31
-6.956909 1.782708 21.740341 27 39 38
-6.926905 1.786183 21.782719 33 44 43
-6.894524 1.789085 21.818115 38 24 19
-6.862709 1.792172 21.855761 41 35 19
-6.833704 1.796038 21.902899 41 27 20
-6.799447 1.798563 21.933699 18 26 25
-6.770215 1.802460 21.981218 16 44 18
-6.737524 1.805480 22.018051 34 38 27
-6.704784 1.808527 22.055212 35 43 28
-6.675483 1.812548 22.104250 31 33 29
-6.641079 1.815228 22.136929 22 34 37
-6.610983 1.819129 22.184505 39 36 36
-6.577193 1.822060 22.220245 16 27 20
-6.542656 1.824822 22.253931 27 23 19
-6.510686 1.828343 22.296869 19 22 38
-6.473844 1.830535 22.323599 24 41 38
-6.440595 1.833781 22.363178 22 33 34
-6.404392 1.836224 22.392979 37 26 25
-6.367804 1.838591 22.421846 17 31 33
-6.333774 1.841736 22.460190 28 25 17
-6.295903 1.843800 22.485367 16 30 40
-6.260920 1.846746 22.521296 30 35 40
-6.223334 1.848962 22.548313 30 35 40
-6.184880 1.850950 22.572556 30 35 40
-6.147795 1.853379 22.602188 30 35 40
-6.107228 1.854788 22.619362 30 35 40
-6.068621 1.856817 22.644108 30 35 40
-6.028669 1.858462 22.664167 30 35 40
-5.987549 1.859769 22.680111 30 35 40
-5.946310 1.861059 22.695841 30 35 40
-5.902430 1.861536 22.701653 30 35 40
-5.858876 1.862123 22.708822 30 35 40
-5.814253 1.862378 22.711927 30 35 40
-5.769820 1.862698 22.715828 30 35 40
-5.726891 1.863512 22.725760 30 35 40
-5.683784 1.864281 22.735136 30 35 40
-5.642367 1.865621 22.751480 30 35 40
-5.600355 1.866785 22.765671 30 35 40
-5.558440 1.868000 22.780493 33 27 30
-5.517321 1.869506 22.798849 29 27 32
-5.474584 1.870483 22.810766 44 22 20
-5.431666 1.871414 22.822124 20 18 18
-5.386974 1.871745 22.826160 31 34 39
-5.341584 1.871837 22.827284 22 17 36
-5.296562 1.872061 22.830008 16 15 43
-5.251111 1.872135 22.830919 31 39 32
-5.207958 1.873037 22.841919 22 20 18
-5.165013 1.874031 22.854038 24 20 30
-5.123929 1.875724 22.874681 21 27 20
-5.084530 1.878070 22.903288 30 40 20
-5.043769 1.879950 22.926222 18 15 15
-5.009918 1.884464 22.981274 17 21 24
-4.975372 1.888799 23.034128 120 120 120
-4.943694 1.894313 23.101376 120 120 120
-4.916777 1.901772 23.192345 120 120 120
-4.884697 1.907358 23.260464 33 34 32
-4.857941 1.915150 23.355484 21 25 30
-4.824569 1.920460 23.420238 35 44 35
-4.791054 1.925816 23.485558 40 27 23
-4.763629 1.933750 23.582321 35 36 44
-4.730495 1.939503 23.652477 33 27 38
-4.702849 1.947644 23.751760 24 39 19
-4.669397 1.953523 23.823452 35 42 30
-4.634940 1.959099 23.891445 26 16 16
-4.604404 1.966464 23.981270 35 41 34
-4.567426 1.971205 24.039085 39 19 19
-4.536024 1.978479 24.127787 27 16 41
-4.500637 1.984152 24.196972 28 17 33
-4.464853 1.989771 24.265505 30 23 19
-4.432217 1.996933 24.352840 35 25 32
-4.393533 2.001498 24.408518 30 20 16
-4.360948 2.008976 24.499706 17 29 39
-4.325076 2.015092 24.574297 32 27 42
-4.289353 2.021419 24.651453 21 26 32
-4.257195 2.029593 24.751131 27 22 18
-4.218920 2.035008 24.817177 34 33 39
-4.185380 2.042864 24.912973 20 29 20
-4.147071 2.048553 24.982357 36 33 32
-4.108396 2.054198 25.051197 16 28 22
-4.073889 2.062092 25.147461 37 30 36
-4.034244 2.067550 25.214027 42 21 21
-3.999062 2.075463 25.310520 34 36 36
-3.959507 2.081279 25.381456 43 38 34
-3.919358 2.086931 25.450378 20 21 40
-3.882410 2.094458 25.542171 22 18 28
-3.840375 2.099405 25.602501 21 40 18
-3.802851 2.106985 25.694942 26 33 34
-3.762343 2.113097 25.769472 30 37 42
-3.720870 2.118829 25.839376 42 28 16
-3.680763 2.125511 25.920864 24 16 34
-3.635362 2.129284 25.966873 34 27 34
-7.467278 1.792147 21.335081 25 20 39
-7.429144 1.793242 21.348114 23 21 20
-7.390862 1.794313 21.360872 19 35 21
-7.353917 1.795724 21.377665 19 36 26
-7.318427 1.797508 21.398911 19 23 16
-7.280809 1.798788 21.414145 32 33 35
-7.247751 1.801216 21.443050 17 19 22
-7.213414 1.803354 21.468494 20 31 42
-7.180202 1.805799 21.497612 42 35 39
-7.150053 1.809050 21.536304 41 21 27
-7.116087 1.811368 21.563900 33 41 21
-7.084547 1.814335 21.599230 26 15 22
-7.048226 1.816107 21.620325 43 23 38
-7.011724 1.817854 21.641123 35 38 25
-6.979267 1.820678 21.674742 42 23 33
-6.944024 1.822806 21.700075 22 18 26
-6.914158 1.826381 21.742636 36 27 19
-6.881876 1.829359 21.778088 39 34 33
-6.850052 1.832498 21.815451 20 27 26
-6.820955 1.836411 21.862036 40 44 43
-6.786595 1.838948 21.892241 42 44 18
-6.757249 1.842886 21.939119 32 25 38
-6.724577 1.845962 21.975742 18 24 28
-6.691854 1.849065 22.012676 40 40 36
-6.662438 1.853129 22.061054 24 31 28
-6.627926 1.855819 22.093086 29 17 44
-6.597743 1.859767 22.140078 37 42 30
-6.563953 1.862744 22.175518 36 16 34
-6.529522 1.865578 22.209259 28 37 38
-6.497767 1.869221 22.252628 29 19 17
-6.461199 1.871520 22.279997 25 36 29
-6.428259 1.874909 22.320343 31 39 39
-6.392250 1.877444 22.350525 32 40 26
-6.355857 1.879901 22.379778 17 17 43
-6.322138 1.883190 22.418928 30 34 30
-6.284540 1.885362 22.444786 24 29 42
-6.249813 1.888433 22.481342 30 35 40
-6.212378 1.890724 22.508615 30 35 40
-6.173989 1.892756 22.532806 30 35 40
-6.136950 1.895234 22.562315 30 35 40
-6.096398 1.896657 22.579250 30 35 40
-6.057732 1.898692 22.603477 30 35 40
-6.017747 1.900341 22.623110 30 35 40
-5.976559 1.901632 22.638481 30 35 40
-5.935196 1.902887 22.653419 30 35 40
-5.891241 1.903324 22.658621 30 35 40
-5.847547 1.903853 22.664911 30 35 40
-5.802870 1.904067 22.667459 30 35 40
-5.758360 1.904339 22.670708 30 35 40
-5.715258 1.905086 22.679594 30 35 40
-5.672029 1.905802 22.688114 30 35 40
-5.630377 1.907063 22.703135 30 35 40
-5.588185 1.908161 22.716200 30 35 40
-5.546120 1.909320 22.730000 30 35 40
-5.504842 1.910772 22.747280 16 32 18
-5.462093 1.911733 22.758720 44 19 31
-5.419090 1.912620 22.769285 21 38 38
-5.374349 1.912904 22.772665 15 31 20
-5.328927 1.912948 22.773193 34 28 20
-5.283865 1.913124 22.775282 18 16 44
-5.238452 1.913174 22.775877 34 21 36
-5.195248 1.914039 22.786175 31 15 36
-5.152302 1.915015 22.797794 17 41 24
-5.111122 1.916671 22.817511 21 35 20
-5.071450 1.918927 22.844370 33 32 37
-5.030443 1.920715 22.865652 26 37 37
-4.996159 1.925126 22.918161 18 32 36
-4.961276 1.929385 22.968872 120 120 120
-4.929287 1.934860 23.034052 120 120 120
-4.902016 1.942308 23.122715 120 120 120
-4.869802 1.947921 23.189533 28 35 17
-4.842732 1.955719 23.282368 39 43 16
-4.809124 1.961002 23.345263 19 15 28
-4.775373 1.966330 23.408693 18 40 24
-4.747594 1.974247 23.502941 16 36 43
-4.714286 1.980000 23.571430 33 15 18
-4.686405 1.988172 23.668715 36 40 21
-4.652912 1.994105 23.739349 16 27 43
-4.618434 1.999734 23.806360 18 25 20
-4.587666 2.007104 23.894094 36 20 24
-4.550533 2.011814 23.950172 43 20 18
-4.518936 2.019099 24.036892 17 25 17
-4.483511 2.024812 24.104900 35 44 26
-4.447780 2.030508 24.172718 35 24 16
-4.415223 2.037795 24.259468 38 38 16
-4.376734 2.042476 24.315187 34 31 26
-4.344239 2.050090 24.405836 34 38 29
-4.308376 2.056270 24.479410 18 17 21
-4.272665 2.062666 24.555548 22 25 41
-4.240581 2.070982 24.654543 15 44 38
-4.202486 2.076523 24.720509 40 21 42
-4.169038 2.084519 24.815701 36 23 34
-4.130800 2.090284 24.884335 19 44 16
-4.092149 2.095979 24.952127 26 42 16
-4.057614 2.103948 25.046999 22 38 20
-4.017993 2.109446 25.112455 33 15 24
-3.982751 2.117412 25.207285 33 25 30
-3.943200 2.123261 25.276920 27 16 34
-3.903066 2.128945 25.344584 27 30 25
-3.866092 2.136524 25.434814 28 38 36
-3.824122 2.141508 25.494144 44 23 24
-3.786603 2.149153 25.585155 16 18 29
-3.746031 2.155251 25.657747 26 39 18
-3.704703 2.161077 25.727104 40 19 35
-3.665237 2.168169 25.811531 21 27 29
-3.620709 2.172425 25.862204 41 39 17
-3.579276 2.178690 25.936781 43 21 17
-7.485899 1.828941 21.266758 21 34 21
-7.445817 1.829544 21.273762 26 42 41
-7.408588 1.830858 21.289047 16 17 27
-7.370792 1.832046 21.302866 34 33 34
-7.334304 1.833576 21.320650 33 19 24
-7.299707 1.835599 21.344172 22 36 16
-7.262886 1.837083 21.361429 20 37 32
-7.230778 1.839784 21.392834 34 30 19
-7.197108 1.842117 21.419966 38 36 26
-7.164422 1.844731 21.450365 39 15 34
-7.134827 1.848178 21.490444 39 19 40
-7.101141 1.850600 21.518610 35 18 17
-7.070076 1.853740 21.555111 38 37 16
-7.034271 1.855667 21.577518 34 40 34
-6.998215 1.857551 21.599428 20 24 24
-6.966116 1.860515 21.633900 24 27 36
-6.931011 1.862709 21.659410 40 19 38
-6.901184 1.866358 21.701838 28 31 28
-6.868886 1.869380 21.736980 22 15 30
-6.836947 1.872540 21.773718 17 42 44
-6.807663 1.876471 21.819433 27 18 42
-6.773164 1.879007 21.848915 34 19 26
-6.743623 1.882960 21.894880 29 44 36
-6.710889 1.886067 21.931009 35 37 38
-6.678100 1.889199 21.967434 37 19 43
-6.648489 1.893278 22.014866 19 41 20
-6.613834 1.895966 22.046114 35 20 28
-6.583540 1.899948 22.092415 37 22 16
-6.549759 1.902970 22.127563 42 44 39
-6.515462 1.905884 22.161436 37 39 19
-6.483932 1.909651 22.205246 39 33 33
-6.447634 1.912057 22.233221 15 36 36
-6.414966 1.915580 22.274189 16 39 41
-6.379104 1.918192 22.304560 18 34 15
-6.342854 1.920723 22.333994 30 27 42
-6.309368 1.924133 22.373644 41 41 36
-6.271992 1.926398 22.399973 16 22 39
-6.237438 1.929567 22.436829 30 35 40
-6.200096 1.931914 22.464117 30 35 40
-6.161734 1.933975 22.488081 30 35 40
-6.124697 1.936485 22.517267 30 35 40
-6.084141 1.937912 22.533855 30 35 40
-6.045460 1.939961 22.557688 30 35 40
-6.005501 1.941628 22.577072 30 35 40
-5.964345 1.942931 22.592216 30 35 40
-5.922978 1.944184 22.606787 30 35 40
-5.879048 1.944608 22.611723 30 35 40
-5.835346 1.945115 22.617619 30 35 40
-5.790716 1.945319 22.619986 30 35 40
-5.746215 1.945569 22.622894 30 35 40
-5.703035 1.946274 22.631092 30 35 40
-5.659740 1.946951 22.638960 30 35 40
-5.617900 1.948143 22.652821 30 35 40
-5.575543 1.949174 22.664810 30 35 40
-5.533320 1.950269 22.677542 30 35 40
-5.491877 1.951659 22.693705 27 32 38
-5.449091 1.952591 22.704546 19 27 31
-5.405994 1.953426 22.714260 41 20 38
-5.361204 1.953659 22.716965 24 40 24
-5.315757 1.953654 22.716909 22 37 29
-5.270653 1.953777 22.718332 30 41 28
-5.225281 1.953801 22.718615 24 18 33
-5.182022 1.954622 22.728167 42 31 23
-5.139061 1.955572 22.739206 44 39 41
-5.097779 1.957183 22.757942 41 26 40
-5.057858 1.959350 22.783142 39 24 43
-5.016647 1.961053 22.802942 42 26 43
-4.981973 1.965366 22.853088 27 29 25
-4.946788 1.969555 22.901798 120 120 120
-4.914521 1.974995 22.965054 120 120 120
-4.886931 1.982434 23.051561 120 120 120
-4.854609 1.988078 23.117186 42 22 31
-4.827340 1.995920 23.208366 21 21 20
-4.793648 2.001232 23.270136 43 32 28
-4.759832 2.006596 23.332512 36 40 18
-4.731855 2.014552 23.425024 34 39 40
-4.698446 2.020332 23.492229 18 42 22
-4.670435 2.028573 23.588057 39 38 19
-4.636970 2.034589 23.658010 44 16 32
-4.602541 2.040301 23.724436 20 34 16
-4.571676 2.047730 23.810814 43 21 27
-4.534482 2.052450 23.865696 17 34 33
-4.502793 2.059788 23.951025 39 17 27
-4.467368 2.065557 24.018108 17 44 22
-4.431705 2.071341 24.085356 15 35 37
-4.399235 2.078760 24.171623 25 40 26
-4.360922 2.083552 24.227345 16 23 44
-4.328498 2.091297 24.317402 21 28 17
-4.292655 2.097547 24.390085 42 36 34
-4.256943 2.104006 24.465191 22 31 28
-4.224893 2.112447 24.563332 42 25 39
-4.186924 2.118091 24.628967 19 32 31
-4.153495 2.126194 24.723185 27 18 28
-4.115268 2.132007 24.790773 41 26 17
-4.076604 2.137731 24.857340 35 32 16
-4.041999 2.145753 24.950611 25 19 27
-4.002390 2.151284 25.014935 35 20 40
-3.967116 2.159316 25.108326 30 31 42
-3.927600 2.165215 25.176924 33 35 18
-3.887537 2.170962 25.243746 24 42 26
-3.850597 2.178627 25.332876 20 26 31
-3.808730 2.183672 25.391535 24 16 41
-3.771292 2.191426 25.481701 43 28 27
-3.730730 2.197553 25.552944 21 34 17
-3.689615 2.203520 25.622326 29 17 29
-3.650833 2.211068 25.710091 15 16 36
-3.607165 2.215830 25.765463 15 38 21
-3.566226 2.222431 25.842218 15 22 29
-3.521802 2.227022 25.895603 24 29 22
-7.493869 1.862883 21.169123 18 30 33
-7.455150 1.863787 21.179403 22 20 24
-7.416064 1.864610 21.188753 15 26 42
-7.379866 1.866173 21.206512 22 17 41
-7.342525 1.867463 21.221170 16 15 19
-7.306498 1.869104 21.239820 35 39 15
-7.272979 1.871410 21.266022 37 32 18
-7.237200 1.873158 21.285881 34 18 31
-7.206361 1.876212 21.320595 27 38 16
-7.173574 1.878793 21.349924 31 32 31
-7.141622 1.881625 21.382103 22 21 19
-7.112835 1.885330 21.424202 28 31 15
-7.079597 1.887892 21.453323 20 21 29
-7.049294 1.891274 21.491749 43 24 16
-7.014288 1.893428 21.516222 32 30 41
-6.978927 1.895511 21.539898 34 41 36
-6.947408 1.898670 21.575800 27 43 33
-6.912526 1.900945 21.601645 36 18 19
-6.882766 1.904665 21.643919 37 30 33
-6.850419 1.907712 21.678541 20 44 32
-6.818300 1.910861 21.714333 31 42 24
-6.788768 1.914781 21.758873 29 34 26
-6.754097 1.917292 21.787409 32 38 42
-6.724328 1.921237 21.832233 38 32 40
-6.691518 1.924358 21.867706 40 31 35
-6.658661 1.927507 21.903490 32 44 29
-6.628801 1.931571 21.949671 27 19 25
-6.593956 1.934227 21.979853 31 31 43
-6.563504 1.938216 22.025181 35 17 27
-6.529744 1.941275 22.059946 30 30 25
-6.495591 1.944258 22.093845 27 35 15
-6.464240 1.948127 22.137810 36 15 20
-6.428190 1.950623 22.166172 18 31 34
-6.395667 1.954232 22.207178 19 37 43
-6.359832 1.956871 22.237175 15 29 36
-6.323572 1.959417 22.266098 35 35 36
-6.290146 1.962882 22.305483 36 16 44
-6.252905 1.965199 22.331802 30 35 40
-6.218378 1.968407 22.368265 30 35 40
-6.181012 1.970758 22.394972 30 35 40
-6.142597 1.972805 22.418236 30 35 40
-6.105495 1.975307 22.446672 30 35 40
-6.064954 1.976726 22.462791 30 35 40
-6.026327 1.978794 22.486296 30 35 40
-5.986506 1.980498 22.505663 30 35 40
-5.945551 1.981850 22.521027 30 35 40
-5.904396 1.983156 22.535864 30 35 40
-5.860668 1.983611 22.541029 30 35 40
-5.817199 1.984161 22.547281 30 35 40
-5.772814 1.984405 22.550055 30 35 40
-5.728503 1.984678 22.553162 30 35 40
-5.685421 1.985385 22.561193 30 35 40
-5.642172 1.986045 22.568689 30 35 40
-5.600212 1.987172 22.581501 30 35 40
-5.557730 1.988131 22.592398 30 35 40
-5.515334 1.989137 22.603828 30 35 40
-5.473687 1.990432 22.618540 21 22 24
-5.430833 1.991305 22.628469 20 21 25
-5.387558 1.992038 22.636797 33 43 31
-5.342662 1.992179 22.638399 38 37 22
-5.297129 1.992083 22.637304 21 28 17
-5.251913 1.992105 22.637558 42 32 38
-5.206559 1.992075 22.637215 44 15 24
-5.163208 1.992817 22.645647 29 15 38
-5.120221 1.993714 22.655846 20 42 19
-5.078864 1.995268 22.673502 22 18 22
-5.038719 1.997330 22.696932 18 39 27
-4.997363 1.998945 22.715288 21 44 22
-4.962384 2.003164 22.763229 27 42 27
-4.926987 2.007291 22.810123 120 120 120
-4.894544 2.012710 22.871700 120 120 120
-4.866747 2.020159 22.956352 120 120 120
-4.834405 2.025846 23.020975 29 29 40
-4.807127 2.033785 23.111189 38 38 36
-4.773577 2.039198 23.172705 36 17 39
-4.739919 2.044671 23.234896 17 25 25
-4.711946 2.052729 23.326468 34 41 26
-4.678539 2.058557 23.392694 16 22 42
-4.650538 2.066906 23.487564 41 22 24
-4.617214 2.073035 23.557217 30 25 18
-4.582941 2.078860 23.623409 26 28 25
-4.552140 2.086398 23.709063 23 15 29
-4.515015 2.091165 23.763239 16 25 38
-4.483370 2.098599 23.847712 17 20 16
-4.448046 2.104452 23.914228 23 38 17
-4.412518 2.110335 23.981077 42 19 28
-4.380210 2.117904 24.067089 23 22 33
-4.342121 2.122815 24.122894 24 21 26
-4.309780 2.130678 24.212248 31 20 30
-4.273953 2.136977 24.283825 31 40 31
-4.238205 2.143460 24.357500 29 33 35
-4.206113 2.151965 24.454144 38 18 28
-4.168208 2.157661 24.518869 16 36 20
-4.134672 2.165780 24.611141 32 31 18
-4.096361 2.171565 24.676872 37 39 22
-4.057567 2.177231 24.741261 34 40 39
-4.022730 2.185187 24.831669 18 41 27
-3.983033 2.190668 24.893957 21 25 36
-3.947581 2.198653 24.984692 40 20 15
-3.908044 2.204538 25.051563 21 28 15
-3.868013 2.210293 25.116964 23 21 23
-3.831032 2.217966 25.204155 17 19 29
-3.789247 2.223025 25.261646 22 29 38
-3.751883 2.230849 25.350559 22 38 42
-3.711401 2.237009 25.420557 35 23 25
-3.670560 2.243120 25.490002 25 16 23
-3.632361 2.251040 25.580004 22 30 36
-3.589413 2.256203 25.638666 35 17 44
-3.549131 2.263214 25.718344 23 36 21
-3.505168 2.268050 25.773294 41 40 32
-3.460326 2.272453 25.823332 23 19 26
-7.512202 1.899152 21.101692 32 22 35
-7.472268 1.899729 21.108101 25 21 34
-7.434428 1.900848 21.120535 25 28 43
-7.395979 1.901823 21.131369 39 33 29
-7.360391 1.903549 21.150549 25 30 42
-7.323252 1.904892 21.165468 15 19 34
-7.287437 1.906597 21.184410 21 39 30
-7.254564 1.909096 21.212175 27 18 38
-7.219471 1.911036 21.233738 35 22 22
-7.189419 1.914342 21.270470 16 26 23
-7.157139 1.917091 21.301008 31 17 35
-7.125600 1.920072 21.334133 23 19 35
-7.097283 1.923962 21.377359 27 15 31
-7.064320 1.926633 21.407030 27 42 15
-7.034543 1.930210 21.446777 22 36 31
-7.000159 1.932559 21.472881 41 21 41
-6.965346 1.934818 21.497980 36 34 18
-6.934260 1.938147 21.534969 33 18 42
-6.899534 1.940494 21.561043 32 41 33
-6.869781 1.944278 21.603085 17 32 33
-6.837349 1.947346 21.637180 44 18 34
-6.805039 1.950489 21.672098 35 28 24
-6.775295 1.954412 21.715689 24 43 24
-6.740507 1.956922 21.743572 40 39 35
-6.710553 1.960876 21.787510 35 25 35
-6.677668 1.964020 21.822443 39 38 24
-6.644736 1.967191 21.857683 36 34 36
-6.614673 1.971260 21.902889 32 22 35
-6.579684 1.973905 21.932281 39 18 41
-6.549115 1.977920 21.976894 22 17 40
-6.515370 1.981025 22.011385 21 28 26
-6.481305 1.984073 22.045256 22 36 38
-6.450024 1.988021 22.089123 19 41 19
-6.414082 1.990577 22.117525 37 36 43
-6.381530 1.994228 22.158091 28 18 34
-6.345609 1.996870 22.187443 39 36 19
-6.309220 1.999401 22.215565 20 32 37
-6.275673 2.002874 22.254158 22 16 43
-6.238414 2.005205 22.280050 37 32 19
-6.203770 2.008415 22.315720 30 35 40
-6.166288 2.010746 22.341621 30 35 40
-6.127775 2.012773 22.364141 30 35 40
-6.090575 2.015264 22.391819 30 35 40
-6.050046 2.016682 22.407578 30 35 40
-6.011513 2.018792 22.431019 30 35 40
-5.971866 2.020556 22.450623 30 35 40
-5.931165 2.021988 22.466534 30 35 40
-5.890308 2.023388 22.482092 30 35 40
-5.846845 2.023908 22.487865 30 35 40
-5.803713 2.024551 22.495010 30 35 40
-5.759631 2.024870 22.498558 30 35 40
-5.715571 2.025202 22.502249 30 35 40
-5.672707 2.025967 22.510742 30 35 40
-5.629572 2.026646 22.518288 30 35 40
-5.587625 2.027767 22.530745 30 35 40
-5.545104 2.028697 22.541073 30 35 40
-5.502606 2.029650 22.551662 30 35 40
-5.460824 2.030885 22.565390 30 35 40
-5.417905 2.031715 22.574606 34 43 37
-5.374476 2.032365 22.581833 24 29 21
-5.329485 2.032431 22.582563 31 29 37
-5.283871 2.032258 22.580645 27 42 44
-5.238551 2.032197 22.579962 32 44 27
-5.193186 2.032116 22.579069 40 37 44
-5.149764 2.032802 22.586685 31 18 31
-5.106753 2.033663 22.596254 29 42 15
-5.065376 2.035196 22.613285 34 33 24
-5.025144 2.037221 22.635784 41 29 22
-4.983772 2.038816 22.653509 34 18 17
-4.948714 2.043047 22.700523 30 34 40
-4.913284 2.047202 22.746685 120 120 120
-4.880845 2.052692 22.807688 120 120 120
-4.853033 2.060250 22.891665 120 120 120
-4.820752 2.066037 22.955961 41 32 43
-4.793646 2.074174 23.046377 32 26 44
-4.760382 2.079779 23.108652 17 23 24
-4.727035 2.085457 23.171740 28 34 21
-4.699266 2.093732 23.263693 18 42 24
-4.665957 2.099681 23.329784 30 37 29
-4.638095 2.108225 23.424723 41 23 42
-4.604948 2.114517 23.494635 29 34 42
-4.570860 2.120502 23.561134 33 35 43
-4.540243 2.128239 23.647097 34 34 21
-4.503280 2.133133 23.701475 33 33 15
-4.471789 2.140750 23.786110 26 17 24
-4.436597 2.146741 23.852674 33 21 36
-4.401186 2.152754 23.919491 16 35 41
-4.369012 2.160500 24.005558 26 29 18
-4.331059 2.165529 24.061438 17 33 36
-4.298761 2.173531 24.150343 29 44 26
-4.262939 2.179912 24.221243 26 24 22
-4.227138 2.186450 24.293894 39 38 24
-4.194957 2.195036 24.389286 16 36 17
-4.157025 2.200778 24.453089 41 22 23
-4.123319 2.208921 24.543568 25 15 19
-4.084876 2.214692 24.607687 24 39 18
-4.045920 2.220322 24.670242 19 34 40
-4.010840 2.228244 24.758270 26 32 43
-3.971020 2.233699 24.818874 38 34 43
-3.935400 2.241684 24.907597 31 25 39
-3.895820 2.247588 24.973204 20 16 15
-3.855801 2.253390 25.037666 23 17 42
-3.818774 2.261116 25.123516 20 44 36
-3.777030 2.266218 25.180202 16 25 32
-3.739729 2.274160 25.268442 31 17 43
-3.699374 2.280436 25.338179 44 36 25
-3.658741 2.286713 25.407925 28 32 16
-3.620789 2.294866 25.498516 17 30 24
-3.578111 2.300214 25.557936 33 27 38
-3.538314 2.307596 25.639956 39 25 38
-3.494993 2.312863 25.698475 28 39 37
-3.450652 2.317602 25.751137 33 42 44
-3.408079 2.323690 25.818777 24 36 40
-7.520017 1.932518 21.005634 25 31 25
-7.480761 1.933230 21.013372 32 28 38
-7.442179 1.934126 21.023104 28 23 44
-7.405693 1.935579 21.038900 26 30 21
-7.368131 1.936766 21.051802 33 34 36
-7.333290 1.938686 21.072672 34 23 44
-7.296328 1.940064 21.087654 27 38 18
-7.260611 1.941791 21.106426 34 18 33
-7.228308 1.944457 21.135405 38 21 42
-7.193869 1.946576 21.158440 28 23 36
-7.164497 1.950100 21.196737 19 25 18
-7.132619 1.952979 21.228033 31 34 32
-7.101372 1.956067 21.261593 29 44 30
-7.073358 1.960087 21.305294 27 39 16
-7.040571 1.962826 21.335064 26 20 24
-7.011321 1.966590 21.375978 24 37 15
-6.977695 1.969165 21.403973 40 33 42
-6.943621 1.971645 21.430929 18 19 17
-6.913070 1.975163 21.469162 24 26 34
-6.878534 1.977579 21.495419 42 21 22
-6.848764 1.981403 21.536993 19 24 23
-6.816172 1.984455 21.570166 36 22 26
-6.783602 1.987552 21.603827 30 33 21
-6.753651 1.991461 21.646317 25 24 16
-6.718818 1.993972 21.673607 15 31 28
-6.688753 1.997939 21.716730 35 22 38
-6.655840 2.001102 21.751112 23 16 31
-6.622871 2.004290 21.785759 43 44 43
-6.592639 2.008354 21.829929 20 18 32
-6.557532 2.010977 21.858440 17 30 21
-6.526859 2.015004 21.902212 20 27 23
-6.493170 2.018147 21.936384 35 33 20
-6.459210 2.021249 21.970100 22 28 29
-6.427986 2.025256 22.013651 18 22 38
-6.392137 2.027850 22.041851 38 39 26
-6.359471 2.031498 22.081495 35 34 25
-6.323358 2.034087 22.109642 22 17 40
-6.286723 2.036544 22.136349 31 30 35
-6.252925 2.039961 22.173494 19 15 41
-6.215593 2.042266 22.198545 44 37 30
-6.180746 2.045427 22.232899 30 35 40
-6.143111 2.047704 22.257648 30 35 40
-6.104498 2.049685 22.279190 30 35 40
-6.067172 2.052132 22.305780 30 35 40
-6.026667 2.053531 22.320988 30 35 40
-5.988298 2.055684 22.344397 30 35 40
-5.948950 2.057532 22.364475 30 35 40
-5.908679 2.059085 22.381361 30 35 40
-5.868299 2.060624 22.398088 30 35 40
-5.825258 2.061245 22.404837 30 35 40
-5.782649 2.062030 22.413366 30 35 40
-5.739023 2.062461 22.418058 30 35 40
-5.695359 2.062886 22.422672 30 35 40
-5.652890 2.063753 22.432102 30 35 40
-5.610013 2.064485 22.440054 30 35 40
-5.568200 2.065623 22.452419 30 35 40
-5.525720 2.066529 22.462275 30 35 40
-5.483169 2.067425 22.472006 30 35 40
-5.441310 2.068597 22.484751 40 33 26
-5.398374 2.069377 22.493225 32 30 29
-5.354839 2.069938 22.499325 29 24 34
-5.309809 2.069926 22.499191 23 37 38
-5.264152 2.069667 22.496376 20 29 39
-5.218722 2.069493 22.494493 29 18 30
-5.173336 2.069335 22.492767 24 43 18
-5.129797 2.069918 22.499111 33 22 16
-5.086741 2.070709 22.507702 39 34 41
-5.045315 2.072183 22.523729 21 44 42
-5.004971 2.074132 22.544912 36 19 28
-4.963581 2.075679 22.561731 27 27 26
-4.928415 2.079882 22.607409 32 40 32
-4.892910 2.084017 22.652359 120 120 120
-4.860454 2.089541 22.712402 120 120 120
-4.832640 2.097184 22.795473 120 120 120
-4.800492 2.103073 22.859488 40 36 21
-4.773635 2.111415 22.950167 39 26 26
-4.740724 2.117217 23.013224 42 27 16
-4.707764 2.123109 23.077274 37 21 23
-4.680305 2.131624 23.169825 32 34 18
-4.647200 2.137712 23.236000 35 31 38
-4.619645 2.146502 23.331541 35 44 26
-4.586834 2.153004 23.402212 42 15 18
-4.553125 2.159214 23.469715 23 26 30
-4.522959 2.167251 23.557079 16 26 25
-4.486382 2.172353 23.612537 32 38 41
-4.455282 2.180245 23.698311 43 27 16
-4.420368 2.186419 23.765421 38 31 39
-4.385182 2.192591 23.832512 21 43 44
-4.353285 2.200562 23.919147 30 15 22
-4.315571 2.205736 23.975393 26 39 43
-4.283413 2.213899 24.064116 35 43 26
-4.247679 2.220378 24.134541 31 19 40
-4.211847 2.226954 24.206018 31 32 24
-4.179516 2.235555 24.299511 23 18 24
-4.141463 2.241262 24.361546 34 26 35
-4.107461 2.249324 24.449171 28 26 29
-4.068829 2.255014 24.511019 38 18 44
-4.029672 2.260548 24.571173 25 35 38
-3.994274 2.268353 24.656015 17 35 43
-3.954308 2.273727 24.714426 29 22 38
-3.918467 2.281639 24.800423 19 33 35
-3.878827 2.287514 24.864279 16 40 16
-3.838821 2.293322 24.927412 42 30 27
-3.801738 2.301052 25.011435 16 28 36
-3.760061 2.306171 25.067072 22 27 31
-3.722847 2.314202 25.154373 16 43 21
-3.682664 2.320583 25.223728 34 37 29
-3.642274 2.327008 25.293568 25 44 17
-3.604499 2.335309 25.383799 24 38 27
-3.561995 2.340740 25.442823 26 26 28
-3.522790 2.348527 25.527462 38 35 30
-3.480487 2.354447 25.591814 22 31 20
-3.436992 2.359726 25.649197 36 40 17
-3.394598 2.365932 25.716650 40 20 22
-3.347969 2.369332 25.753607 38 27 17
-7.496173 1.968269 20.939030 29 30 44
-7.457881 1.969216 20.949104 22 27 23
-7.420420 1.970394 20.961639 27 18 39
-7.385001 1.972131 20.980116 32 44 44
-7.348062 1.973480 20.994463 22 17 17
-7.313687 1.975536 21.016342 20 32 43
-7.276781 1.976929 21.031158 21 29 39
-7.240988 1.978642 21.049385 44 21 44
-7.208886 1.981390 21.078615 31 18 24
-7.174747 1.983606 21.102196 27 31 32
-7.145607 1.987240 21.140848 41 22 15
-7.113836 1.990180 21.172131 32 15 17
-7.082646 1.993320 21.205528 33 15 33
-7.054657 1.997403 21.248968 15 24 44
-7.021887 2.000174 21.278444 38 42 21
-6.992920 2.004069 21.319880 25 38 33
-6.959807 2.006816 21.349102 40 24 24
-6.926274 2.009475 21.377390 31 38 43
-6.896119 2.013153 21.416517 25 39 36
-6.861745 2.015638 21.442953 16 20 39
-6.831978 2.019516 21.484209 32 42 23
-6.799276 2.022570 21.516697 41 18 40
-6.766546 2.025654 21.549511 29 39 22
-6.736530 2.029596 21.591442 44 35 31
-6.701759 2.032146 21.618576 23 39 44
-6.671718 2.036174 21.661423 25 18 33
-6.638857 2.039388 21.695612 42 37 33
-6.605920 2.042620 21.730000 35 15 18
-6.575630 2.046719 21.773609 43 18 20
-6.540490 2.049353 21.801632 33 37 26
-6.509764 2.053415 21.844845 26 42 41
-6.476126 2.056608 21.878805 18 38 26
-6.442227 2.059760 21.912336 36 43 34
-6.411013 2.063819 21.955523 22 36 17
-6.375206 2.066446 21.983469 15 39 22
-6.342389 2.070085 22.022184 37 23 30
-6.306079 2.072627 22.049229 30 33 15
-6.269202 2.075017 22.074654 16 44 20
-6.235148 2.078383 22.110453 26 25 40
-6.197719 2.080663 22.134712 41 44 16
-6.162695 2.083789 22.167967 30 35 40
-6.124956 2.086036 22.191868 30 35 40
-6.086294 2.087999 22.212751 30 35 40
-6.048868 2.090418 22.238485 30 35 40
-6.008361 2.091800 22.253189 30 35 40
-5.970135 2.094003 22.276625 30 35 40
-5.931046 2.095934 22.297167 30 35 40
-5.891148 2.097606 22.314955 30 35 40
-5.851174 2.099276 22.332726 30 35 40
-5.808478 2.099988 22.340300 30 35 40
-5.766295 2.100898 22.349979 30 35 40
-5.723017 2.101420 22.355534 30 35 40
-5.679673 2.101926 22.360918 30 35 40
-5.637555 2.102898 22.371250 30 35 40
-5.594925 2.103692 22.379700 30 35 40
-5.553277 2.104871 22.392244 30 35 40
-5.510869 2.105779 22.401905 30 35 40
-5.468312 2.106645 22.411114 30 35 40
-5.426435 2.107789 22.423285 36 37 21
-5.383521 2.108546 22.431339 32 38 35
-5.339951 2.109056 22.436768 24 30 27
-5.294936 2.109000 22.436171 27 43 28
-5.249278 2.108684 22.432814 36 41 27
-5.203768 2.108423 22.430033 24 25 34
-5.158346 2.108194 22.427591 16 40 42
-5.114688 2.108687 22.432840 23 21 32
-5.071577 2.109417 22.440607 20 21 15
-5.030103 2.110847 22.455818 26 28 21
-4.989660 2.112739 22.475946 33 22 22
-4.948266 2.114259 22.492117 15 20 19
-4.913006 2.118452 22.536724 44 25 40
-4.877423 2.122582 22.580664 120 120 120
-4.844947 2.128154 22.639938 120 120 120
-4.817163 2.135912 22.722469 120 120 120
-4.785153 2.141926 22.786442 22 39 17
-4.758499 2.150476 22.877399 35 29 23
-4.725816 2.156440 22.940853 23 31 28
-4.693117 2.162515 23.005474 30 23 32
-4.665917 2.171268 23.098598 23 27 41
-4.633021 2.177520 23.165106 21 29 42
-4.605795 2.186590 23.261591 19 35 20
-4.573308 2.193321 23.333204 37 32 32
-4.539984 2.199786 23.401981 29 26 20
-4.510311 2.208173 23.491205 41 35 32
-4.474148 2.213526 23.548147 17 18 38
-4.443480 2.221740 23.635532 31 25 25
-4.408854 2.228131 23.703518 22 37 21
-4.373889 2.234487 23.771135 21 21 25
-4.342273 2.242712 23.858641 15 23 34
-4.304772 2.248048 23.915401 16 22 33
-4.272758 2.256400 24.004257 25 38 39
-4.237136 2.263016 24.074638 24 23 35
-4.201289 2.269662 24.145340 40 44 22
-4.168799 2.278297 24.237204 17 37 43
-4.130575 2.283965 24.297501 44 20 25
-4.096294 2.291974 24.382704 17 33 40
-4.057507 2.297624 24.442812 33 38 35
-4.018213 2.303122 24.501297 32 38 17
-3.982594 2.310888 24.583916 27 43 23
-3.942541 2.316243 24.640881 32 24 17
-3.906568 2.324161 24.725115 39 17 41
-3.866906 2.330059 24.787857 41 21 19
-3.826924 2.335914 24.850153 38 30 26
-3.789822 2.343706 24.933041 36 32 22
-3.748208 2.348877 24.988054 17 31 25
-3.711052 2.357019 25.074673 27 40 32
-3.670993 2.363516 25.143789 34 21 33
-3.630731 2.370060 25.213409 15 15 24
-3.592915 2.378409 25.302221 16 31 20
-3.550353 2.383808 25.359663 32 30 26
-3.511550 2.391925 25.446012 32 31 42
-3.470215 2.398531 25.516285 35 16 19
-3.427536 2.404391 25.578629 42 35 17
-3.385165 2.410648 25.645189 27 24 41
-3.338027 2.413651 25.677134 20 17 17
-7.511061 2.002950 20.864059 38 36 18
-7.474283 2.004277 20.877886 41 26 30
-7.437020 2.005488 20.890505 20 40 38
-7.400667 2.006961 20.905840 18 18 39
-7.366288 2.008988 20.926954 26 32 23
-7.329923 2.010493 20.942638 35 33 31
-7.295914 2.012666 20.965269 19 30 24
-7.259013 2.014061 20.979805 43 16 27
-7.223030 2.015729 20.997179 36 33 28
-7.190898 2.018498 21.026016 20 32 31
-7.156806 2.020745 21.049431 15 41 40
-7.127582 2.024402 21.087521 41 15 24
-7.095688 2.027339 21.118118 39 19 15
-7.064330 2.030466 21.150690 33 27 19
-7.036090 2.034532 21.193041 33 21 24
-7.003162 2.037283 21.221703 38 28 18
-6.974260 2.041247 21.262989 20 40 26
-6.941503 2.044124 21.292953 34 39 27
-6.908405 2.046935 21.322239 42 23 16
-6.878486 2.050729 21.361759 18 22 32
-6.844195 2.053258 21.388109 20 31 30
-6.814356 2.057164 21.428791 21 23 18
-6.781480 2.060196 21.460379 42 44 44
-6.748570 2.063257 21.492262 33 44 17
-6.718499 2.067231 21.533651 26 28 40
-6.683847 2.069836 21.560797 26 35 35
-6.653879 2.073936 21.603504 33 25 34
-6.621093 2.077206 21.637560 15 30 43
-6.588212 2.080488 21.671749 19 31 17
-6.557940 2.084643 21.715033 34 21 38
-6.522828 2.087305 21.742762 44 15 42
-6.492116 2.091420 21.785625 21 37 36
-6.458560 2.094668 21.819460 41 21 21
-6.424711 2.097865 21.852758 21 29 28
-6.393480 2.101966 21.895481 30 23 37
-6.357674 2.104609 21.923014 39 38 17
-6.324673 2.108224 21.960670 35 23 33
-6.288163 2.110712 21.986584 19 23 19
-6.251046 2.113030 22.010727 31 32 25
-6.216723 2.116331 22.045118 35 37 27
-6.179181 2.118576 22.068504 28 22 35
-6.143972 2.121660 22.100620 30 41 20
-6.106146 2.123877 22.123718 30 35 40
-6.067458 2.125825 22.144007 30 35 40
-6.029968 2.128224 22.168999 30 35 40
-5.989502 2.129601 22.183342 30 35 40
-5.951440 2.131859 22.206865 30 35 40
-5.912617 2.133877 22.227882 30 35 40
-5.873086 2.135667 22.246536 30 35 40
-5.833507 2.137468 22.265293 30 35 40
-5.791136 2.138266 22.273602 30 35 40
-5.749377 2.139303 22.284407 30 35 40
-5.706449 2.139918 22.290815 30 35 40
-5.663430 2.140509 22.296967 30 35 40
-5.621694 2.141598 22.308311 30 35 40
-5.579350 2.142470 22.317398 30 35 40
-5.537955 2.143724 22.330463 30 35 40
-5.495701 2.144664 22.340246 30 35 40
-5.453229 2.145533 22.349300 30 35 40
-5.411458 2.146694 22.361395 39 25 44
-5.368636 2.147454 22.369316 20 20 19
-5.325142 2.147956 22.374546 32 31 27
-5.280228 2.147889 22.373848 31 33 22
-5.234633 2.147542 22.370226 18 39 42
-5.189116 2.147220 22.366879 19 22 29
-5.143681 2.146928 22.363831 20 27 44
-5.099938 2.147342 22.368149 34 34 19
-5.056781 2.148013 22.375137 44 18 16
-5.015262 2.149398 22.389561 44 43 19
-4.974754 2.151245 22.408800 44 37 43
-4.933376 2.152746 22.424438 20 18 37
-4.898052 2.156940 22.468128 32 41 15
-4.862398 2.161066 22.511101 120 120 120
-4.829897 2.166683 22.569614 120 120 120
-4.802144 2.174556 22.651625 120 120 120
-4.770275 2.180697 22.715597 16 31 20
-4.743795 2.189444 22.806707 38 28 36
-4.711292 2.195554 22.870352 17 37 30
-4.678811 2.201793 22.935347 21 41 20
-4.651848 2.210779 23.028950 19 41 33
-4.619166 2.217200 23.095829 20 22 32
-4.592272 2.226556 23.193295 37 21 18
-4.560103 2.233520 23.265833 23 44 32
-4.527164 2.240246 23.335896 44 25 36
-4.498004 2.249002 23.427105 19 36 39
-4.462289 2.254630 23.485733 35 40 21
-4.432078 2.263189 23.574883 42 34 34
-4.397736 2.269799 23.643742 17 21 42
-4.362981 2.276338 23.711853 41 16 41
-4.331647 2.284825 23.800261 23 32 24
-4.294363 2.290327 23.857574 36 16 40
-4.262533 2.298894 23.946814 36 38 33
-4.227076 2.305678 24.017479 28 19 33
-4.191274 2.312427 24.087782 21 18 37
-4.158659 2.321112 24.178247 27 32 19
-4.120267 2.326739 24.236862 37 21 21
-4.085730 2.334703 24.319822 38 43 44
-4.046823 2.340332 24.378454 18 30 15
-4.007425 2.345810 24.435516 21 34 37
-3.971617 2.353551 24.516153 28 36 17
-3.931488 2.358893 24.571802 22 31 21
-3.895377 2.366812 24.654287 22 38 36
-3.855659 2.372713 24.715763 24 33 36
-3.815665 2.378596 24.777046 32 39 44
-3.778526 2.386438 24.858725 24 29 38
-3.736962 2.391656 24.913082 17 30 28
-3.699858 2.399908 24.999039 38 19 23
-3.659927 2.406527 25.067991 36 42 42
-3.619778 2.413186 25.137350 44 39 40
-3.581890 2.421560 25.224581 34 28 19
-3.539219 2.426893 25.280134 21 31 20
-3.500698 2.435268 25.367374 35 17 15
-3.460110 2.442431 25.441988 38 15 43
-3.418132 2.448811 25.508448 39 36 44
-3.375978 2.455257 25.575592 35 26 44
-3.328671 2.458096 25.605164 17 42 21
-3.284281 2.463211 25.658443 27 29 34
-7.482474 2.036896 20.784651 18 44 20
-7.446708 2.038484 20.800861 40 27 42
-7.410710 2.040027 20.816601 38 34 24
-7.375750 2.041874 20.835451 38 16 31
-7.342732 2.044283 20.860033 17 37 19
-7.307163 2.046006 20.877609 37 42 43
-7.273729 2.048349 20.901520 24 33 39
-7.236928 2.049766 20.915976 17 43 23
-7.200788 2.051387 20.932522 39 21 22
-7.168668 2.054180 20.961018 25 30 35
-7.134669 2.056464 20.984322 39 23 40
-7.105332 2.060126 21.021692 41 27 33
-7.073274 2.063038 21.051411 43 23 37
-7.041665 2.066117 21.082829 36 36 31
-7.013037 2.070113 21.123606 33 26 17
-6.979845 2.072803 21.151047 20 29 16
-6.950894 2.076791 21.191750 28 39 16
-6.918496 2.079793 21.222380 23 17 25
-6.885823 2.082749 21.252539 31 18 43
-6.856058 2.086626 21.292105 42 17 26
-6.821758 2.089164 21.317995 32 36 23
-6.791692 2.093037 21.357523 38 21 21
-6.758527 2.095999 21.387745 42 21 36
-6.725348 2.098994 21.418306 40 23 17
-6.695125 2.102956 21.458735 35 17 21
-6.660555 2.105595 21.485661 17 28 34
-6.630616 2.109741 21.527973 32 42 19
-6.597855 2.113038 21.561617 37 34 44
-6.565004 2.116350 21.595409 44 25 29
-6.534735 2.120543 21.638197 31 33 27
-6.499685 2.123230 21.665615 27 42 36
-6.469019 2.127395 21.708117 23 41 31
-6.435576 2.130697 21.741810 44 41 44
-6.401817 2.133939 21.774889 40 44 19
-6.370595 2.138076 21.817106 16 40 31
-6.334798 2.140725 21.844130 26 21 25
-6.301629 2.144304 21.880655 33 24 18
-6.264953 2.146732 21.905430 16 25 30
-6.227635 2.148973 21.928291 15 40 25
-6.193063 2.152199 21.961218 15 18 18
-6.155434 2.154402 21.983692 37 22 18
-6.120055 2.157429 22.014585 27 38 42
-6.082143 2.159601 22.036749 28 42 39
-6.043436 2.161521 22.056337 30 35 40
-6.005916 2.163896 22.080574 30 35 40
-5.965545 2.165272 22.094612 30 35 40
-5.927686 2.167587 22.118231 30 35 40
-5.889150 2.169687 22.139662 30 35 40
-5.850001 2.171591 22.159096 30 35 40
-5.810827 2.173515 22.178728 30 35 40
-5.768805 2.174396 22.187712 30 35 40
-5.727503 2.175563 22.199623 30 35 40
-5.685004 2.176291 22.207048 30 35 40
-5.642397 2.176988 22.214163 30 35 40
-5.601092 2.178203 22.226557 30 35 40
-5.559060 2.179152 22.236240 30 35 40
-5.517965 2.180486 22.249857 30 35 40
-5.475925 2.181466 22.259859 30 35 40
-5.433620 2.182356 22.268934 43 29 22
-5.392048 2.183557 22.281189 29 29 17
-5.349404 2.184340 22.289185 42 18 31
-5.306081 2.184857 22.294456 22 18 19
-5.261353 2.184799 22.293869 44 35 30
-5.215893 2.184434 22.290140 39 31 26
-5.170446 2.184068 22.286404 39 37 27
-5.125067 2.183724 22.282898 27 38 20
-5.081284 2.184061 22.286335 19 23 18
-5.038115 2.184669 22.292543 34 40 44
-4.996564 2.185997 22.306089 18 28 42
-4.956003 2.187785 22.324339 34 23 22
-4.914659 2.189257 22.339357 20 40 38
-4.879254 2.193426 22.381901 15 32 15
-4.843514 2.197520 22.423676 120 120 120
-4.810959 2.203150 22.481119 120 120 120
-4.783178 2.211092 22.562162 120 120 120
-4.751419 2.217329 22.625803 20 24 18
-4.725072 2.226236 22.716692 25 39 23
-4.692754 2.232475 22.780357 36 42 23
-4.660496 2.238866 22.845568 23 16 34
-4.633739 2.248052 22.939302 39 18 16
-4.601252 2.254613 23.006260 43 43 25
-4.574640 2.264216 23.104240 19 16 29
-4.542757 2.271379 23.177332 43 38 43
-4.510173 2.278335 23.248312 27 41 37
-4.481485 2.287425 23.341068 19 27 17
-4.446199 2.293302 23.401045 37 44 42
-4.416404 2.302168 23.491508 15 33 44
-4.382309 2.308959 23.560802 27 24 23
-4.347744 2.315646 23.629045 33 24 42
-4.316675 2.324364 23.717997 42 18 22
-4.279634 2.330023 23.775745 44 21 35
-4.248022 2.338799 23.865294 30 18 19
-4.212790 2.345758 23.936308 40 30 40
-4.177095 2.352617 24.006292 28 19 23
-4.144420 2.361356 24.095467 28 38 44
-4.105914 2.366938 24.152433 26 44 40
-4.071162 2.374844 24.233107 30 25 43
-4.032167 2.380436 24.290165 43 25 28
-3.992671 2.385865 24.345556 41 36 23
-3.956649 2.393528 24.423758 41 22 26
-3.916416 2.398805 24.477602 27 43 26
-3.880094 2.406641 24.557560 44 42 21
-3.840264 2.412474 24.617077 39 40 34
-3.800215 2.418319 24.676722 16 19 15
-3.762987 2.426137 24.756496 19 25 16
-3.721478 2.431366 24.809853 22 17 43
-3.684450 2.439703 24.894930 27 22 42
-3.644696 2.446440 24.963675 37 40 20
-3.604761 2.453240 25.033064 16 24 28
-3.566998 2.461731 25.119705 38 29 16
-3.524444 2.467110 25.174597 24 23 34
-3.486179 2.475692 25.262165 34 23 25
-3.445951 2.483111 25.337872 33 37 19
-3.404428 2.489806 25.406181 28 29 22
-3.362857 2.496666 25.476189 23 26 34
-3.316080 2.499814 25.508310 40 31 37
-3.271866 2.505023 25.561455 41 44 32
-7.503623 2.072824 20.728241 43 41 27
-7.464890 2.073581 20.735806 36 41 32
-7.429848 2.075377 20.753765 33 23 30
-7.394674 2.077156 20.771557 23 42 35
-7.360613 2.079269 20.792692 34 42 27
-7.328499 2.081960 20.819599 38 36 41
-7.293467 2.083848 20.838478 22 20 41
-7.260434 2.086332 20.863316 30 31 22
-7.223722 2.087781 20.877810 25 15 43
-7.187473 2.089382 20.893818 21 20 41
-7.155303 2.092194 20.921940 15 31 30
-7.121266 2.094490 20.944899 36 15 35
-7.091721 2.098142 20.981422 27 27 42
-7.059453 2.101028 21.010277 17 32 37
-7.027564 2.104061 21.040611 38 15 22
-6.998522 2.107989 21.079885 21 19 19
-6.965043 2.110619 21.106190 25 25 35
-6.935899 2.114603 21.146032 29 17 38
-6.903616 2.117673 21.176735 38 32 44
-6.871100 2.120710 21.207100 32 41 24
-6.841287 2.124623 21.246233 29 25 16
-6.806882 2.127151 21.271507 27 22 28
-6.776566 2.130996 21.309958 41 35 40
-6.743153 2.133909 21.339090 34 21 36
-6.709763 2.136867 21.368673 19 27 40
-6.679402 2.140834 21.408340 15 40 43
-6.644883 2.143511 21.435106 33 20 38
-6.614941 2.147708 21.477081 22 37 17
-6.582166 2.151035 21.510347 44 34 31
-6.549332 2.154386 21.543856 18 39 23
-6.519085 2.158637 21.586374 22 18 20
-6.484113 2.161371 21.613710 23 35 15
-6.453518 2.165610 21.656099 18 39 41
-6.420168 2.168976 21.689756 36 34 35
-6.386477 2.172271 21.722710 17 42 24
-6.355256 2.176457 21.764574 25 19 39
-6.319459 2.179124 21.791239 39 44 38
-6.286205 2.182710 21.827101 28 18 38
-6.249460 2.185126 21.851259 29 23 22
-6.212067 2.187347 21.873474 38 41 30
-6.177379 2.190560 21.905600 35 29 19
-6.139722 2.192758 21.927578 18 28 38
-6.104263 2.195778 21.957779 30 26 22
-6.066315 2.197940 21.979401 16 19 39
-6.027621 2.199862 21.998615 33 20 15
-5.990123 2.202251 22.022511 30 35 40
-5.949843 2.203646 22.036457 30 35 40
-5.912125 2.206017 22.060169 30 35 40
-5.873753 2.208178 22.081778 30 35 40
-5.834800 2.210152 22.101517 30 35 40
-5.795832 2.212150 22.121496 30 35 40
-5.753989 2.213073 22.130728 30 35 40
-5.712946 2.214320 22.143202 30 35 40
-5.670719 2.215125 22.151245 30 35 40
-5.628377 2.215897 22.158966 30 35 40
-5.587342 2.217199 22.171993 30 35 40
-5.545492 2.218197 22.181969 30 35 40
-5.504612 2.219601 22.196014 30 35 40
-5.462754 2.220632 22.206316 29 24 38
-5.420632 2.221571 22.215706 17 19 27
-5.379268 2.222838 22.228378 25 37 24
-5.336805 2.223669 22.236687 28 21 41
-5.293680 2.224235 22.242353 21 34 43
-5.249133 2.224209 22.242090 26 18 15
-5.203824 2.223856 22.238564 29 41 24
-5.158496 2.223490 22.234898 25 26 20
-5.113200 2.223130 22.231302 27 20 16
-5.069447 2.223442 22.234417 34 38 29
-5.026296 2.224025 22.240248 20 22 37
-4.984743 2.225332 22.253319 20 21 28
-4.944180 2.227108 22.271080 33 40 29
-4.902870 2.228577 22.285774 40 20 28
-4.867423 2.232763 22.327629 17 43 31
-4.831635 2.236868 22.368679 120 120 120
-4.799027 2.242536 22.425362 120 120 120
-4.771197 2.250565 22.505646 120 120 120
-4.739470 2.256890 22.568905 40 16 30
-4.713151 2.265938 22.659380 24 44 16
-4.680906 2.272284 22.722843 24 18 41
-4.648748 2.278798 22.787981 42 19 31
-4.622062 2.288149 22.881493 18 42 21
-4.589661 2.294831 22.948307 20 41 29
-4.563157 2.304625 23.046246 32 28 36
-4.531396 2.311937 23.119366 40 40 22
-4.498970 2.319057 23.190569 35 26 42
-4.470501 2.328386 23.283861 26 36 41
-4.435435 2.334440 23.344397 36 41 26
-4.405827 2.343525 23.435247 18 37 43
-4.371828 2.350445 23.504452 36 42 27
-4.337340 2.357250 23.572498 27 39 38
-4.306391 2.366149 23.661488 26 28 16
-4.269486 2.371937 23.719368 20 40 43
-4.238027 2.380914 23.809143 40 43 18
-4.202967 2.388050 23.880497 43 20 29
-4.167397 2.395056 23.950558 33 31 31
-4.134747 2.403923 24.039227 20 26 38
-4.096223 2.409543 24.095427 15 17 28
-4.061394 2.417497 24.174967 18 42 26
-4.022391 2.423127 24.231274 18 23 16
-3.982864 2.428576 24.285759 43 29 22
-3.946728 2.436252 24.362518 40 39 35
-3.906432 2.441520 24.415197 40 33 38
-3.869954 2.449338 24.493382 26 33 15
-3.830021 2.455142 24.551418 26 20 31
-3.789898 2.460973 24.609730 19 42 39
-3.752585 2.468806 24.688059 35 25 36
-3.711102 2.474068 24.740677 27 22 19
-3.674126 2.482517 24.825172 29 43 41
-3.634499 2.489383 24.893826 37 18 32
-3.594734 2.496343 24.963432 42 39 28
-3.557152 2.505037 25.050365 32 44 28
-3.514789 2.510563 25.105633 42 35 34
-3.476583 2.519263 25.192633 33 43 44
-3.436175 2.526600 25.265995 33 27 43
-3.394663 2.533331 25.333305 27 38 18
-3.353714 2.540692 25.406923 16 39 19
-3.307821 2.544478 25.444777 24 28 30
-3.264161 2.550126 25.501259 44 31 15
-3.218264 2.554178 25.541779 23 24 27
-7.478063 2.107079 20.657633 44 16 32
-7.439772 2.107936 20.666035 30 28 16
-7.405579 2.109969 20.685974 42 37 25
-7.371330 2.112010 20.705982 21 42 34
-7.338208 2.114399 20.729403 34 33 30
-7.306961 2.117358 20.758411 34 31 31
-7.272392 2.119383 20.778263 36 27 24
-7.239633 2.121961 20.803543 29 24 27
-7.202954 2.123414 20.817785 29 24 36
-7.166533 2.124960 20.832945 22 17 27
-7.134179 2.127738 20.860172 34 40 16
-7.100017 2.130005 20.882402 16 25 23
-7.070168 2.133601 20.917658 40 27 23
-7.037668 2.136435 20.945440 34 27 25
-7.005514 2.139408 20.974592 35 35 15
-6.976062 2.143248 21.012234 15 41 26
-6.942322 2.145809 21.037338 33 24 33
-6.913032 2.149784 21.076317 18 24 36
-6.880946 2.152934 21.107195 19 23 39
-6.848666 2.156061 21.137857 18 44 33
-6.818823 2.160000 21.176468 33 20 39
-6.784314 2.162500 21.200981 42 37 44
-6.753648 2.166264 21.237886 33 28 22
-6.719866 2.169071 21.265400 21 22 43
-6.686146 2.171933 21.293457 17 33 16
-6.655570 2.175859 21.331955 30 41 22
-6.621117 2.178561 21.358440 22 36 20
-6.591166 2.182789 21.399889 27 35 44
-6.558376 2.186125 21.432600 21 40 42
-6.525569 2.189500 21.465689 23 34 24
-6.495393 2.193808 21.507923 19 31 36
-6.460582 2.196598 21.535273 40 20 25
-6.430132 2.200918 21.577625 40 32 44
-6.396965 2.204360 21.611368 15 29 19
-6.363397 2.207709 21.644209 42 20 28
-6.332170 2.211922 21.685513 28 26 20
-6.296329 2.214571 21.711479 30 28 32
-6.262923 2.218118 21.746260 25 29 31
-6.226099 2.220497 21.769577 15 37 43
-6.188615 2.222672 21.790897 19 40 41
-6.153761 2.225828 21.821846 42 25 19
-6.116043 2.227987 21.843010 38 20 29
-6.080462 2.230961 21.872166 39 27 31
-6.042452 2.233080 21.892942 37 28 16
-6.003781 2.234984 21.911608 42 22 25
-5.966371 2.237389 21.935186 30 35 40
-5.926289 2.238820 21.949219 30 35 40
-5.888823 2.241269 21.973221 30 35 40
-5.850693 2.243499 21.995087 30 35 40
-5.812022 2.245554 22.015234 30 35 40
-5.773376 2.247650 22.035788 30 35 40
-5.731823 2.248638 22.045471 30 35 40
-5.691118 2.249977 22.058596 30 35 40
-5.649163 2.250838 22.067043 30 35 40
-5.607119 2.251678 22.075274 30 35 40
-5.566496 2.253106 22.089270 20 38 35
-5.525023 2.254210 22.100094 39 15 25
-5.484579 2.255754 22.115236 20 22 19
-5.443062 2.256879 22.126266 36 28 21
-5.401244 2.257897 22.136246 32 21 16
-5.360220 2.259266 22.149670 40 20 40
-5.318019 2.260158 22.158411 38 29 17
-5.275154 2.260780 22.164515 36 15 25
-5.230850 2.260791 22.164619 37 29 34
-5.185715 2.260440 22.161177 42 21 43
-5.140522 2.260057 22.157423 26 33 21
-5.095317 2.259662 22.153551 44 25 37
-5.051562 2.259909 22.155975 26 18 29
-5.008408 2.260432 22.161098 30 40 35
-4.966832 2.261682 22.173357 22 16 30
-4.926232 2.263404 22.190233 20 26 23
-4.884968 2.264849 22.204401 28 22 19
-4.849463 2.269015 22.245243 15 44 15
-4.813623 2.273100 22.285292 120 120 120
-4.780975 2.278783 22.341005 120 120 120
-4.753102 2.286870 22.420294 120 120 120
-4.721442 2.293272 22.483055 38 20 15
-4.695178 2.302443 22.572969 43 29 29
-4.663029 2.308879 22.636065 32 38 36
-4.631001 2.315501 22.700987 23 25 17
-4.604437 2.325013 22.794245 27 33 21
-4.572200 2.331822 22.861002 40 41 40
-4.545877 2.341815 22.958975 44 31 38
-4.514294 2.349276 23.032114 18 42 42
-4.482096 2.356566 23.103590 38 17 43
-4.453931 2.366151 23.197559 31 31 19
-4.419183 2.372404 23.258860 18 41 32
-4.389854 2.381729 23.350286 18 38 22
-4.356015 2.388782 23.419436 17 29 16
-4.321669 2.395708 23.487329 23 19 18
-4.290943 2.404814 23.576609 17 21 23
-4.254289 2.410764 23.634941 41 15 29
-4.223111 2.419985 23.725340 26 43 39
-4.188350 2.427339 23.797441 36 29 18
-4.153009 2.434523 23.867870 16 42 38
-4.120465 2.443531 23.956190 40 25 35
-4.081966 2.449179 24.011562 28 33 22
-4.047093 2.457164 24.089842 44 20 40
-4.008140 2.462833 24.145424 15 31 29
-3.968601 2.468277 24.198790 26 32 16
-3.932302 2.475894 24.273470 17 44 34
-3.891885 2.481077 24.324282 31 20 43
-3.855116 2.488746 24.399467 40 36 23
-3.814975 2.494406 24.454966 24 25 29
-3.774675 2.500110 24.510880 23 19 21
-3.737154 2.507827 24.586540 37 38 38
-3.695653 2.513044 24.637688 33 33 20
-3.658674 2.521518 24.720768 37 35 41
-3.619163 2.528457 24.788790 16 33 20
-3.579594 2.535546 24.858290 28 24 33
-3.542218 2.544410 24.945194 17 34 25
-3.500105 2.550076 25.000748 29 21 39
-3.462061 2.558915 25.087399 28 33 38
-3.421556 2.566167 25.158497 38 35 17
-3.380223 2.573006 25.225546 33 42 44
-3.340244 2.581098 25.304878 22 29 15
-3.295608 2.585785 25.350834 27 42 41
-3.252810 2.592083 25.412575 24 17 43
-3.206965 2.596115 25.452105 39 44 37
-7.496110 2.141746 20.593708 16 21 42
-7.459321 2.143009 20.605858 21 43 16
-7.421354 2.143947 20.614872 33 25 32
-7.387697 2.146147 20.636026 20 41 17
-7.354013 2.148363 20.657339 40 35 21
-7.321407 2.150922 20.681940 26 21 35
-7.290562 2.154030 20.711824 28 25 17
-7.256148 2.156113 20.731852 29 25 24
-7.223401 2.158717 20.756899 19 22 36
-7.186650 2.160149 20.770666 32 42 31
-7.150038 2.161639 20.784994 31 32 19
-7.117446 2.164370 20.811247 32 22 42
-7.083134 2.166606 20.832747 38 25 15
-7.053037 2.170165 20.866972 35 44 16
-7.020385 2.172976 20.894003 23 19 29
