ply
format ascii 1.0
element vertex 1289
property float x
property float y
property float z
property uchar red
property uchar green
property uchar blue
end_header
7.311403 0.860165 30.720179 30 44 19
7.372599 0.860137 30.719164 19 31 19
7.432413 0.859949 30.712452 26 43 44
7.491969 0.859734 30.704790 43 24 39
7.550290 0.859383 30.692236 41 27 15
7.607719 0.858936 30.676285 36 18 26
7.665959 0.858587 30.663837 23 20 30
7.723390 0.858154 30.648375 35 25 44
7.782317 0.857893 30.639042 28 36 18
7.841433 0.857657 30.630598 26 41 37
7.899386 0.857298 30.617775 30 34 21
7.958294 0.857047 30.608822 17 23 36
8.015559 0.856625 30.593735 21 38 22
8.072421 0.856166 30.577351 20 28 20
8.130651 0.855858 30.566359 23 35 21
8.190819 0.855757 30.562757 24 24 34
8.253443 0.855913 30.568306 30 30 32
8.319095 0.856377 30.584909 42 38 38
8.383616 0.856720 30.597139 29 33 44
8.451990 0.857448 30.623154 36 42 33
8.525735 0.858707 30.668112 15 43 23
8.598606 0.859861 30.709307 37 29 34
8.682576 0.862100 30.789278 43 38 34
8.765397 0.864194 30.864075 38 35 39
8.850273 0.866460 30.945009 41 34 41
8.939497 0.869118 31.039919 42 25 34
9.018882 0.870789 31.099594 37 41 40
9.102514 0.872844 31.172993 22 17 18
9.178492 0.874142 31.219360 32 16 31
9.251426 0.875135 31.254818 21 32 21
9.328553 0.876508 31.303869 27 16 23
9.399915 0.877325 31.333050 18 41 39
9.473536 0.878341 31.369324 20 21 42
9.543675 0.879023 31.393669 19 16 43
9.611755 0.879507 31.410963 38 40 42
9.681152 0.880105 31.432310 18 26 31
9.747280 0.880399 31.442839 32 33 36
6.011732 0.920163 30.672104 18 23 34
6.061920 0.918473 30.615757 44 26 44
6.116466 0.917470 30.582331 25 41 15
6.170677 0.916437 30.547905 21 16 27
6.228985 0.916027 30.534239 18 15 21
6.288163 0.915752 30.525064 30 23 23
6.344414 0.915060 30.501991 39 36 31
6.401462 0.914495 30.483150 120 120 120
6.454287 0.913342 30.444750 120 120 120
6.505899 0.912042 30.401396 120 120 120
6.558912 0.910960 30.365332 27 31 22
6.614700 0.910280 30.342661 35 44 21
6.675581 0.910306 30.343550 32 18 44
6.739833 0.910788 30.359608 30 20 33
6.805052 0.911391 30.379696 16 24 16
6.872866 0.912327 30.410912 24 40 20
6.942724 0.913516 30.450544 22 31 26
7.010638 0.914431 30.481035 27 35 34
7.081335 0.915690 30.522997 29 16 22
7.150360 0.916713 30.557093 21 41 40
7.217296 0.917453 30.581764 30 25 36
7.282932 0.918017 30.600554 43 26 25
7.344427 0.918053 30.601780 21 15 32
7.404384 0.917899 30.596628 28 40 35
7.463661 0.917663 30.588774 23 22 29
7.521598 0.917268 30.575602 17 21 35
7.578809 0.916791 30.559715 30 27 40
7.636904 0.916428 30.547615 19 43 33
7.694208 0.915977 30.532572 27 43 18
7.753030 0.915712 30.523739 23 18 17
7.811962 0.915464 30.515478 24 32 40
7.869576 0.915067 30.502232 41 26 28
7.928057 0.914776 30.492527 21 28 31
7.984789 0.914289 30.476294 18 38 16
8.041286 0.913783 30.459417 31 15 29
8.098972 0.913418 30.447264 32 29 30
8.158227 0.913234 30.441147 22 41 32
8.219931 0.913326 30.444189 27 27 25
8.284179 0.913696 30.456541 20 37 39
8.347510 0.913961 30.465366 24 32 37
8.414528 0.914623 30.487421 28 33 21
8.486592 0.915819 30.527309 23 41 42
8.558202 0.916950 30.565008 37 35 30
8.639916 0.919140 30.638000 24 29 15
8.720595 0.921190 30.706320 31 25 34
8.803054 0.923397 30.779909 20 28 34
8.888711 0.925907 30.863579 28 36 28
8.965160 0.927430 30.914345 41 23 27
9.048168 0.929606 30.986877 39 32 36
9.126691 0.931295 31.043167 38 38 35
9.202922 0.932729 31.090952 38 15 33
9.281254 0.934354 31.145149 36 17 43
9.351841 0.935184 31.172804 17 25 20
9.424742 0.936233 31.207756 32 44 44
9.494369 0.936944 31.231476 18 30 27
9.562090 0.937460 31.248659 35 16 31
9.631516 0.938135 31.271156 42 39 31
9.697847 0.938501 31.283379 21 41 18
9.763618 0.938809 31.293648 39 29 43
9.828699 0.939048 31.301588 24 25 35
9.889716 0.938897 31.296570 33 15 34
5.871617 0.978603 30.581341 29 30 26
5.923941 0.977145 30.535780 23 33 22
5.975804 0.975641 30.488796 42 44 15
6.026167 0.973926 30.435184 24 37 41
6.080601 0.972896 30.403006 39 18 44
6.134665 0.971828 30.369629 27 25 33
6.192797 0.971419 30.356846 23 31 30
6.251521 0.971110 30.347187 42 37 25
6.306724 0.970265 30.320789 37 35 44
6.362490 0.969522 30.297571 120 120 120
6.414992 0.968301 30.259396 120 120 120
6.467253 0.967066 30.220810 120 120 120
6.521533 0.966153 30.192284 26 43 17
6.578748 0.965688 30.177742 34 43 38
6.640565 0.965900 30.184385 28 26 28
6.705614 0.966575 30.205467 19 32 39
6.771085 0.967298 30.228056 26 33 38
6.838387 0.968267 30.258350 27 23 38
6.907025 0.969407 30.293970 16 18 20
6.973302 0.970199 30.318705 34 22 43
7.042560 0.971388 30.355862 25 21 41
7.110940 0.972436 30.388632 41 42 35
7.177688 0.973246 30.413933 21 16 31
7.243267 0.973885 30.433893 29 30 44
7.304874 0.973983 30.436974 26 33 39
7.364727 0.973848 30.432756 29 24 28
7.423473 0.973570 30.424068 29 18 41
7.480811 0.973114 30.409800 28 27 41
7.537677 0.972604 30.393860 31 23 31
7.595582 0.972234 30.382326 29 28 24
7.652798 0.971784 30.368244 18 22 29
7.711539 0.971533 30.360392 19 28 26
7.770346 0.971293 30.352913 32 25 38
7.827732 0.970881 30.340046 17 36 23
7.885842 0.970565 30.330160 36 37 25
7.942192 0.970039 30.313711 26 40 38
7.998471 0.969512 30.297239 16 42 20
8.055710 0.969108 30.284622 35 35 30
8.114050 0.968842 30.276304 39 44 42
8.174706 0.968854 30.276690 24 33 26
8.237472 0.969114 30.284822 39 36 22
8.299617 0.969298 30.290571 39 23 39
8.365260 0.969885 30.308912 24 33 36
8.435509 0.970994 30.343559 40 23 41
8.505651 0.972074 30.377325 16 42 38
8.584855 0.974168 30.442747 25 20 32
8.663347 0.976152 30.504742 34 20 41
8.743126 0.978252 30.570370 36 20 39
8.824630 0.980514 30.641075 19 16 28
8.897484 0.981791 30.680981 42 19 33
8.977996 0.983890 30.746561 25 16 28
9.056527 0.985744 30.804514 21 24 21
9.133736 0.987431 30.857218 24 37 34
9.212025 0.989211 30.912834 15 41 39
9.282055 0.990086 30.940184 16 23 31
9.354370 0.991192 30.974735 33 41 31
9.423408 0.991938 30.998053 20 27 16
9.490618 0.992483 31.015093 24 41 23
9.559785 0.993224 31.038263 41 27 26
9.625974 0.993649 31.051529 19 30 18
9.691442 0.993994 31.062315 29 32 41
9.755707 0.994212 31.069132 16 37 29
9.816186 0.994044 31.063879 20 37 25
9.873197 0.993529 31.047789 17 27 15
9.928751 0.992875 31.027348 24 38 30
5.791992 1.036462 30.484167 40 41 44
5.844500 1.034963 30.440102 21 19 16
5.897204 1.033531 30.397959 34 21 33
5.949329 1.032026 30.353718 40 34 29
6.000004 1.030304 30.303053 21 36 41
6.054445 1.029256 30.272224 41 31 30
6.108485 1.028161 30.240025 25 16 36
6.166520 1.027753 30.228039 34 44 30
6.224899 1.027411 30.217958 35 30 34
6.279339 1.026430 30.189129 20 39 40
6.334156 1.025530 30.162649 120 120 120
6.386436 1.024240 30.124699 120 120 120
6.439226 1.023055 30.089840 120 120 120
6.494478 1.022279 30.067026 26 42 15
6.552862 1.022006 30.059002 31 43 18
6.615493 1.022394 30.070421 16 15 32
6.680710 1.023172 30.093287 34 17 33
6.745314 1.023842 30.113008 30 19 44
6.811378 1.024721 30.138840 21 43 16
6.879155 1.025839 30.171732 42 33 19
6.944988 1.026650 30.195601 37 38 21
7.014293 1.027957 30.234020 24 41 24
7.083192 1.029182 30.270052 19 27 32
7.150565 1.030166 30.299004 41 24 27
7.216394 1.030913 30.320984 22 38 31
7.277792 1.031021 30.324135 37 37 24
7.337252 1.030854 30.319221 32 42 30
7.395429 1.030511 30.309134 39 30 24
7.452208 1.029980 30.293530 43 35 32
7.508774 1.029429 30.277313 23 17 22
7.566596 1.029057 30.266382 40 24 37
7.623835 1.028613 30.253315 44 15 42
7.682575 1.028376 30.246357 44 21 37
7.741382 1.028152 30.239773 18 25 37
7.798751 1.027742 30.227718 38 25 21
7.856731 1.027419 30.218195 23 24 18
7.913003 1.026878 30.202303 22 27 19
7.969283 1.026347 30.186680 29 40 25
8.026352 1.025925 30.174255 20 18 32
8.084198 1.025607 30.164917 40 33 23
8.144190 1.025565 30.163666 33 21 18
8.206137 1.025767 30.169621 15 44 18
8.267676 1.025916 30.174002 29 40 18
8.332675 1.026489 30.190851 17 17 25
8.402077 1.027592 30.223299 24 23 33
8.471528 1.028686 30.255459 43 20 24
8.549714 1.030817 30.318134 40 37 35
8.627609 1.032883 30.378906 23 39 24
8.706261 1.035010 30.441471 37 33 41
8.785352 1.037160 30.504694 29 16 42
8.855713 1.038256 30.536942 41 32 27
8.932843 1.040126 30.591928 42 21 22
9.008372 1.041785 30.640722 39 38 27
9.083408 1.043364 30.687189 32 34 23
9.160544 1.045163 30.740082 29 26 29
9.230958 1.046175 30.769861 38 30 21
9.303813 1.047449 30.807327 24 43 38
9.373090 1.048306 30.832533 28 23 44
9.440432 1.048937 30.851084 19 20 18
9.509636 1.049765 30.875441 24 17 21
9.575574 1.050224 30.888948 30 39 15
9.640424 1.050559 30.898794 24 16 37
9.703490 1.050696 30.902836 44 33 18
9.763178 1.050468 30.896132 34 19 17
9.820917 1.050035 30.883387 41 24 41
9.877966 1.049534 30.868645 36 34 38
9.926885 1.048180 30.828836 24 17 42
5.707802 1.092983 30.360647 32 34 27
5.765043 1.092324 30.342329 24 18 40
5.818345 1.090940 30.303881 20 33 18
5.871617 1.089578 30.266066 40 37 36
5.924165 1.088112 30.225332 43 30 37
5.975339 1.086425 30.178482 21 15 20
6.029884 1.085379 30.149418 22 15 39
6.083967 1.084271 30.118647 39 18 29
6.141835 1.083853 30.107033 26 23 26
6.199875 1.083473 30.096481 38 25 19
6.253866 1.082400 30.066664 28 42 16
6.308169 1.081400 30.038900 120 120 120
6.360468 1.080079 30.002207 120 120 120
6.413732 1.078946 29.970711 120 120 120
6.469665 1.078277 29.952152 28 24 19
6.528809 1.078152 29.948664 40 31 43
6.591884 1.078672 29.963108 23 37 36
6.656600 1.079449 29.984684 35 36 26
6.719616 1.079938 29.998285 34 25 15
6.783910 1.080623 30.017302 25 15 29
6.850711 1.081691 30.046976 43 20 25
6.916432 1.082572 30.071445 43 33 22
6.986021 1.084038 30.112158 23 42 22
7.055412 1.085448 30.151335 35 34 44
7.123316 1.086608 30.183542 18 15 43
7.189392 1.087471 30.207529 23 44 42
7.250600 1.087590 30.210833 23 25 36
7.309751 1.087401 30.205584 35 24 32
7.367485 1.087006 30.194611 33 30 33
7.423815 1.086412 30.178108 16 37 16
7.480111 1.085823 30.161739 15 40 23
7.537811 1.085445 30.151243 23 36 37
7.595074 1.085011 30.139183 30 41 32
7.653833 1.084795 30.133202 18 39 43
7.712723 1.084602 30.127825 26 25 23
7.770253 1.084221 30.117260 33 20 37
7.828274 1.083915 30.108746 18 27 15
7.884764 1.083403 30.094519 25 34 36
7.941282 1.082902 30.080612 19 29 33
7.998464 1.082499 30.069412 36 38 28
8.056194 1.082175 30.060427 30 18 38
8.115803 1.082107 30.058531 29 17 21
8.177376 1.082300 30.063883 16 18 24
8.238755 1.082464 30.068447 31 40 41
8.303447 1.083058 30.084951 25 43 15
8.372219 1.084172 30.115896 42 37 32
8.440952 1.085265 30.146255 17 22 27
8.517994 1.087403 30.205652 40 21 38
8.595040 1.089512 30.264227 41 25 36
8.672420 1.091633 30.323147 39 33 26
8.749460 1.093683 30.380070 44 26 28
8.817961 1.094643 30.406763 33 44 17
8.891748 1.096243 30.451191 15 28 23
8.963644 1.097589 30.488585 16 19 36
9.035544 1.098917 30.525486 24 17 18
9.110701 1.100622 30.572821 20 39 27
9.181053 1.101726 30.603510 16 33 21
9.253603 1.103078 30.641069 15 41 36
9.322297 1.103956 30.665449 31 22 19
9.388980 1.104586 30.682941 35 18 33
9.457417 1.105412 30.705900 33 28 31
9.522692 1.105861 30.718363 36 41 40
9.586309 1.106113 30.725349 15 23 27
9.647645 1.106099 30.724983 18 32 41
9.706077 1.105756 30.715433 37 40 44
9.763905 1.105348 30.704103 35 17 22
9.822014 1.104977 30.693794 37 23 42
9.871788 1.103678 30.657728 26 30 39
9.920368 1.102263 30.618420 32 23 25
5.555589 1.147350 30.193419 16 32 22
5.615417 1.147236 30.190416 35 21 18
5.672941 1.146658 30.175219 42 19 35
5.730629 1.146126 30.161203 22 25 35
5.784785 1.144905 30.129089 31 41 27
5.838712 1.143665 30.096453 20 42 30
5.891787 1.142285 30.060139 36 27 39
5.943572 1.140686 30.018042 30 44 44
5.998256 1.139669 29.991280 21 43 16
6.052364 1.138563 29.962196 41 34 40
6.109871 1.138113 29.950350 26 16 44
6.167481 1.137691 29.939226 16 42 34
6.221329 1.136589 29.910234 34 19 16
6.275572 1.135580 29.883678 120 120 120
6.328177 1.134296 29.849894 120 120 120
6.381849 1.133226 29.821724 120 120 120
6.438172 1.132641 29.806353 35 17 18
6.497729 1.132632 29.806097 22 32 16
6.560888 1.133244 29.822218 32 32 40
6.624718 1.133961 29.841072 38 30 31
6.685985 1.134230 29.848148 39 24 18
6.748290 1.134668 29.859692 27 28 20
6.813652 1.135609 29.884438 22 18 32
6.878796 1.136497 29.907808 17 35 37
6.947704 1.137986 29.946999 28 42 15
7.016401 1.139416 29.984621 17 32 41
7.083836 1.140618 30.016256 16 38 26
7.149710 1.141550 30.040798 22 39 18
7.210950 1.141734 30.045626 29 23 21
7.270113 1.141588 30.041790 32 31 15
7.327664 1.141194 30.031408 19 17 25
7.383709 1.140573 30.015076 28 41 24
7.439679 1.139951 29.998707 34 38 23
7.496967 1.139539 29.987869 25 32 20
7.554004 1.139096 29.976206 21 33 34
7.612626 1.138897 29.970968 32 41 41
7.671533 1.138743 29.966925 34 36 38
7.729203 1.138410 29.958153 39 29 26
7.787281 1.138141 29.951082 29 34 29
7.844119 1.137697 29.939386 34 42 34
7.900955 1.137259 29.927860 29 23 20
7.958400 1.136914 29.918798 17 23 26
8.016308 1.136641 29.911598 21 18 26
8.075758 1.136588 29.910213 38 40 27
8.137247 1.136821 29.916348 43 43 17
8.198789 1.137058 29.922586 23 36 16
8.263162 1.137682 29.938993 15 31 15
8.330777 1.138739 29.966825 40 44 30
8.397990 1.139727 29.992821 34 19 28
8.472323 1.141661 30.043699 32 19 16
8.546636 1.143564 30.093788 29 41 15
8.621262 1.145482 30.144274 43 30 16
8.695691 1.147348 30.193373 19 29 15
8.762863 1.148237 30.216770 33 37 30
8.834567 1.149704 30.255365 36 23 24
8.904637 1.150940 30.287882 27 42 35
8.974586 1.152143 30.319548 17 19 22
9.047271 1.153679 30.359970 23 27 34
9.115794 1.154667 30.385979 25 22 15
9.185219 1.155756 30.414633 43 16 41
9.250735 1.156342 30.430048 43 19 33
9.314418 1.156692 30.439276 23 42 35
9.380176 1.157294 30.455116 27 19 22
9.444210 1.157677 30.465195 41 31 16
9.505860 1.157765 30.467501 33 34 29
9.564994 1.157547 30.461765 26 26 34
9.621672 1.157037 30.448330 16 41 30
9.678250 1.156520 30.434748 21 31 16
9.736000 1.156150 30.425001 32 34 28
9.786701 1.154952 30.393480 38 26 35
9.836330 1.153644 30.359043 43 17 28
9.882982 1.152004 30.315895 41 30 44
5.472948 1.202846 30.071144 24 23 20
5.532352 1.202685 30.067131 41 23 33
5.592604 1.202710 30.067762 31 19 39
5.650652 1.202266 30.056658 41 24 15
5.708612 1.201813 30.045324 42 27 20
5.763345 1.200697 30.017422 44 41 19
5.817744 1.199535 29.988369 22 41 40
5.871228 1.198210 29.955244 37 26 37
5.923473 1.196661 29.916529 31 37 32
5.978291 1.195658 29.891453 25 32 26
6.032433 1.194541 29.863529 15 25 37
6.089602 1.194040 29.850992 29 15 20
6.146928 1.193578 29.839455 25 42 41
6.201058 1.192511 29.812777 42 40 30
6.255772 1.191576 29.789391 120 120 120
6.308826 1.190345 29.758614 120 120 120
6.362640 1.189278 29.731960 120 120 120
6.418836 1.188673 29.716835 35 21 24
6.478202 1.188661 29.716522 23 43 17
6.541017 1.189276 29.731895 26 17 39
6.603856 1.189884 29.747101 41 31 16
6.663810 1.189966 29.749153 15 43 31
6.724720 1.190216 29.755400 20 31 17
6.788979 1.191049 29.776224 17 22 42
6.853666 1.191942 29.798546 36 35 38
6.921678 1.193393 29.834818 24 29 29
6.989207 1.194736 29.868404 19 32 41
7.055701 1.195882 29.897038 19 20 38
7.121173 1.196836 29.920895 25 24 21
7.182589 1.197098 29.927454 42 34 33
7.242028 1.197029 29.925734 42 35 17
7.299714 1.196674 29.916859 20 43 44
7.355781 1.196062 29.901550 24 29 39
7.411549 1.195411 29.885277 26 24 22
7.468406 1.194945 29.873623 33 29 37
7.525139 1.194467 29.861664 35 39 37
7.583588 1.194266 29.856646 41 38 23
7.642484 1.194138 29.853455 38 43 34
7.700282 1.193842 29.846054 29 39 22
7.758480 1.193612 29.840307 32 34 28
7.815704 1.193237 29.830933 37 40 38
7.872868 1.192859 29.821470 31 39 39
7.930666 1.192581 29.814533 40 44 39
7.989040 1.192394 29.809851 43 41 20
8.048704 1.192401 29.810015 34 15 31
8.110583 1.192733 29.818319 30 32 39
8.172657 1.193089 29.827217 40 41 31
8.237027 1.193772 29.844301 17 15 25
8.303827 1.194795 29.869883 35 22 32
8.369714 1.195673 29.891836 16 35 25
8.441569 1.197386 29.934643 24 33 39
8.513111 1.199030 29.975744 41 31 17
8.585253 1.200735 30.018368 23 16 33
8.658149 1.202521 30.063019 15 42 38
8.725258 1.203484 30.087095 22 15 34
8.796777 1.205038 30.125948 18 29 19
8.866877 1.206378 30.159447 30 15 40
8.936215 1.207597 30.189917 39 24 21
9.006940 1.208985 30.224632 30 35 40
9.073130 1.209751 30.243767 42 35 28
9.138663 1.210419 30.260473 42 29 30
9.200418 1.210581 30.264534 37 38 29
9.260616 1.210538 30.263451 34 19 28
9.323359 1.210826 30.270645 21 15 16
9.386201 1.211123 30.278067 36 31 31
9.446111 1.211040 30.275995 18 29 34
9.503576 1.210647 30.266167 41 22 33
9.558845 1.209980 30.249510 33 42 16
9.613620 1.209260 30.231508 41 36 20
9.670068 1.208758 30.218962 23 44 44
9.721294 1.207614 30.190353 19 19 18
9.772223 1.206447 30.161182 44 39 17
9.822106 1.205166 30.129160 22 22 28
9.872025 1.203905 30.097637 36 42 32
5.381947 1.255788 29.899704 23 15 31
5.438166 1.254961 29.880033 28 29 36
5.497557 1.254877 29.878025 43 17 41
5.558097 1.255054 29.882240 20 22 43
5.616790 1.254815 29.876541 19 42 41
5.675273 1.254534 29.869860 29 21 43
5.730888 1.253632 29.848373 35 16 21
5.785891 1.252616 29.824181 27 44 18
5.839840 1.251394 29.795101 41 23 24
5.892650 1.249956 29.760860 34 27 38
5.947597 1.248995 29.737984 29 26 17
6.001718 1.247882 29.711473 38 17 32
6.058431 1.247324 29.698191 42 29 40
6.115311 1.246811 29.685978 37 30 21
6.169564 1.245777 29.661364 35 29 18
6.224599 1.244920 29.640949 120 120 120
6.278111 1.243777 29.613733 120 120 120
6.332292 1.242786 29.590151 120 120 120
6.388460 1.242201 29.576204 33 26 39
6.447237 1.242128 29.574484 19 23 19
6.509042 1.242635 29.586554 17 21 34
6.570470 1.243062 29.596712 44 30 28
6.629207 1.242976 29.594673 28 25 33
6.688928 1.243075 29.597029 41 17 27
6.752017 1.243793 29.614109 19 22 20
6.815996 1.244660 29.634766 22 19 42
6.882832 1.246030 29.667379 44 42 36
6.948998 1.247256 29.696573 39 44 25
7.014314 1.248310 29.721670 21 37 36
7.078990 1.249233 29.743654 25 32 22
7.140204 1.249536 29.750849 25 41 43
7.199574 1.249513 29.750305 17 34 42
7.257134 1.249179 29.742352 19 15 40
7.313204 1.248596 29.728470 38 31 27
7.369115 1.247995 29.714172 41 26 43
7.426024 1.247572 29.704096 44 40 29
7.483068 1.247178 29.694715 30 24 28
7.541748 1.247061 29.691923 31 21 42
7.600888 1.247021 29.690969 16 44 35
7.659013 1.246816 29.686096 32 28 27
7.717263 1.246635 29.681782 20 39 32
7.774810 1.246344 29.674849 15 19 23
7.832399 1.246063 29.668177 22 28 41
7.890336 1.245842 29.662916 42 15 32
7.948385 1.245642 29.658154 35 33 40
8.007273 1.245576 29.656567 29 26 37
8.068007 1.245795 29.661791 35 24 43
8.129280 1.246094 29.668903 38 31 37
8.192390 1.246668 29.682571 42 23 41
8.257023 1.247464 29.701523 43 26 39
8.320838 1.248126 29.717279 22 27 33
8.389618 1.249518 29.750418 26 42 25
8.458250 1.250868 29.782570 44 35 35
8.527992 1.252363 29.818155 20 35 38
8.599217 1.254052 29.858391 16 38 29
8.666073 1.255086 29.883011 29 27 29
8.737154 1.256714 29.921761 15 39 15
8.806806 1.258115 29.955124 30 35 40
8.875379 1.259344 29.984388 30 35 40
8.944614 1.260650 30.015484 30 35 40
9.009184 1.261286 30.030613 30 35 40
9.072664 1.261761 30.041935 30 35 40
9.132865 1.261777 30.042320 29 20 43
9.191540 1.261584 30.037712 26 40 44
9.252409 1.261692 30.040289 44 28 18
9.313871 1.261879 30.044746 23 34 22
9.371816 1.261591 30.037872 40 31 43
9.427472 1.260999 30.023796 37 21 43
9.481058 1.260141 30.003349 33 16 30
9.533833 1.259185 29.980606 20 19 15
9.588815 1.258532 29.965046 19 24 31
9.640305 1.257431 29.938835 28 32 31
9.692709 1.256462 29.915768 37 22 24
9.745286 1.255528 29.893517 38 24 40
9.798683 1.254709 29.874035 34 30 24
9.856232 1.254430 29.867371 34 27 19
9.903052 1.252796 29.828470 18 41 37
5.301737 1.310542 29.785038 26 44 19
5.357118 1.309518 29.761768 20 29 30
5.413250 1.308698 29.743132 27 18 36
5.472330 1.308601 29.740925 22 35 43
5.532671 1.308804 29.745543 27 42 23
5.591515 1.308652 29.742102 39 27 22
5.650235 1.308476 29.738081 31 18 36
5.706363 1.307708 29.720642 35 15 33
5.761761 1.306791 29.699799 28 16 28
5.816046 1.305643 29.673702 25 23 28
5.869221 1.304271 29.642529 36 35 24
5.924225 1.303330 29.621126 23 32 39
5.978307 1.302205 29.595579 43 24 18
6.034705 1.301603 29.581886 26 29 24
6.091247 1.301043 29.569160 24 31 25
6.145416 1.299992 29.545271 18 19 35
6.200466 1.299145 29.526028 120 120 120
6.254261 1.298054 29.501232 120 120 120
6.308958 1.297169 29.481112 120 120 120
6.365324 1.296640 29.469091 39 39 31
6.423422 1.296471 29.465240 38 16 32
6.483999 1.296800 29.472725 16 27 36
6.544327 1.297074 29.478949 28 33 15
6.602645 1.296948 29.476095 42 30 37
6.662114 1.297049 29.478380 32 38 33
6.724661 1.297742 29.494125 23 35 36
6.788119 1.298597 29.513561 40 27 33
6.854200 1.299935 29.543966 20 44 43
6.919629 1.301127 29.571062 29 25 44
6.984227 1.302144 29.594181 40 20 32
7.048163 1.303022 29.614132 40 44 20
7.108876 1.303294 29.620316 42 27 33
7.167850 1.303246 29.619217 38 16 37
7.225048 1.302878 29.610853 23 30 27
7.281110 1.302312 29.598007 30 21 23
7.337509 1.301816 29.586731 27 32 37
7.395041 1.301527 29.580166 22 17 32
7.452930 1.301305 29.575117 41 24 22
7.512102 1.301309 29.575203 44 24 37
7.571532 1.301357 29.576298 42 18 18
7.629897 1.301223 29.573244 24 19 34
7.688014 1.301049 29.569284 39 41 41
7.745576 1.300784 29.563269 36 16 44
7.803529 1.300588 29.558821 22 30 41
7.861333 1.300371 29.553883 20 20 30
7.918231 1.300008 29.545639 20 34 15
7.975497 1.299711 29.538879 36 26 37
8.033824 1.299589 29.536118 32 43 25
8.093175 1.299634 29.537134 35 38 25
8.154242 1.299952 29.544355 21 29 20
8.216234 1.300411 29.554798 27 33 22
8.278120 1.300847 29.564714 28 30 27
8.344738 1.302016 29.591269 31 40 22
8.411897 1.303252 29.619356 18 22 40
8.480677 1.304720 29.652718 18 42 21
8.551001 1.306403 29.690977 21 20 42
8.617528 1.307487 29.715612 44 30 16
8.688110 1.309167 29.753801 30 38 33
8.756983 1.310569 29.785656 30 35 40
8.825075 1.311836 29.814444 30 35 40
8.894288 1.313251 29.846605 30 35 40
8.959131 1.314006 29.863770 30 35 40
9.024112 1.314771 29.881166 30 35 40
9.086566 1.315161 29.890020 44 33 43
9.147095 1.315269 29.892467 17 37 43
9.208380 1.315483 29.897339 36 38 26
9.268692 1.315556 29.899006 27 37 21
9.325178 1.315089 29.888391 33 22 40
9.379665 1.314348 29.871546 41 24 37
9.432164 1.313339 29.848621 36 36 35
9.483798 1.312224 29.823265 31 19 41
9.538040 1.311480 29.806374 43 16 23
9.589666 1.310389 29.781572 39 26 15
9.643406 1.309598 29.763597 16 23 30
9.696950 1.308791 29.745245 38 19 39
9.749003 1.307793 29.722570 19 21 15
9.803869 1.307182 29.708693 38 35 43
9.850076 1.305432 29.668903 19 32 15
9.894617 1.303483 29.624603 25 43 40
5.227549 1.366291 29.701984 35 38 41
5.276843 1.363679 29.645187 23 20 17
5.331554 1.362508 29.619745 18 39 42
5.387131 1.361582 29.599619 19 31 30
5.445779 1.361445 29.596624 41 35 35
5.506079 1.361719 29.602577 21 30 19
5.565395 1.361746 29.603167 32 18 43
5.624761 1.361784 29.604006 20 41 35
5.681663 1.361232 29.591995 17 42 39
5.737401 1.360415 29.574234 41 16 43
5.791836 1.359309 29.550186 16 22 34
5.845278 1.357994 29.521606 26 35 38
5.900289 1.357066 29.501444 23 23 32
5.954281 1.355925 29.476637 24 43 40
6.010371 1.355280 29.462601 26 22 25
6.066548 1.354666 29.449263 43 18 35
6.120507 1.353574 29.425516 28 18 16
6.175415 1.352710 29.406736 120 120 120
6.229278 1.351636 29.383387 120 120 120
6.284323 1.350836 29.365997 120 120 120
6.340748 1.350345 29.355316 34 43 18
6.398067 1.350051 29.348932 30 39 34
6.457387 1.350181 29.351761 34 36 28
6.516762 1.350320 29.354786 41 18 39
6.574978 1.350219 29.352581 29 36 19
6.634509 1.350387 29.356236 17 34 37
6.696666 1.351082 29.371344 35 21 30
6.759555 1.351911 29.389370 39 27 35
6.824885 1.353210 29.417608 22 19 27
6.889646 1.354375 29.442932 27 37 42
6.953561 1.355355 29.464241 33 24 34
7.016687 1.356166 29.481878 20 16 20
7.076767 1.356380 29.486530 39 41 43
7.135222 1.356282 29.484388 18 40 44
7.192002 1.355869 29.475418 23 36 43
7.248062 1.355329 29.463665 39 30 44
7.304984 1.354957 29.455580 43 31 40
7.363217 1.354832 29.452869 38 43 29
7.422107 1.354829 29.452805 41 29 36
7.481973 1.355003 29.456585 19 34 33
7.541890 1.355183 29.460508 42 19 38
7.600693 1.355162 29.460049 28 23 33
7.658786 1.355016 29.456869 26 31 42
7.716356 1.354780 29.451740 30 16 22
7.774523 1.354652 29.448952 17 17 37
7.832006 1.354407 29.443632 31 27 43
7.887706 1.353860 29.431738 26 44 35
7.943407 1.353321 29.420027 32 38 38
7.999312 1.352825 29.409235 42 43 32
8.056532 1.352556 29.403400 18 19 29
8.115463 1.352577 29.403852 23 34 25
8.175089 1.352713 29.406796 24 31 20
8.235483 1.352972 29.412439 34 44 18
8.300630 1.354003 29.434858 34 40 33
8.366950 1.355210 29.461090 40 41 20
8.435309 1.356728 29.494089 21 42 20
8.505129 1.358458 29.531698 30 16 27
8.571385 1.359599 29.556501 15 19 31
8.641597 1.361348 29.594511 30 35 40
8.709776 1.362754 29.625090 30 35 40
8.777519 1.364074 29.653782 30 35 40
8.847030 1.365649 29.688021 30 35 40
8.912441 1.366574 29.708138 30 35 40
8.979431 1.367728 29.733215 30 35 40
9.044511 1.368577 29.751682 30 35 40
9.107404 1.369087 29.762758 30 24 33
9.169946 1.369537 29.772552 27 15 17
9.229835 1.369588 29.773663 25 17 41
9.285725 1.369049 29.761940 28 35 24
9.339685 1.368234 29.744219 21 43 40
9.391457 1.367111 29.719801 26 30 18
9.442281 1.365865 29.692709 20 28 23
9.495828 1.365025 29.674463 35 44 22
9.546936 1.363848 29.648869 26 26 15
9.601026 1.363109 29.632795 29 40 37
9.654241 1.362255 29.614235 32 28 35
9.703510 1.360858 29.583872 37 27 42
9.754731 1.359750 29.559790 36 23 29
9.799348 1.357741 29.516109 35 18 44
9.845716 1.355997 29.478191 27 28 27
9.890688 1.354082 29.436571 16 36 33
5.195502 1.416955 29.519899 37 29 21
5.242641 1.413746 29.453037 24 44 36
5.295223 1.412059 29.417904 35 34 16
5.349366 1.410822 29.392120 33 24 34
5.407664 1.410695 29.389479 37 15 40
5.468707 1.411279 29.401651 37 23 39
5.529562 1.411803 29.412563 36 18 38
5.590575 1.412356 29.424078 41 44 15
5.649092 1.412273 29.422354 20 38 24
5.705287 1.411617 29.408697 39 44 21
5.759682 1.410534 29.386135 37 43 29
5.813413 1.409312 29.360674 34 34 15
5.868424 1.408422 29.342119 38 33 43
5.922294 1.407278 29.318285 41 42 23
5.977973 1.406582 29.303789 42 17 15
6.033669 1.405903 29.289656 21 30 37
6.087350 1.404773 29.266106 22 30 35
6.142075 1.403903 29.247978 120 120 120
6.195822 1.402828 29.225574 120 120 120
6.250840 1.402058 29.209532 120 120 120
6.307024 1.401561 29.199186 36 17 26
6.363611 1.401162 29.190874 33 40 20
6.421948 1.401152 29.190674 30 38 27
6.480411 1.401170 29.191040 28 32 22
6.538208 1.401044 29.188427 19 27 23
6.597347 1.401206 29.191799 41 28 25
6.658727 1.401837 29.204941 36 27 33
6.720805 1.402603 29.220890 20 43 41
6.785042 1.403802 29.245872 38 43 44
6.848794 1.404881 29.268349 35 21 41
6.911770 1.405784 29.287163 33 32 25
6.973994 1.406520 29.302496 21 40 16
7.033498 1.406700 29.306240 30 27 19
7.091508 1.406580 29.303753 32 19 19
7.147921 1.406148 29.294760 22 35 16
7.203904 1.405640 29.284161 40 35 37
7.261030 1.405361 29.278347 43 18 28
7.319502 1.405344 29.278008 35 21 32
7.379154 1.405553 29.282358 29 25 28
7.439750 1.405937 29.290356 22 33 31
7.500418 1.406328 29.298508 37 24 17
7.560051 1.406521 29.302525 15 15 17
7.618458 1.406485 29.301762 41 44 29
7.676275 1.406341 29.298761 39 36 41
7.734401 1.406255 29.296972 26 20 29
7.791478 1.405981 29.291271 27 23 17
7.846644 1.405369 29.278521 29 24 40
7.901685 1.404744 29.265499 41 23 34
7.956267 1.404047 29.250980 23 18 32
8.011982 1.403559 29.240808 19 15 21
8.069309 1.403358 29.236628 19 36 17
8.127389 1.403290 29.235212 17 19 24
8.186859 1.403462 29.238783 35 42 36
8.250814 1.404394 29.258207 17 29 39
8.316040 1.405528 29.281832 22 31 43
8.383533 1.407027 29.313053 16 29 44
8.452683 1.408780 29.349592 40 26 15
8.518678 1.409988 29.374752 18 44 36
8.588485 1.411806 29.412621 26 28 25
8.656138 1.413247 29.442648 30 35 40
8.723317 1.414592 29.470667 30 35 40
8.792192 1.416192 29.504002 30 35 40
8.857031 1.417125 29.523438 30 35 40
8.923675 1.418332 29.548594 30 35 40
8.988480 1.419234 29.567368 31 34 40
9.051492 1.419842 29.580040 30 25 16
9.114833 1.420493 29.593615 36 15 40
9.175602 1.420738 29.598715 17 38 39
9.232088 1.420321 29.590025 39 33 36
9.285934 1.419506 29.573038 33 38 16
9.336985 1.418276 29.547421 17 24 28
9.386798 1.416875 29.518232 23 23 26
9.439190 1.415879 29.497469 28 32 16
9.488824 1.414483 29.468399 41 25 41
9.541620 1.413573 29.449444 39 39 42
9.593783 1.412582 29.428783 32 35 18
9.642281 1.411066 29.397200 23 29 41
9.693247 1.409927 29.373476 17 35 21
9.737674 1.407856 29.330343 41 34 29
9.783848 1.406062 29.292957 26 34 26
9.828590 1.404084 29.251757 35 41 27
5.126711 1.473193 29.463856 16 43 43
5.174232 1.469952 29.399044 20 44 44
5.219129 1.466047 29.320950 23 32 21
5.269374 1.463715 29.274302 27 23 22
5.321981 1.462083 29.241653 40 38 33
5.380107 1.461985 29.239710 20 22 35
5.442117 1.462935 29.258694 40 38 40
5.504611 1.463992 29.279844 43 22 24
5.567322 1.465085 29.301695 43 20 41
5.627347 1.465455 29.309097 33 24 30
5.683829 1.464904 29.298090 18 35 29
5.737997 1.463775 29.275496 44 25 32
5.791854 1.462589 29.251787 17 18 26
5.846836 1.461709 29.234179 32 24 21
5.900595 1.460543 29.210867 27 41 18
5.956012 1.459807 29.196138 20 15 35
6.011374 1.459071 29.181429 41 33 23
6.064821 1.457890 29.157793 27 23 27
6.119364 1.456991 29.139830 120 120 120
6.172836 1.455857 29.117149 120 120 120
6.227518 1.455028 29.100552 120 120 120
6.283321 1.454473 29.089451 26 30 41
6.339527 1.454020 29.080399 18 42 36
6.397546 1.453988 29.079754 15 30 19
6.455627 1.453970 29.079403 33 37 18
6.513139 1.453826 29.076513 28 30 19
6.571902 1.453961 29.079210 16 34 16
6.632694 1.454538 29.090761 24 23 36
6.694173 1.455255 29.105099 19 42 17
6.757627 1.456385 29.127701 39 22 18
6.820663 1.457407 29.148134 20 18 39
6.883018 1.458266 29.165329 25 17 37
6.944685 1.458967 29.179348 39 35 35
7.003883 1.459142 29.182844 29 39 17
7.061664 1.459021 29.180429 30 35 40
7.117899 1.458586 29.171719 18 38 17
7.173793 1.458088 29.161758 33 25 33
7.230812 1.457825 29.156500 34 28 21
7.289121 1.457824 29.156485 37 19 22
7.349074 1.458150 29.162992 26 33 20
7.410152 1.458691 29.173828 27 43 41
7.471464 1.459270 29.185408 28 20 27
7.531862 1.459663 29.193264 37 20 19
7.590707 1.459751 29.195028 35 37 21
7.648805 1.459696 29.193911 39 30 22
7.706669 1.459596 29.191927 44 20 43
7.763394 1.459285 29.185692 37 37 32
7.818718 1.458716 29.174322 17 17 42
7.874068 1.458161 29.163216 40 38 30
7.928710 1.457483 29.149670 44 31 37
7.983992 1.456933 29.138659 40 32 40
8.040805 1.456668 29.133352 30 39 30
8.098769 1.456613 29.132263 23 35 15
8.158319 1.456843 29.136854 38 17 33
8.222147 1.457828 29.156551 35 22 19
8.286910 1.458963 29.179262 24 33 35
8.353893 1.460471 29.209417 30 20 32
8.422761 1.462285 29.245699 36 29 42
8.488658 1.463562 29.271235 17 15 15
8.558315 1.465465 29.309299 35 29 17
8.625850 1.466981 29.339624 30 35 40
8.692652 1.468353 29.367069 30 35 40
8.760709 1.469918 29.398354 30 35 40
8.824622 1.470770 29.415405 30 35 40
8.889724 1.471809 29.436171 30 35 40
8.952598 1.472467 29.449335 40 16 41
9.014387 1.472939 29.458780 34 27 44
9.078208 1.473735 29.474703 26 27 25
9.140655 1.474299 29.485983 30 21 25
9.198651 1.474143 29.482855 31 40 15
9.252997 1.473407 29.468143 34 33 22
9.303836 1.472126 29.442520 42 44 44
9.353128 1.470618 29.412352 31 41 18
9.404629 1.469473 29.389465 16 32 20
9.452587 1.467793 29.355860 33 43 30
9.503171 1.466539 29.330776 15 39 28
9.553766 1.465302 29.306030 43 25 42
9.602648 1.463818 29.276367 15 38 19
9.655391 1.462938 29.258760 42 22 38
9.700268 1.460884 29.217676 40 33 18
9.744814 1.458804 29.176088 27 18 24
9.787489 1.456472 29.129433 28 15 38
9.826796 1.453668 29.073360 15 41 38
5.051058 1.527064 29.366619 18 43 18
5.096032 1.522952 29.287539 39 31 31
5.141278 1.519014 29.211805 25 20 32
5.183797 1.514368 29.122458 30 17 29
5.232410 1.511585 29.068945 23 16 32
5.284072 1.509735 29.033363 37 38 24
5.342071 1.509716 29.032993 38 26 30
5.404920 1.511053 29.058712 18 29 18
5.468975 1.512695 29.090292 23 27 37
5.533234 1.514359 29.122286 15 37 35
5.594721 1.515237 29.139172 39 23 32
5.651530 1.514843 29.131599 17 27 37
5.705516 1.513708 29.109774 40 28 25
5.759511 1.512599 29.088442 31 40 24
5.814400 1.511744 29.071999 41 28 19
5.867931 1.510556 29.049162 15 41 34
5.922898 1.509758 29.033815 38 37 26
5.977712 1.508937 29.018019 41 26 15
6.030732 1.507683 28.993906 43 31 44
6.084944 1.506748 28.975924 120 120 120
6.137957 1.505537 28.952627 120 120 120
6.192107 1.504624 28.935081 120 120 120
6.247346 1.503991 28.922899 27 43 22
6.302981 1.503463 28.912756 35 23 41
6.360531 1.503398 28.911507 27 16 15
6.418144 1.503349 28.910559 33 15 30
6.475329 1.503201 28.907721 26 26 44
6.533686 1.503326 28.910116 27 41 42
6.593804 1.503850 28.920193 32 38 23
6.654556 1.504508 28.932854 35 36 17
6.717063 1.505549 28.952858 26 25 20
6.779198 1.506488 28.970932 29 36 18
6.840756 1.507285 28.986254 40 30 44
6.901729 1.507941 28.998863 30 35 40
6.960521 1.508113 29.002171 30 35 40
7.018084 1.508018 29.000347 30 35 40
7.074178 1.507612 28.992535 30 35 40
7.130091 1.507174 28.984108 30 35 40
7.187173 1.506988 28.980537 34 26 23
7.245430 1.507050 28.981722 16 22 40
7.305824 1.507551 28.991364 23 40 32
7.367393 1.508285 29.005484 41 26 21
7.429352 1.509087 29.020905 34 28 28
7.490639 1.509741 29.033484 31 16 38
7.549995 1.509999 29.038441 15 22 38
7.608561 1.510096 29.040310 44 22 25
7.666345 1.510038 29.039185 17 29 18
7.722844 1.509729 29.033249 27 18 43
7.778343 1.509231 29.023666 29 17 30
7.833852 1.508742 29.014265 28 23 43
7.888628 1.508120 29.002310 36 23 23
7.943703 1.507564 28.991617 20 31 18
8.000297 1.507302 28.986584 31 30 44
8.058418 1.507330 28.987116 17 22 43
8.118179 1.507662 28.993498 17 29 35
8.181897 1.508719 29.013819 35 28 22
8.246080 1.509846 29.035494 16 21 26
8.312301 1.511327 29.063990 33 39 42
8.380606 1.513165 29.099327 19 33 27
8.446142 1.514481 29.124628 28 15 29
8.515382 1.516438 29.162266 29 24 27
8.582683 1.518026 29.192801 25 29 20
8.648991 1.519417 29.219564 41 21 23
8.715994 1.520912 29.248301 30 35 40
8.778722 1.521645 29.262407 42 19 27
8.841941 1.522453 29.277950 16 38 31
8.902792 1.522846 29.285500 37 36 30
8.962952 1.523116 29.290693 36 17 28
9.025967 1.523864 29.305086 33 26 24
9.088608 1.524541 29.318090 39 16 39
9.146966 1.524494 29.317198 23 36 19
9.201595 1.523831 29.304443 24 44 21
9.252488 1.522561 29.280025 24 40 26
9.301474 1.520996 29.249918 31 32 24
9.352319 1.519752 29.225998 27 40 15
9.398837 1.517825 29.188934 34 17 25
9.447548 1.516273 29.159100 34 20 23
9.496418 1.514766 29.130117 23 42 29
9.544525 1.513156 29.099163 23 43 29
9.597483 1.512331 29.083282 34 26 31
9.641703 1.510146 29.041273 20 26 41
9.684717 1.507800 28.996159 20 17 21
9.725675 1.505164 28.945461 22 22 34
9.763574 1.502088 28.886314 35 36 32
9.808450 1.500116 28.848381 42 41 17
5.030165 1.579238 29.245146 24 41 41
5.072702 1.574287 29.153458 36 36 40
5.115457 1.569515 29.065098 42 43 19
5.156637 1.564373 28.969873 40 25 42
5.205228 1.561568 28.917933 36 17 41
5.257036 1.559780 28.884815 31 38 42
5.314953 1.559823 28.885612 33 32 18
5.378024 1.561362 28.914110 16 35 34
5.442808 1.563360 28.951105 39 43 42
5.507797 1.565374 28.988405 34 43 16
5.570013 1.566566 29.010487 33 36 32
5.627001 1.566279 29.005159 20 17 27
5.680896 1.565145 28.984163 41 41 16
5.734962 1.564080 28.964453 23 41 28
5.789753 1.563233 28.948767 16 19 20
5.843069 1.562008 28.926083 24 42 21
5.897663 1.561146 28.910110 41 24 16
5.952029 1.560241 28.893347 38 35 41
6.004683 1.558908 28.868670 17 29 30
6.058623 1.557932 28.850584 120 120 120
6.111257 1.556641 28.826683 120 120 120
6.164993 1.555652 28.808378 120 120 120
6.219793 1.554948 28.795336 41 23 28
6.274960 1.554348 28.784222 33 35 34
6.332122 1.554248 28.782372 24 42 23
6.389379 1.554173 28.780987 33 32 29
6.446349 1.554031 28.778343 41 26 24
6.504459 1.554163 28.780792 15 44 41
6.564131 1.554663 28.790047 42 39 19
6.624380 1.555289 28.801653 42 24 19
6.686230 1.556278 28.819956 25 25 28
6.747730 1.557169 28.836454 28 33 25
6.808713 1.557926 28.850479 32 16 31
6.869179 1.558553 28.862097 30 35 40
6.927658 1.558723 28.865240 30 35 40
6.985084 1.558655 28.863985 30 35 40
7.041123 1.558281 28.857059 30 35 40
7.097126 1.557906 28.850107 30 35 40
7.154409 1.557815 28.848423 32 15 27
7.212764 1.557957 28.851057 19 33 17
7.273513 1.558610 28.863146 29 38 17
7.335332 1.559480 28.879259 24 29 34
7.397609 1.560433 28.896910 32 21 37
7.459466 1.561284 28.912659 26 29 20
7.519188 1.561678 28.919954 34 26 40
7.578262 1.561932 28.924664 22 15 25
7.636313 1.561973 28.925428 40 40 36
7.692931 1.561723 28.920792 26 34 23
7.748521 1.561269 28.912392 28 16 36
7.803865 1.560773 28.903202 24 38 24
7.858746 1.560192 28.892448 42 40 33
7.914009 1.559695 28.883244 30 39 33
7.970884 1.559521 28.880014 37 21 30
8.029431 1.559674 28.882845 27 32 15
8.089454 1.560109 28.890905 25 32 40
8.153205 1.561252 28.912075 41 44 44
8.217052 1.562397 28.933283 28 38 20
8.282729 1.563872 28.960592 29 35 35
8.350542 1.565727 28.994938 26 22 24
8.415675 1.567057 29.019569 18 29 33
8.484488 1.569049 29.056465 34 40 38
8.551561 1.570695 29.086943 44 33 27
8.617513 1.572114 29.113218 15 19 26
8.683797 1.573574 29.140257 18 36 21
8.745736 1.574232 29.152452 24 25 29
8.807798 1.574904 29.164894 32 31 39
8.867713 1.575186 29.170109 40 37 32
8.926789 1.575316 29.172514 37 20 31
8.988132 1.575841 29.182245 19 35 23
9.049318 1.576333 29.191347 40 33 30
9.106798 1.576177 29.188456 31 40 39
9.161543 1.575552 29.176889 19 43 44
9.213024 1.574377 29.155138 15 16 18
9.262418 1.572864 29.127102 42 35 17
9.313442 1.571643 29.104507 36 15 31
9.359846 1.569664 29.067844 27 37 41
9.408276 1.568046 29.037888 21 24 28
9.456301 1.566381 29.007059 27 20 35
9.502766 1.564480 28.971848 25 43 34
9.553949 1.563373 28.951361 21 17 34
9.596451 1.560868 28.904972 41 30 43
9.638718 1.558356 28.858437 21 35 35
9.679138 1.555576 28.806957 16 36 38
9.715928 1.552249 28.745350 29 26 31
9.759786 1.550084 28.705252 30 31 30
4.968201 1.636584 29.224712 28 16 25
5.009199 1.630902 29.123253 16 18 28
5.049305 1.625064 29.018995 39 15 43
5.089796 1.619481 28.919296 37 28 34
5.130303 1.614028 28.821924 40 29 41
5.179625 1.611439 28.775694 18 21 33
5.232151 1.609893 28.748083 33 44 33
5.290167 1.610051 28.750908 18 21 30
5.353234 1.611726 28.780827 30 25 18
5.418183 1.613927 28.820124 43 22 15
5.483186 1.616097 28.858871 30 25 31
5.545578 1.617460 28.883217 27 34 39
5.602683 1.617269 28.879810 41 15 28
5.656634 1.616181 28.860376 41 42 35
5.710751 1.615162 28.842175 42 35 19
5.765404 1.614313 28.827021 30 29 26
5.818469 1.613041 28.804300 44 25 42
5.872683 1.612109 28.787663 34 44 44
5.926588 1.611111 28.769844 39 15 41
5.978834 1.609686 28.744392 42 44 38
6.032446 1.608652 28.725933 120 120 120
6.084667 1.607271 28.701260 120 120 120
6.137955 1.606194 28.682034 120 120 120
6.192329 1.605419 28.668192 35 19 20
6.247110 1.604762 28.656469 23 40 17
6.303978 1.604649 28.654448 24 44 38
6.361035 1.604585 28.653309 17 20 42
6.417902 1.604476 28.651350 34 34 36
6.475897 1.604647 28.654413 31 39 40
6.535341 1.605171 28.663776 17 15 43
6.595250 1.605800 28.675001 42 16 30
6.656684 1.606786 28.692604 19 17 26
6.717739 1.607664 28.708284 33 40 17
6.778315 1.608414 28.721672 30 35 40
6.838457 1.609049 28.733013 30 35 40
6.896724 1.609236 28.736349 30 35 40
6.954149 1.609225 28.736155 30 35 40
7.010243 1.608908 28.730503 30 35 40
7.066429 1.608618 28.725323 30 35 40
7.123985 1.608642 28.725746 30 35 40
7.182475 1.608874 28.729900 38 27 34
7.243508 1.609668 28.744080 23 17 15
7.305429 1.610646 28.761530 27 22 34
7.367835 1.611714 28.780605 27 15 25
7.430030 1.612720 28.798567 18 25 23
7.489961 1.613222 28.807543 27 26 28
7.549381 1.613608 28.814432 22 33 37
7.607606 1.613735 28.816690 19 29 19
7.664318 1.613541 28.813225 26 25 33
7.720010 1.613137 28.806009 33 28 16
7.775250 1.612644 28.797222 22 25 41
7.830361 1.612133 28.788092 30 25 17
7.885975 1.611732 28.780930 26 19 33
7.943262 1.611676 28.779936 29 21 18
8.002323 1.611979 28.785336 41 33 27
8.062608 1.612522 28.795029 35 26 37
8.126398 1.613753 28.817013 26 22 24
8.189927 1.614915 28.837772 18 20 34
8.255038 1.616371 28.863770 30 36 17
8.322263 1.618218 28.896748 25 38 18
8.386881 1.619536 28.920279 28 41 36
8.455197 1.621545 28.956154 44 35 44
8.522056 1.623249 28.986584 31 21 26
8.587735 1.624707 29.012617 24 22 39
8.653398 1.626142 29.038250 25 27 24
8.714653 1.626735 29.048843 16 43 29
8.775688 1.627280 29.058571 16 25 43
8.834904 1.627482 29.062183 27 24 38
8.892869 1.627453 29.061665 16 22 22
8.951976 1.627632 29.064856 44 26 22
9.010928 1.627781 29.067511 15 33 26
9.066662 1.627350 29.059813 37 30 27
9.121025 1.626680 29.047850 25 39 25
9.172802 1.625560 29.027855 39 43 38
9.222297 1.624052 29.000935 27 25 15
9.273409 1.622847 28.979403 18 43 43
9.319713 1.620820 28.943209 29 39 30
9.368047 1.619169 28.913725 30 32 23
9.415369 1.617364 28.881500 20 42 16
9.459984 1.615119 28.841413 24 16 22
9.509002 1.613649 28.815157 26 24 38
9.549832 1.610815 28.764553 33 37 34
9.591941 1.608230 28.718388 42 17 44
9.632501 1.605417 28.668158 30 37 27
9.668572 1.601894 28.605244 44 27 37
9.711465 1.599535 28.563131 44 36 34
9.751768 1.596781 28.513941 40 24 15
4.891499 1.688732 29.116066 40 28 41
4.941199 1.685821 29.065878 19 18 38
4.980896 1.679604 28.958698 33 23 42
5.018934 1.672978 28.844446 22 28 24
5.057587 1.666705 28.736288 40 22 36
5.097420 1.660957 28.637194 27 34 24
5.147169 1.658532 28.595383 26 35 38
5.200271 1.657229 28.572920 30 42 38
5.258526 1.657579 28.578943 20 28 39
5.321734 1.659465 28.611473 15 41 34
5.386745 1.661868 28.652901 32 19 30
5.451496 1.664141 28.692085 44 35 38
5.513934 1.665668 28.718407 39 43 24
5.571246 1.665630 28.717764 31 44 36
5.625398 1.664658 28.701008 21 42 30
5.679637 1.663732 28.685034 15 31 23
5.734132 1.662898 28.670662 22 16 32
5.786902 1.661586 28.648027 41 16 23
5.840665 1.660581 28.630711 22 37 42
5.894011 1.659479 28.611706 33 42 37
5.945752 1.657950 28.585344 38 38 39
5.998944 1.656851 28.566399 120 120 120
6.050664 1.655370 28.540869 120 120 120
6.103432 1.654201 28.520710 120 120 120
6.157341 1.653360 28.506210 37 39 32
6.211714 1.652658 28.494099 36 24 44
6.268279 1.652546 28.492176 43 17 21
6.325185 1.652526 28.491823 32 27 39
6.381995 1.652481 28.491051 26 40 25
6.439950 1.652731 28.495356 41 28 31
6.499260 1.653321 28.505527 30 33 42
6.558891 1.653981 28.516918 23 32 23
6.619993 1.654998 28.534452 17 29 30
6.680629 1.655882 28.549698 20 26 37
6.740832 1.656645 28.562849 26 24 27
6.800744 1.657324 28.574553 30 35 40
6.858846 1.657554 28.578526 30 35 40
6.916385 1.657646 28.580103 30 35 40
6.972629 1.657428 28.576349 30 35 40
7.029064 1.657259 28.573433 30 35 40
7.086970 1.657437 28.576492 36 36 35
7.145594 1.657778 28.582375 20 22 36
7.206944 1.658741 28.598984 17 40 33
7.269022 1.659856 28.618198 39 22 44
7.331561 1.661057 28.638910 32 24 18
7.394096 1.662239 28.659288 35 27 44
7.454197 1.662859 28.669987 42 40 22
7.513679 1.663334 28.678165 22 16 17
7.571587 1.663455 28.680252 30 44 29
7.627955 1.663238 28.676521 40 23 29
7.683666 1.662883 28.670395 28 22 19
7.739033 1.662459 28.663086 19 27 38
7.794343 1.662029 28.655674 31 20 40
7.849967 1.661672 28.649515 32 35 30
7.907221 1.661662 28.649351 21 23 27
7.966393 1.662053 28.656090 20 24 38
8.026694 1.662672 28.666763 31 28 43
8.090170 1.663936 28.688545 15 44 15
8.153066 1.665063 28.707979 44 33 26
8.217341 1.666454 28.731960 29 33 15
8.283685 1.668242 28.762794 30 34 17
8.347611 1.669522 28.784864 31 28 33
8.415268 1.671526 28.819412 27 43 43
8.481835 1.673287 28.849779 41 22 19
8.547176 1.674785 28.875595 22 39 18
8.612100 1.676181 28.899666 38 15 26
8.672552 1.676693 28.908508 15 16 21
8.732329 1.677070 28.914997 16 20 44
8.790535 1.677142 28.916233 16 18 29
8.847168 1.676914 28.912313 16 35 16
8.904119 1.676750 28.909477 30 36 27
8.961117 1.676596 28.906830 21 32 30
9.014881 1.675843 28.893850 29 30 26
9.068252 1.675027 28.879784 17 42 28
9.119364 1.673807 28.858746 43 37 27
9.167847 1.672123 28.829708 17 42 43
9.218198 1.670798 28.806868 24 30 16
9.263368 1.668557 28.768223 19 31 23
9.310660 1.666723 28.736605 40 35 16
9.356872 1.664720 28.702061 18 43 34
9.399998 1.662195 28.658529 24 36 23
9.447781 1.660519 28.629639 38 28 29
9.488001 1.657542 28.578318 42 23 30
9.530538 1.655004 28.534546 33 22 36
9.571591 1.652239 28.486879 34 26 23
9.607243 1.648580 28.423796 43 32 38
9.649129 1.646028 28.379791 20 27 26
9.688206 1.643029 28.328087 17 42 26
9.734670 1.641311 28.298458 18 41 34
4.873585 1.740566 29.009434 34 33 17
4.922769 1.737448 28.957464 22 21 34
4.961735 1.730838 28.847298 37 31 24
4.998950 1.723776 28.729595 19 26 20
5.037016 1.717165 28.619410 32 34 43
5.076775 1.711272 28.521208 15 39 17
5.126843 1.708948 28.482464 15 43 18
5.180384 1.707819 28.463646 25 23 38
5.238917 1.708343 28.472376 19 20 18
5.302197 1.710386 28.506435 33 30 30
5.366943 1.712854 28.547567 31 18 33
5.431103 1.715085 28.584755 32 38 36
5.493264 1.716645 28.610752 22 18 16
5.550716 1.716716 28.611940 19 39 41
5.605128 1.715855 28.597589 32 30 15
5.659471 1.714991 28.583185 42 18 32
5.713860 1.714158 28.569300 33 22 27
5.766436 1.712803 28.546713 19 36 21
5.819924 1.711742 28.529041 27 22 35
5.872926 1.710561 28.509352 16 19 34
5.924327 1.708940 28.482340 18 17 18
5.977220 1.707777 28.462954 120 120 120
6.028614 1.706212 28.436859 120 120 120
6.081061 1.704970 28.416174 120 120 120
6.134713 1.704087 28.401449 37 42 42
6.188900 1.703367 28.389448 36 44 34
6.245345 1.703276 28.387930 35 18 31
6.302269 1.703316 28.388601 17 36 41
6.359135 1.703340 28.388994 16 31 44
6.417174 1.703674 28.394573 41 42 44
6.476577 1.704362 28.406038 37 15 22
6.536167 1.705087 28.418116 32 35 31
6.597265 1.706189 28.436489 25 36 34
6.657798 1.707128 28.452129 43 34 16
6.717903 1.707941 28.465689 40 16 34
6.777834 1.708698 28.478292 30 35 40
6.835937 1.708984 28.483070 30 35 40
6.893673 1.709175 28.486252 30 35 40
6.950101 1.709041 28.484022 30 35 40
7.006753 1.708964 28.482737 30 35 40
7.064922 1.709255 28.487589 28 31 20
7.123632 1.709672 28.494530 30 31 26
7.185141 1.710748 28.512465 26 33 15
7.247278 1.711955 28.532591 29 23 17
7.309813 1.713237 28.553957 43 33 26
7.372440 1.714521 28.575350 28 21 29
7.432543 1.715202 28.586704 38 39 44
7.491805 1.715681 28.594677 25 17 34
7.549168 1.715720 28.595335 43 40 25
7.605046 1.715424 28.590399 27 39 22
7.660710 1.715084 28.584740 43 39 15
7.716322 1.714738 28.578970 41 27 22
7.771771 1.714361 28.572687 18 41 44
7.827241 1.713994 28.566572 18 26 19
7.884214 1.713960 28.565994 19 41 33
7.943202 1.714360 28.572668 23 27 16
8.003342 1.715002 28.583363 26 23 24
8.066419 1.716259 28.604322 35 19 42
8.128792 1.717350 28.622507 21 39 30
8.192438 1.718693 28.644890 35 19 42
8.258105 1.720439 28.673977 33 22 29
8.321511 1.721692 28.694864 25 38 34
8.388694 1.723704 28.728403 26 36 26
8.455057 1.725522 28.758696 25 15 40
8.520217 1.727071 28.784515 16 38 18
8.584724 1.728468 28.807800 18 44 28
8.644725 1.728945 28.815750 20 27 17
8.703779 1.729228 28.820459 42 27 42
8.761356 1.729215 28.820250 39 39 21
8.817150 1.728853 28.814215 42 34 19
8.872841 1.728476 28.807926 22 22 17
8.928712 1.728138 28.802296 18 22 22
8.980988 1.727113 28.785217 24 17 24
9.033222 1.726093 28.768223 37 40 23
9.083258 1.724669 28.744488 42 37 17
9.130352 1.722708 28.711800 16 31 25
9.179717 1.721197 28.686617 29 40 22
9.223641 1.718691 28.644848 18 16 34
9.269856 1.716640 28.610668 16 18 28
9.315302 1.714473 28.574547 22 32 35
9.357830 1.711798 28.529970 37 24 26
9.405444 1.710081 28.501347 35 28 32
9.446093 1.707125 28.452087 16 33 31
9.489490 1.704699 28.411646 43 41 31
9.531342 1.702025 28.367090 30 19 19
9.567119 1.698305 28.305086 40 36 30
9.608439 1.695607 28.260115 15 16 30
9.646883 1.692436 28.207260 40 21 30
9.692727 1.690592 28.176531 44 31 19
4.845263 1.788133 28.840853 16 16 36
4.893327 1.784625 28.784279 44 25 35
4.931631 1.777681 28.672272 22 21 39
4.968744 1.770472 28.555998 29 29 40
5.007210 1.763903 28.450054 40 39 43
5.047716 1.758193 28.357954 21 40 24
5.098470 1.756140 28.324833 37 25 44
5.152910 1.755387 28.312693 36 37 15
