ply
format ascii 1.0
element vertex 1289
property float x
property float y
property float z
property uchar red
property uchar green
property uchar blue
end_header
8.412014 0.947833 29.619768 21 36 34
8.470372 0.947734 29.616686 33 17 26
8.526193 0.947355 29.604836 35 31 15
8.581921 0.946971 29.592831 41 23 16
8.635830 0.946392 29.574760 44 26 33
8.690610 0.945917 29.559896 43 40 38
8.745755 0.945487 29.546471 27 31 36
8.801130 0.945088 29.533993 15 35 36
8.858798 0.944938 29.529325 37 42 21
8.913466 0.944473 29.514788 20 22 39
8.968241 0.944025 29.500793 39 35 27
9.021046 0.943377 29.480543 32 29 21
9.070699 0.942410 29.450321 21 24 42
9.122018 0.941628 29.425863 30 15 21
9.168396 0.940348 29.385885 38 31 15
9.217120 0.939324 29.353886 38 27 43
9.264971 0.938225 29.319529 27 23 34
9.309593 0.936814 29.275450 33 15 43
9.358700 0.935870 29.245937 15 32 39
9.401784 0.934339 29.198086 23 25 20
9.447793 0.933115 29.159855 24 35 29
6.207729 1.099285 32.331924 34 25 31
6.247961 1.095004 32.205986 19 21 22
6.287339 1.090661 32.078262 37 39 21
6.322476 1.085678 31.931698 28 28 23
6.369070 1.082742 31.845350 22 27 39
6.401431 1.077469 31.690250 25 15 24
6.438123 1.073021 31.559427 30 23 19
6.471345 1.068086 31.414295 41 18 25
6.493743 1.061477 31.219919 25 35 27
6.527336 1.056807 31.082554 120 120 120
6.550508 1.050553 30.898624 120 120 120
6.583707 1.046009 30.764984 120 120 120
6.621658 1.042298 30.655825 27 31 18
6.655899 1.038076 30.531649 23 37 17
6.703224 1.035953 30.469202 32 42 28
6.748003 1.033478 30.396410 18 20 32
6.797756 1.031802 30.347126 39 40 25
6.852769 1.030948 30.321987 21 28 32
6.908757 1.030253 30.301567 24 23 44
6.970165 1.030372 30.305065 31 20 34
7.033796 1.030815 30.318085 28 30 23
7.099397 1.031536 30.339304 39 42 40
7.163939 1.032093 30.355675 34 28 15
7.224638 1.032091 30.355623 35 36 39
7.282217 1.031647 30.342571 35 34 26
7.333198 1.030284 30.302473 37 31 42
7.383157 1.028801 30.258839 28 34 17
7.430303 1.026952 30.204485 33 19 30
7.474959 1.024793 30.140963 33 34 18
7.524580 1.023343 30.098318 30 32 29
7.569384 1.021266 30.037237 35 25 28
7.618311 1.019774 29.993351 41 34 19
7.667277 1.018310 29.950302 22 20 31
7.711757 1.016278 29.890532 36 33 27
7.760880 1.014884 29.849537 34 24 23
7.806008 1.012993 29.793924 16 35 32
7.855215 1.011656 29.754601 44 43 27
7.905496 1.010477 29.719910 23 19 16
7.953033 1.008967 29.675497 26 19 41
8.005147 1.008056 29.648693 33 19 33
8.053984 1.006748 29.610235 18 44 34
8.104946 1.005723 29.580095 37 36 32
8.157074 1.004857 29.554617 24 20 41
8.208164 1.003876 29.525770 34 22 24
8.263101 1.003377 29.511076 23 29 34
8.317377 1.002804 29.494244 17 44 28
8.374141 1.002538 29.486412 29 26 29
8.431040 1.002292 29.479162 17 19 16
8.485157 1.001720 29.462351 39 43 25
8.539827 1.001221 29.447680 25 40 30
8.592384 1.000483 29.425974 32 30 27
8.646213 0.999902 29.408888 22 22 38
8.700366 0.999366 29.393129 41 31 28
8.754129 0.998793 29.376272 35 42 23
8.810370 0.998509 29.367899 24 38 15
8.863675 0.997897 29.349918 43 27 16
8.917694 0.997374 29.334518 17 36 25
8.970084 0.996676 29.314001 23 42 28
9.019275 0.995634 29.283360 41 33 37
9.070314 0.994809 29.259077 18 42 18
9.116126 0.993424 29.218353 30 20 42
9.164022 0.992283 29.184784 30 20 25
9.211090 0.991067 29.149019 43 22 23
9.255250 0.989555 29.104561 35 33 34
9.304198 0.988571 29.075619 27 32 19
9.347274 0.986979 29.028801 21 26 38
9.393405 0.985728 28.991991 17 16 31
9.438528 0.984386 28.952541 44 15 28
9.479287 0.982609 28.900265 19 25 44
6.136260 1.162660 32.296104 33 22 16
6.173522 1.157535 32.153763 19 41 37
6.214471 1.153201 32.033356 21 18 44
6.254465 1.148779 31.910538 31 43 17
6.290393 1.143708 31.769661 33 42 24
6.337316 1.140717 31.686581 23 36 29
6.369079 1.135083 31.530096 35 40 43
6.403889 1.130098 31.391613 43 30 24
6.435470 1.124645 31.240147 39 28 34
6.457973 1.117726 31.047947 44 16 39
6.492774 1.113047 30.917971 120 120 120
6.517581 1.106759 30.743307 120 120 120
6.551734 1.102161 30.615578 120 120 120
6.590559 1.098427 30.511848 37 44 37
6.625923 1.094189 30.394144 19 36 35
6.673808 1.092078 30.335491 18 20 37
6.719544 1.089656 30.268217 34 19 22
6.770014 1.088038 30.223276 36 34 43
6.825637 1.087270 30.201935 26 34 30
6.882424 1.086699 30.186071 43 27 44
6.944208 1.086920 30.192209 17 28 27
7.008249 1.087487 30.207972 21 36 39
7.074395 1.088368 30.232456 37 19 39
7.138607 1.088940 30.248335 39 42 33
7.197183 1.088650 30.240265 22 40 39
7.251876 1.087781 30.216148 36 20 25
7.301044 1.086106 30.169605 16 33 37
7.351113 1.084590 30.127514 38 18 25
7.399530 1.082858 30.079390 32 24 38
7.445535 1.080803 30.022318 27 35 35
7.496271 1.079463 29.985085 41 18 32
7.542889 1.077556 29.932100 40 15 19
7.593428 1.076234 29.895386 30 18 23
7.643610 1.074883 29.857851 33 41 18
7.688827 1.072860 29.801655 15 43 33
7.737704 1.071374 29.760401 31 23 34
7.782650 1.069372 29.704769 40 43 15
7.831883 1.067984 29.666224 37 34 17
7.881938 1.066729 29.631348 22 24 40
7.928946 1.065082 29.585619 42 38 37
7.980400 1.064053 29.557035 33 35 35
8.027694 1.062489 29.513582 30 42 31
8.076959 1.061206 29.477953 16 21 24
8.127148 1.060063 29.446190 36 18 35
8.176134 1.058780 29.410555 20 36 22
8.229679 1.058102 29.391710 38 33 30
8.282230 1.057306 29.369610 16 35 35
8.337682 1.056889 29.358036 32 33 29
8.393554 1.056531 29.348091 25 35 30
8.446590 1.055824 29.328436 39 19 40
8.500679 1.055257 29.312685 17 31 21
8.552682 1.054440 29.290007 29 34 41
8.606364 1.053841 29.273348 40 19 15
8.660130 1.053259 29.257196 25 19 34
8.712541 1.052522 29.236715 31 30 24
8.767160 1.052059 29.223867 29 20 36
8.818948 1.051265 29.201815 30 19 39
8.872242 1.050660 29.185005 18 34 15
8.924265 1.049914 29.164265 19 42 24
8.973042 1.048797 29.133253 17 38 39
9.023851 1.047931 29.109196 44 41 38
9.069024 1.046426 29.067385 23 42 35
9.115942 1.045140 29.031664 33 19 17
9.161979 1.043770 28.993605 30 42 31
9.205286 1.042108 28.947439 17 31 30
9.253749 1.041047 28.917965 43 25 39
9.296317 1.039340 28.870548 21 28 23
9.342201 1.038022 28.833954 44 28 33
9.386844 1.036584 28.794001 44 18 32
9.426487 1.034614 28.739290 24 19 15
9.471216 1.033224 28.700655 25 30 35
6.000730 1.225956 32.261990 23 34 30
6.043443 1.221547 32.145973 17 19 21
6.092436 1.218487 32.065453 37 16 36
6.130572 1.213342 31.930063 38 32 25
6.172532 1.209053 31.817177 26 23 34
6.213190 1.204598 31.699947 29 25 22
6.249111 1.199324 31.561165 25 22 40
6.295184 1.196085 31.475920 27 37 16
6.326157 1.190069 31.317610 22 21 39
6.360169 1.184737 31.177298 33 19 34
6.391468 1.179009 31.026545 22 36 20
6.414656 1.171908 30.839693 20 39 19
6.450489 1.167231 30.716614 120 120 120
6.476855 1.160946 30.551203 120 120 120
6.511996 1.156336 30.429888 120 120 120
6.551717 1.152617 30.332024 19 15 17
6.588244 1.148410 30.221304 29 23 32
6.636674 1.146335 30.166700 26 38 31
6.683371 1.144000 30.105274 15 26 34
6.734549 1.142468 30.064949 30 35 40
6.790744 1.141806 30.047539 24 17 43
6.848387 1.141398 30.036787 34 40 18
6.910604 1.141752 30.046104 32 31 39
6.974283 1.142339 30.061563 15 35 24
7.039331 1.143139 30.082613 42 27 24
7.101789 1.143508 30.092327 32 32 20
7.158244 1.142913 30.076654 41 20 35
7.211157 1.141766 30.046486 28 15 33
7.258775 1.139808 29.994936 29 33 20
7.308153 1.138155 29.951447 18 22 29
7.356442 1.136361 29.904238 39 24 41
7.402328 1.134228 29.848099 22 18 28
7.453090 1.132870 29.812361 18 32 28
7.500014 1.130955 29.761961 29 32 40
7.550822 1.129650 29.727644 23 26 26
7.601260 1.128312 29.692421 42 23 40
7.646763 1.126267 29.638617 40 20 37
7.695639 1.124747 29.598610 37 15 34
7.740439 1.122659 29.543661 33 15 15
7.789410 1.121203 29.505341 44 39 43
7.838884 1.119841 29.469490 34 32 34
7.885014 1.118024 29.421694 44 39 21
7.935523 1.116851 29.390825 44 40 34
7.981516 1.115065 29.343809 35 23 32
8.029626 1.113598 29.305204 28 35 43
8.078676 1.112281 29.270565 22 41 38
8.126420 1.110806 29.231726 35 37 16
8.179108 1.110022 29.211102 19 38 40
8.230760 1.109110 29.187094 26 32 19
8.285512 1.108625 29.174337 30 17 34
8.340926 1.108235 29.164076 37 23 32
8.393601 1.107489 29.144449 19 36 43
8.447508 1.106915 29.129339 30 41 24
8.499494 1.106099 29.107857 27 32 18
8.553264 1.105524 29.092733 31 35 40
8.606960 1.104948 29.077568 26 19 16
8.658913 1.104157 29.056755 23 27 21
8.712785 1.103619 29.042616 41 20 27
8.763658 1.102712 29.018736 39 22 17
8.816147 1.102018 29.000483 40 24 29
8.867426 1.101184 28.978518 33 28 34
8.915603 1.099977 28.946764 29 20 16
8.966067 1.099066 28.922796 36 32 22
9.010366 1.097416 28.879379 36 29 39
9.056080 1.095959 28.841019 29 25 44
9.100804 1.094400 28.800013 23 39 17
9.142888 1.092546 28.751219 29 20 43
9.190568 1.091380 28.720526 37 21 30
9.232357 1.089533 28.671917 42 16 41
9.277852 1.088143 28.635345 25 15 42
9.321950 1.086608 28.594938 40 43 39
9.360355 1.084431 28.537666 43 33 17
9.403713 1.082852 28.496101 40 28 28
9.437920 1.080244 28.427469 41 26 27
5.922081 1.287409 32.185223 17 17 38
5.972784 1.284470 32.111744 22 39 15
6.015948 1.279989 31.999725 39 26 34
6.065040 1.276850 31.921261 29 26 28
6.103714 1.271607 31.790178 18 43 32
6.146492 1.267318 31.682951 23 39 42
6.187579 1.262771 31.569283 34 38 15
6.222852 1.257142 31.428543 20 15 36
6.267505 1.253501 31.337523 17 43 44
6.298037 1.247136 31.178400 41 17 21
6.332775 1.241721 31.043013 41 22 36
6.365314 1.235983 30.899584 32 27 22
6.389552 1.228760 30.718998 32 24 43
6.425874 1.223976 30.599400 120 120 120
6.452993 1.217546 30.438646 120 120 120
6.488613 1.212825 30.320621 120 120 120
6.528706 1.209020 30.225492 25 35 20
6.565732 1.204722 30.118038 30 35 40
6.614336 1.202607 30.065165 30 35 40
6.661407 1.200253 30.006336 30 35 40
6.712873 1.198727 29.968182 30 35 40
6.769263 1.198100 29.952490 30 35 40
6.827313 1.197774 29.944355 30 35 40
6.889769 1.198221 29.955519 30 35 40
6.952549 1.198715 29.967884 17 24 22
7.015656 1.199257 29.981436 29 21 40
7.075974 1.199318 29.982939 42 39 33
7.131128 1.198509 29.962723 19 27 35
7.183831 1.197305 29.932629 43 26 20
7.230858 1.195183 29.879578 44 18 26
7.279464 1.193355 29.833868 26 29 21
7.326877 1.191362 29.784052 42 15 42
7.371679 1.188981 29.724514 18 35 21
7.421591 1.187455 29.686363 15 20 39
7.467516 1.185320 29.633001 16 19 24
7.517453 1.183851 29.596273 21 30 40
7.567333 1.182396 29.559896 31 44 15
7.612684 1.180261 29.506529 19 41 35
7.661784 1.178736 29.468399 32 24 42
7.706603 1.176581 29.414515 42 31 19
7.755212 1.175032 29.375803 43 25 43
7.804110 1.173550 29.338758 22 41 25
7.849541 1.171573 29.289333 25 34 43
7.899381 1.170279 29.256968 33 22 35
7.944888 1.168366 29.209148 18 26 15
7.992819 1.166835 29.170872 36 15 28
8.041909 1.165494 29.137350 41 22 34
8.089708 1.163987 29.099669 25 21 39
8.142385 1.163198 29.079947 43 24 41
8.194313 1.162314 29.057846 41 26 37
8.249264 1.161868 29.046703 25 35 42
8.305009 1.161540 29.038494 26 23 20
8.358256 1.160869 29.021721 35 26 17
8.412544 1.160351 29.008774 17 38 25
8.465229 1.159620 28.990509 28 34 24
8.519545 1.159122 28.978045 36 16 36
8.573681 1.158605 28.965137 35 21 28
8.626118 1.157868 28.946705 16 25 23
8.680112 1.157348 28.933708 32 27 26
8.730869 1.156406 28.910162 21 40 19
8.782907 1.155646 28.891142 22 30 40
8.833579 1.154716 28.867905 26 39 39
8.881342 1.153421 28.835527 44 19 18
8.931573 1.152461 28.811527 37 27 25
8.975230 1.150670 28.766762 34 25 38
9.020104 1.149058 28.726446 33 41 36
9.063853 1.147323 28.683079 26 36 36
9.104903 1.145271 28.631769 21 42 35
9.151841 1.143980 28.599503 28 36 42
9.192831 1.141967 28.549166 16 16 24
9.237883 1.140479 28.511986 41 43 31
9.281482 1.138832 28.470802 37 19 24
9.318941 1.136456 28.411406 32 44 25
9.361367 1.134711 28.367779 25 31 24
9.394329 1.131847 28.296173 35 37 29
9.431404 1.129510 28.237738 35 31 34
9.467460 1.127079 28.176964 29 41 37
5.828886 1.345127 32.026844 34 30 16
5.878598 1.341854 31.948904 15 36 22
5.929871 1.339003 31.881029 39 29 42
5.974065 1.334632 31.776943 34 41 38
6.023943 1.331608 31.704962 18 28 15
6.064043 1.326509 31.583557 20 20 23
6.108086 1.322369 31.484982 28 40 37
6.150042 1.317866 31.377766 32 37 42
6.185552 1.312087 31.240164 33 38 44
6.229487 1.308192 31.147436 40 23 42
6.260146 1.301615 30.990822 32 38 44
6.295659 1.296165 30.861074 25 20 27
6.329256 1.290431 30.724545 17 19 34
6.354532 1.283127 30.550632 42 29 26
6.391315 1.278263 30.434834 120 120 120
6.419001 1.271689 30.278307 120 120 120
6.454802 1.266830 30.162626 120 120 120
6.494892 1.262896 30.068943 30 35 40
6.532045 1.258467 29.963509 30 35 40
6.580566 1.256290 29.911663 30 35 40
6.627820 1.253912 29.855045 30 35 40
6.679501 1.252406 29.819201 30 35 40
6.736127 1.251847 29.805870 30 35 40
6.794679 1.251651 29.801222 30 35 40
6.857475 1.252235 29.815107 30 35 40
6.919378 1.252646 29.824905 30 35 40
6.980364 1.252886 29.830616 44 17 44
7.038352 1.252588 29.823526 18 43 39
7.092229 1.251570 29.799282 33 28 31
7.144813 1.250342 29.770054 43 21 26
7.191382 1.248091 29.716454 22 36 43
7.239258 1.246102 29.669090 25 32 18
7.285798 1.243917 29.617065 41 24 24
7.329563 1.241297 29.554689 35 41 31
7.378603 1.239605 29.514410 20 29 28
7.423552 1.237259 29.458540 42 38 16
7.472668 1.235638 29.419952 30 37 28
7.521979 1.234075 29.382730 31 29 31
7.567069 1.231848 29.329723 33 33 34
7.616205 1.230310 29.293095 36 42 41
7.660799 1.228067 29.239691 24 27 23
7.708909 1.226417 29.200415 33 40 44
7.757055 1.224798 29.161861 40 19 18
7.801549 1.222631 29.110258 39 17 29
7.850499 1.221189 29.075922 15 27 36
7.895107 1.219097 29.026129 19 34 44
7.942392 1.217447 28.986834 15 33 24
7.991025 1.216025 28.952988 19 33 22
8.038354 1.214428 28.914942 28 41 35
8.090695 1.213604 28.895338 35 38 23
8.142540 1.212719 28.874256 33 41 44
8.197472 1.212302 28.864338 24 19 33
8.253398 1.212037 28.858034 38 30 20
8.307029 1.211442 28.843851 25 33 20
8.361555 1.210984 28.832947 31 20 37
8.414807 1.210349 28.817833 31 15 35
8.469572 1.209939 28.808067 17 24 41
8.524036 1.209492 28.797419 17 37 19
8.576786 1.208809 28.781162 37 23 15
8.630707 1.208299 28.769024 35 44 44
8.681139 1.207311 28.745495 27 43 43
8.732537 1.206469 28.725451 15 16 38
8.782469 1.205437 28.700880 33 32 42
8.829815 1.204066 28.668232 39 31 44
8.879867 1.203079 28.644732 42 43 30
8.922991 1.201172 28.599329 24 43 21
8.967079 1.199418 28.557575 21 15 25
9.009889 1.197517 28.512306 19 24 39
9.049959 1.195278 28.458990 36 30 44
9.096154 1.193870 28.425480 36 15 41
9.136369 1.191700 28.373816 15 24 35
9.180950 1.190123 28.336266 42 36 35
9.224010 1.188369 28.294510 39 18 18
9.260497 1.185795 28.233221 41 27 20
9.301916 1.183880 28.187624 38 20 33
9.333688 1.180768 28.113518 27 35 39
9.369744 1.178231 28.053125 41 23 33
9.404996 1.175625 27.991060 43 35 42
9.434835 1.172376 27.913713 42 16 21
5.756123 1.407052 31.978462 32 19 34
5.796492 1.401350 31.848858 29 17 38
5.845921 1.397938 31.771309 23 40 36
5.897407 1.395086 31.706491 15 32 16
5.942521 1.390803 31.609154 16 25 18
5.993407 1.387947 31.544247 39 28 44
6.034908 1.383000 31.431814 34 29 35
6.079794 1.378922 31.339144 31 22 31
6.122437 1.374425 31.236923 25 19 18
6.158883 1.368641 31.105471 36 35 32
6.203251 1.364715 31.016254 21 16 18
6.234431 1.357995 30.863520 25 37 21
6.270080 1.352370 30.735687 26 36 25
6.303704 1.346422 30.600504 31 34 24
6.329312 1.338893 30.429382 34 21 23
6.366307 1.333893 30.315746 120 120 120
6.394110 1.327079 30.160896 120 120 120
6.429736 1.322002 30.045496 30 35 40
6.469518 1.317865 29.951471 30 35 40
6.506429 1.313224 29.846003 30 35 40
6.554697 1.310939 29.794079 30 35 40
6.601916 1.308488 29.738361 30 35 40
6.653653 1.306967 29.703806 30 35 40
6.710467 1.306463 29.692333 30 35 40
6.769474 1.306390 29.690674 30 35 40
6.832653 1.307116 29.707186 30 35 40
6.894310 1.307542 29.716854 30 35 40
6.954235 1.307634 29.718954 30 35 40
7.011034 1.307142 29.707771 26 30 31
7.064389 1.306021 29.682306 42 24 32
7.117030 1.304789 29.654291 28 35 28
7.163515 1.302457 29.601303 23 24 41
7.211088 1.300360 29.553640 30 31 30
7.257211 1.298038 29.500858 30 41 36
7.300498 1.295250 29.437490 21 36 29
7.349090 1.293440 29.396358 28 36 21
7.393571 1.290941 29.339569 30 35 28
7.442310 1.289219 29.300434 35 24 41
7.491304 1.287568 29.262907 19 23 26
7.536084 1.285224 29.209629 30 26 26
7.584978 1.283612 29.172993 22 22 33
7.629203 1.281240 29.119095 21 19 34
7.676925 1.279488 29.079262 29 22 28
7.724547 1.277745 29.039652 30 34 43
7.768328 1.275397 28.986300 24 43 42
7.816603 1.273817 28.950382 34 31 25
7.860285 1.271517 28.898106 15 26 42
7.906740 1.269695 28.856714 43 15 21
7.954576 1.268121 28.820927 18 15 34
8.001057 1.266354 28.780781 28 33 25
8.052824 1.265444 28.760086 26 30 24
8.104164 1.264480 28.738171 19 41 16
8.158754 1.264032 28.728008 30 44 34
8.214503 1.263770 28.722040 35 40 21
8.267999 1.263167 28.708330 25 30 35
8.322421 1.262712 28.698002 19 40 31
8.375710 1.262093 28.683937 28 31 25
8.430549 1.261715 28.675337 18 32 42
8.485036 1.261289 28.665661 42 30 18
8.537698 1.260600 28.649992 22 38 21
8.591350 1.260065 28.637835 29 33 16
8.641421 1.259015 28.613976 26 21 21
8.692347 1.258103 28.593246 34 41 43
8.741886 1.257003 28.568256 31 23 40
8.789141 1.255592 28.536173 20 28 21
8.839269 1.254606 28.513771 34 16 18
8.882398 1.252646 28.469225 21 26 22
8.926242 1.250811 28.427523 25 16 42
8.968755 1.248814 28.382137 40 34 29
9.008651 1.246480 28.329092 28 39 17
9.054695 1.245021 28.295921 37 42 42
9.094781 1.242765 28.244661 18 44 24
9.139243 1.241132 28.207541 30 21 22
9.182095 1.239301 28.165936 23 16 22
9.218210 1.236589 28.104298 26 40 40
9.259152 1.234554 28.058035 36 17 28
9.290479 1.231268 27.983372 40 27 17
9.326166 1.228597 27.922651 40 20 43
9.361192 1.225870 27.860691 20 29 20
9.390973 1.222494 27.783945 36 27 30
9.429878 1.220337 27.734934 28 18 44
5.679158 1.467647 31.905380 34 18 33
5.723137 1.462579 31.795204 44 42 24
5.762857 1.456546 31.664051 26 24 43
5.812042 1.453011 31.587185 25 34 26
5.863999 1.450236 31.526878 35 22 31
5.910317 1.446141 31.437859 27 39 39
5.962466 1.443544 31.381399 19 25 43
6.005731 1.438873 31.279848 29 34 33
6.051680 1.434935 31.194229 15 16 37
6.095287 1.430526 31.098402 18 42 21
6.133182 1.424881 30.975668 26 29 28
6.178437 1.421041 30.892187 17 41 21
6.210640 1.414304 30.745741 16 25 39
6.246778 1.408587 30.621460 18 16 40
6.280577 1.402459 30.488235 16 32 39
6.306490 1.394705 30.319664 39 29 23
6.343492 1.389527 30.207104 120 120 120
6.371053 1.382398 30.052135 120 120 120
6.406182 1.377030 29.935431 30 35 40
6.445311 1.372613 29.839405 30 35 40
6.481590 1.367675 29.732063 30 35 40
6.529366 1.365231 29.678936 30 35 40
6.576259 1.362648 29.622789 30 35 40
6.627892 1.361085 29.588802 30 35 40
6.684758 1.360615 29.578577 30 35 40
6.743934 1.360618 29.578657 30 35 40
6.807251 1.361450 29.596745 30 35 40
6.868644 1.361886 29.606226 30 35 40
6.927741 1.361864 29.605732 30 35 40
6.983710 1.361232 29.591991 22 23 43
7.036823 1.360058 29.566484 43 17 32
7.089657 1.358851 29.540239 30 35 32
7.136297 1.356486 29.488829 35 21 27
7.183778 1.354319 29.441713 30 24 34
7.229712 1.351897 29.389072 18 19 17
7.272809 1.348989 29.325842 19 25 32
7.321151 1.347092 29.284603 38 44 40
7.365429 1.344483 29.227894 18 28 29
7.414030 1.342698 29.189096 30 44 24
7.462867 1.340984 29.151825 16 23 16
7.507438 1.338536 29.098598 20 27 19
7.556067 1.336843 29.061794 38 44 29
7.599930 1.334339 29.007368 17 39 43
7.647307 1.332485 28.967073 24 40 17
7.694501 1.330628 28.926695 16 41 19
7.737732 1.328118 28.872133 30 35 40
7.785507 1.326420 28.835213 41 43 22
7.828424 1.323925 28.780970 18 37 23
7.874104 1.321930 28.737604 37 40 18
7.921177 1.320196 28.699915 41 29 33
7.966877 1.318260 28.657831 37 30 22
8.018122 1.317263 28.636148 20 42 23
8.069032 1.316225 28.613588 26 39 22
8.123384 1.315759 28.603464 34 36 21
8.179039 1.315510 28.598038 35 19 33
8.232436 1.314903 28.584848 44 37 19
8.286745 1.314449 28.574984 21 20 23
8.340029 1.313840 28.561745 40 34 23
8.394866 1.313482 28.553965 39 19 24
8.449300 1.313067 28.544933 40 29 41
8.501843 1.312365 28.529675 18 30 25
8.555223 1.311801 28.517408 19 22 21
8.604940 1.310686 28.493179 25 40 26
8.655429 1.309703 28.471806 24 35 40
8.704577 1.308531 28.446331 23 27 25
8.751676 1.307069 28.414534 35 27 27
8.801790 1.306072 28.392872 41 35 31
8.844911 1.304057 28.349073 22 18 18
8.888635 1.302157 28.307755 43 44 25
8.930952 1.300075 28.262506 23 25 42
8.970633 1.297639 28.209538 44 35 24
9.016389 1.296106 28.176216 33 34 37
9.056213 1.293745 28.124884 17 32 17
9.100454 1.292040 28.087822 33 44 33
9.143078 1.290128 28.046251 22 26 32
9.178887 1.287283 27.984411 15 26 34
9.219503 1.285143 27.937889 15 26 38
9.250617 1.281712 27.863304 15 37 44
9.286186 1.278936 27.802952 33 15 38
9.321203 1.276117 27.741676 30 27 43
9.351078 1.272632 27.665911 21 15 28
9.390032 1.270416 27.617743 39 32 25
9.421657 1.267240 27.548706 22 27 36
5.604586 1.528523 31.844236 30 27 22
5.635125 1.519584 31.658003 41 15 19
5.677350 1.513960 31.540831 44 36 17
5.716280 1.507590 31.408133 20 42 41
5.765654 1.504084 31.335075 24 41 44
5.818784 1.501622 31.283787 33 24 40
5.866768 1.497898 31.206211 22 17 27
5.920286 1.495651 31.159399 28 21 17
5.965868 1.491467 31.072227 42 31 20
6.013627 1.487908 30.998079 43 25 44
6.058866 1.483804 30.912580 28 21 20
6.098517 1.478428 30.800591 35 32 40
6.144451 1.474668 30.722256 44 16 19
6.178059 1.468054 30.584452 41 36 19
6.215572 1.462488 30.468493 32 42 26
6.250414 1.456407 30.341816 33 40 31
6.277100 1.448562 30.178366 43 41 35
6.314009 1.443202 30.066710 120 120 120
6.341231 1.435750 29.911467 120 120 120
6.375824 1.430091 29.793571 30 35 40
6.414201 1.425378 29.695375 30 35 40
6.449699 1.420117 29.585773 30 35 40
6.496815 1.417487 29.530975 30 35 40
6.543217 1.414750 29.473951 30 35 40
6.594676 1.413145 29.440519 30 35 40
6.651478 1.412703 29.431318 30 35 40
6.710525 1.412742 29.432127 30 35 40
6.773641 1.413630 29.450615 30 35 40
6.834283 1.413990 29.458117 30 35 40
6.892118 1.413768 29.453497 30 35 40
6.946871 1.412923 29.435892 22 38 28
6.999357 1.411635 29.409063 36 36 17
7.052180 1.410436 29.384085 42 19 44
7.098851 1.408037 29.334097 36 21 25
7.146188 1.405808 29.287657 38 34 37
7.191988 1.403315 29.235722 23 30 15
7.234986 1.400320 29.173330 35 17 19
7.283153 1.398365 29.132612 30 43 39
7.327413 1.395698 29.077036 20 23 36
7.376010 1.393892 29.039410 23 38 27
7.424849 1.392159 29.003315 29 22 25
7.469468 1.389669 28.951427 42 31 19
7.518005 1.387939 28.915405 40 42 30
7.561663 1.385343 28.861309 30 35 40
7.608684 1.383397 28.820772 30 35 40
7.655387 1.381423 28.779650 30 35 40
7.698113 1.378766 28.724300 30 35 40
7.745409 1.376962 28.686701 30 35 40
7.787699 1.374300 28.631247 30 35 40
7.832742 1.372159 28.586649 30 35 40
7.879221 1.370299 28.547903 36 36 37
7.924374 1.368237 28.504944 20 42 35
7.975241 1.367184 28.483004 23 28 15
8.026036 1.366134 28.461121 30 21 37
8.080424 1.365706 28.452198 29 29 15
8.136287 1.365531 28.448557 31 40 24
8.189964 1.364994 28.437374 23 38 30
8.244388 1.364588 28.428925 18 37 34
8.297942 1.364045 28.417610 15 24 22
8.352944 1.363746 28.411373 24 31 24
8.407427 1.363367 28.403469 22 23 26
8.459979 1.362681 28.389193 25 23 27
8.513148 1.362104 28.377159 44 41 20
8.562446 1.360919 28.352470 29 35 29
8.612334 1.359842 28.330046 44 29 34
8.660840 1.358563 28.303398 39 42 32
8.707436 1.357003 28.270895 42 21 25
8.757243 1.355960 28.249172 16 32 38
8.799940 1.353837 28.204935 38 39 31
8.843286 1.351840 28.163332 33 19 24
8.885058 1.349629 28.117273 25 26 28
8.923832 1.346993 28.062365 32 34 35
8.968657 1.345299 28.027054 26 42 16
9.007520 1.342736 27.973665 35 44 30
9.051185 1.340916 27.935755 17 24 43
9.093309 1.338892 27.893585 21 19 27
9.128360 1.335858 27.830366 37 42 16
9.168295 1.333570 27.782713 25 30 23
9.198712 1.329934 27.706963 41 42 16
9.233784 1.327011 27.646059 29 20 15
9.268407 1.324058 27.584545 27 36 16
9.297862 1.320406 27.508469 38 44 37
9.336482 1.318092 27.460241 33 42 19
9.367834 1.314784 27.391327 16 23 43
9.404684 1.312281 27.339197 20 26 35
5.539613 1.591843 31.836857 35 34 26
5.575908 1.584065 31.681295 25 22 18
5.604579 1.574320 31.486397 37 31 26
5.645273 1.568131 31.362629 36 32 22
5.683570 1.561420 31.228409 32 35 27
5.733340 1.557973 31.159454 39 29 43
5.787640 1.555817 31.116344 15 34 37
5.836894 1.552365 31.047306 24 30 24
5.891276 1.550336 31.006716 31 32 18
5.938557 1.546499 30.929985 32 24 16
5.987836 1.543257 30.865135 27 38 33
6.034489 1.539410 30.788210 42 20 17
6.075463 1.534208 30.684158 24 44 18
6.121800 1.530450 30.608999 40 32 28
6.156603 1.523912 30.478233 34 41 39
6.195563 1.518520 30.370407 28 17 19
6.231594 1.512523 30.250454 31 38 19
6.258962 1.504558 30.091166 34 43 37
6.295658 1.498966 29.979322 120 120 120
6.322483 1.491152 29.823034 30 35 40
6.356641 1.485196 29.703930 30 35 40
6.394431 1.480192 29.603849 30 35 40
6.429266 1.474602 29.492044 30 35 40
6.475832 1.471780 29.435602 30 35 40
6.521745 1.468861 29.377228 30 35 40
6.573003 1.467188 29.343761 30 35 40
6.629628 1.466732 29.334637 30 35 40
6.688290 1.466730 29.334604 30 35 40
6.750986 1.467606 29.352114 30 35 40
6.810911 1.467869 29.357376 30 35 40
6.867911 1.467502 29.350046 30 35 40
6.921931 1.466511 29.330215 30 35 40
6.973965 1.465119 29.302376 42 40 23
7.026700 1.463896 29.277918 30 42 17
7.073404 1.461447 29.228943 18 27 27
7.120723 1.459165 29.183292 40 21 24
7.166592 1.456624 29.132488 43 15 28
7.209724 1.453573 29.071468 37 25 38
7.257931 1.451586 29.031725 27 34 33
7.302415 1.448892 28.977837 41 30 15
7.351197 1.447086 28.941719 38 27 28
7.400220 1.445355 28.907108 35 24 39
7.445076 1.442844 28.856884 28 16 40
7.493670 1.441090 28.821808 30 35 40
7.537334 1.438423 28.768452 30 35 40
7.584186 1.436399 28.727976 30 35 40
7.630640 1.434331 28.686617 30 35 40
7.673198 1.431567 28.631336 30 35 40
7.720348 1.429694 28.593882 30 35 40
7.762484 1.426927 28.538546 30 35 40
7.807310 1.424692 28.493832 30 35 40
7.853613 1.422756 28.455120 30 35 40
7.898671 1.420624 28.412485 21 22 34
7.949460 1.419547 28.390930 39 40 38
8.000447 1.418519 28.370378 16 26 37
8.055083 1.418148 28.362968 39 22 34
8.111274 1.418055 28.361097 44 28 27
8.165372 1.417599 28.351988 42 21 32
8.220008 1.417243 28.344854 41 22 30
8.273874 1.416759 28.335184 23 44 28
8.329053 1.416506 28.330112 33 30 40
8.383590 1.416147 28.322939 38 32 25
8.436224 1.415474 28.309477 38 31 40
8.489319 1.414887 28.297731 23 19 38
8.538370 1.413637 28.272747 17 43 16
8.587865 1.412478 28.249556 27 20 15
8.635872 1.411090 28.221804 25 37 19
8.681964 1.409410 28.188196 20 28 35
8.731399 1.408290 28.165804 22 26 44
8.773616 1.406028 28.120564 32 29 15
8.816659 1.403927 28.078531 19 18 24
8.857976 1.401579 28.031570 27 22 32
8.895821 1.398714 27.974279 29 32 33
8.939689 1.396826 27.936527 23 25 32
8.977543 1.394028 27.880569 32 31 18
9.020658 1.392077 27.841537 18 43 18
9.062340 1.389929 27.798590 43 15 23
9.096723 1.386696 27.733912 23 27 39
9.136128 1.384262 27.685236 36 26 27
9.165961 1.380416 27.608316 34 25 18
9.200608 1.377337 27.546732 21 17 23
9.234858 1.374235 27.484697 37 27 31
9.263800 1.370385 27.407692 35 37 22
9.301981 1.367938 27.358768 34 28 38
9.332899 1.364459 27.289177 28 36 43
9.369504 1.361846 27.236929 44 21 25
9.407862 1.359518 27.190353 16 18 41
5.498908 1.643352 31.602917 36 25 39
5.532412 1.634576 31.434156 33 25 18
5.559104 1.624008 31.230921 18 20 27
5.599028 1.617497 31.105709 23 42 29
5.637523 1.610721 30.975401 41 42 37
5.687956 1.607466 30.912804 36 27 30
5.743686 1.605762 30.880030 31 27 25
5.794850 1.602831 30.823671 18 18 38
5.850622 1.601223 30.792749 37 36 29
5.900073 1.597936 30.729546 29 26 15
5.950970 1.595105 30.675104 43 21 23
5.998926 1.591552 30.606768 40 40 31
6.041123 1.586558 30.510721 28 22 32
6.087656 1.582791 30.438280 43 43 19
6.123702 1.576398 30.315355 18 21 28
6.164319 1.571297 30.217251 18 37 29
6.201890 1.565526 30.106260 36 22 35
6.230450 1.557612 29.954086 22 16 24
6.267308 1.551905 29.844326 120 120 120
6.293890 1.543784 29.688160 120 120 120
6.327353 1.537488 29.567072 30 35 40
6.364157 1.532112 29.463688 30 35 40
6.398108 1.526154 29.349117 30 35 40
6.444028 1.523134 29.291037 30 35 40
6.489443 1.520050 29.231726 30 35 40
6.540604 1.518355 29.199125 30 35 40
6.597079 1.517912 29.190617 30 35 40
6.655048 1.517818 29.188808 30 35 40
6.716831 1.518588 29.203615 30 35 40
6.775672 1.518685 29.205482 30 35 40
6.831750 1.518167 29.195515 30 35 40
6.885066 1.517048 29.174007 24 23 34
6.936580 1.515555 29.145294 35 23 43
6.989128 1.514311 29.121365 33 30 21
7.035862 1.511838 29.073809 21 15 35
7.083214 1.509537 29.029564 34 42 29
7.129247 1.506995 28.980680 41 41 27
7.172651 1.503943 28.921978 18 21 30
7.220978 1.501963 28.883911 32 41 30
7.265864 1.499305 28.832794 17 30 32
7.314968 1.497552 28.799086 37 42 36
7.364282 1.495870 28.766726 38 19 18
7.409503 1.493388 28.719004 30 35 40
7.458189 1.491638 28.685343 30 35 40
7.501896 1.488926 28.633190 30 35 40
7.548536 1.486833 28.592939 30 35 40
7.594708 1.484680 28.551535 30 35 40
7.637168 1.481839 28.496895 30 35 40
7.684227 1.479925 28.460098 30 35 40
7.726313 1.477089 28.405561 30 35 40
7.770957 1.474780 28.361158 30 35 40
7.817133 1.472793 28.322947 30 35 40
7.862231 1.470633 28.281406 30 35 40
7.913048 1.469566 28.260885 43 37 35
7.964406 1.468614 28.242573 24 31 40
8.019432 1.468347 28.237436 24 20 41
8.076067 1.468376 28.237995 18 27 26
8.130661 1.468036 28.231462 43 19 29
8.185476 1.467741 28.225780 35 42 41
8.239621 1.467330 28.217880 27 27 17
8.294923 1.467129 28.214025 28 20 42
8.349463 1.466798 28.207645 21 22 42
8.402159 1.466149 28.195164 23 24 19
8.455169 1.465563 28.183895 34 40 28
8.503826 1.464235 28.158363 30 15 27
8.552783 1.462976 28.134155 32 28 27
8.599958 1.461431 28.104437 30 21 35
8.644920 1.459532 28.067923 31 26 44
8.693333 1.458236 28.043009 30 20 22
8.734184 1.455697 27.994179 37 30 23
8.776273 1.453395 27.949913 44 42 36
8.816464 1.450811 27.900204 22 41 23
8.852454 1.447571 27.837906 32 39 40
8.894677 1.445385 27.795866 32 29 39
8.930703 1.442225 27.735104 41 15 32
8.972574 1.440043 27.693130 44 42 22
9.013413 1.437722 27.648506 20 24 15
9.046962 1.434274 27.582201 35 32 27
9.085977 1.431730 27.533262 29 32 34
9.115697 1.427760 27.456919 36 33 26
9.150425 1.424617 27.396482 42 22 25
9.184896 1.421472 27.335999 39 31 19
9.214086 1.417552 27.260611 41 28 35
9.252345 1.415064 27.212778 40 24 23
9.282900 1.411435 27.142982 37 31 28
9.318832 1.408661 27.089628 22 23 27
9.356084 1.406117 27.040705 27 44 16
5.437767 1.707206 31.614925 26 22 34
5.468444 1.697103 31.427839 44 39 31
5.499145 1.687238 31.245144 27 32 26
5.524688 1.676029 31.037571 39 18 26
5.565017 1.669505 30.916761 28 17 44
5.604403 1.662845 30.793423 33 23 44
5.655382 1.659732 30.735773 15 21 37
5.711995 1.658321 30.709650 34 32 42
5.764623 1.655796 30.662886 19 19 44
5.821525 1.654539 30.639605 42 16 16
5.872480 1.651635 30.585833 28 27 19
5.924350 1.649046 30.537888 38 20 31
5.972919 1.645600 30.474075 33 26 25
6.015573 1.640611 30.381680 30 42 23
6.061898 1.636712 30.309488 16 17 17
6.098580 1.630313 30.190990 25 31 25
6.140355 1.625388 30.099781 21 40 15
6.179123 1.619770 29.995741 37 16 30
6.208603 1.611849 29.849051 23 32 44
6.245640 1.606022 29.741144 120 120 120
6.272040 1.597595 29.585094 120 120 120
6.304897 1.590955 29.462135 30 35 40
6.340879 1.585220 29.355921 30 35 40
6.374186 1.578927 29.239384 30 35 40
6.419703 1.575745 29.180470 30 35 40
6.464860 1.572533 29.120989 30 35 40
6.516069 1.570838 29.089592 30 35 40
6.572488 1.570417 29.081804 30 35 40
6.629858 1.570229 29.078323 30 35 40
6.690793 1.570882 29.090405 30 35 40
6.748803 1.570842 29.089670 30 35 40
6.804390 1.570244 29.078588 30 35 40
6.857396 1.569065 29.056763 29 38 16
6.908587 1.567494 29.027676 20 24 41
6.960923 1.566208 29.003845 21 22 29
7.007623 1.563685 28.957121 22 27 21
7.054990 1.561350 28.913895 43 30 42
7.101151 1.558789 28.866467 19 20 35
7.144767 1.555715 28.809544 44 41 43
7.193193 1.553730 28.772774 26 23 25
7.238404 1.551087 28.723827 33 32 27
7.287770 1.549368 28.692009 32 15 35
7.337336 1.547719 28.661469 29 26 44
7.382850 1.545248 28.615698 30 35 40
7.431599 1.543486 28.583075 30 35 40
7.475376 1.540726 28.531971 30 35 40
7.521905 1.538572 28.492065 30 35 40
7.567944 1.536349 28.450916 30 35 40
7.610459 1.533451 28.397234 30 35 40
7.657564 1.531513 28.361349 30 35 40
7.699779 1.528633 28.308012 30 35 40
7.744403 1.526269 28.264244 30 35 40
7.790597 1.524247 28.226801 30 35 40
7.835905 1.522082 28.186708 30 35 40
7.886878 1.521041 28.167421 22 42 26
7.938643 1.520166 28.151217 19 41 38
7.994038 1.519993 28.148022 32 40 29
8.051004 1.520120 28.150362 25 41 35
8.105934 1.519863 28.145603 22 43 18
8.160820 1.519601 28.140759 43 24 21
8.215080 1.519227 28.133835 23 19 44
8.270386 1.519050 28.130564 41 17 21
8.324868 1.518726 28.124556 21 43 22
8.377620 1.518092 28.112820 34 39 31
8.430623 1.517512 28.102076 15 38 23
8.479062 1.516124 28.076365 36 38 23
8.527766 1.514801 28.051863 31 35 30
8.574306 1.513113 28.020607 17 25 17
8.618118 1.510969 27.980902 25 16 30
8.665344 1.509447 27.952723 28 23 44
8.704541 1.506555 27.899170 34 35 34
8.745428 1.503991 27.851683 17 26 24
8.784307 1.501116 27.798439 39 38 35
8.818418 1.497467 27.730873 38 42 35
8.859145 1.494981 27.684828 36 34 31
8.893500 1.491456 27.619564 35 40 25
8.934139 1.489023 27.574503 32 17 34
8.974288 1.486539 27.528492 35 33 24
9.007436 1.482932 27.461695 36 42 23
9.046561 1.480346 27.413820 30 17 15
9.077026 1.476384 27.340439 15 29 33
9.112654 1.473303 27.283394 15 20 40
9.148142 1.470237 27.226614 39 40 34
9.178495 1.466387 27.155310 18 44 35
9.217407 1.463941 27.110022 24 26 40
9.247642 1.460154 27.039888 15 36 17
9.282317 1.457108 26.983479 31 38 25
9.317694 1.454207 26.929750 31 22 34
9.348494 1.450628 26.863487 38 34 16
5.409926 1.761371 31.453056 23 42 15
5.437868 1.750119 31.252117 30 37 21
5.466106 1.739216 31.057421 33 40 44
5.491117 1.727542 30.848970 33 36 25
5.532466 1.721212 30.735924 33 25 27
5.573203 1.714832 30.621996 35 16 20
5.624781 1.711890 30.569462 40 42 42
5.682125 1.710747 30.549059 35 22 22
5.736193 1.708653 30.511667 19 25 34
5.794220 1.707770 30.495897 36 27 30
5.846341 1.705183 30.449694 27 31 31
5.898620 1.702694 30.405258 18 17 44
5.947211 1.699203 30.342911 31 16 31
5.989941 1.694125 30.252226 17 21 19
6.036024 1.690087 30.180122 33 29 38
6.073034 1.683613 30.064524 39 25 31
6.115378 1.678731 29.977341 39 41 23
6.154956 1.673192 29.878426 23 43 16
6.185564 1.665344 29.738287 17 24 38
6.223390 1.659571 29.635189 120 120 120
6.250109 1.650972 29.481647 120 120 120
6.282429 1.644000 29.357143 30 35 40
6.317552 1.637884 29.247927 30 35 40
6.350342 1.631281 29.130011 30 35 40
6.395581 1.627966 29.070822 30 35 40
6.440627 1.624663 29.011831 30 35 40
6.492002 1.623001 28.982153 30 35 40
6.548417 1.622617 28.975296 30 35 40
6.605112 1.622308 28.969790 30 35 40
6.665033 1.622791 28.978403 30 35 40
6.722197 1.622599 28.974987 30 35 40
6.777480 1.621961 28.963591 30 35 40
6.830408 1.620775 28.942406 16 41 25
6.881402 1.619153 28.913452 26 37 15
6.933534 1.617825 28.889727 43 30 32
6.980269 1.615269 28.844088 42 25 32
7.027747 1.612925 28.802240 16 39 27
7.074140 1.610373 28.756666 22 29 16
7.118095 1.607312 28.701998 19 27 19
7.166700 1.605341 28.666800 27 26 25
7.212304 1.602734 28.620255 23 25 23
7.261978 1.601066 28.590464 36 41 19
7.311801 1.599457 28.561724 37 44 34
7.357617 1.597002 28.517897 30 35 40
7.406425 1.595230 28.486252 30 35 40
7.450270 1.592424 28.436146 30 35 40
7.496689 1.590207 28.396549 30 35 40
7.542613 1.587919 28.355688 30 35 40
7.585206 1.584968 28.303007 30 35 40
7.632391 1.583014 28.268116 30 35 40
7.674764 1.580098 28.216043 30 35 40
7.719400 1.577688 28.172993 30 35 40
7.765650 1.575639 28.136412 30 35 40
7.811182 1.573475 28.097776 30 35 40
7.862315 1.572463 28.079695 27 15 28
7.914439 1.571662 28.065388 42 34 33
7.970132 1.571575 28.063847 23 30 35
8.027345 1.571788 28.067640 21 38 24
8.082493 1.571596 28.064211 19 20 21
8.137357 1.571352 28.059851 19 43 16
8.191627 1.570997 28.053518 43 20 38
8.246885 1.570835 28.050629 42 38 33
8.301263 1.570509 28.044807 32 25 38
8.353974 1.569874 28.033470 29 18 23
8.406912 1.569290 28.023041 22 26 28
8.454993 1.567813 27.996664 27 44 29
8.503294 1.566396 27.971361 18 44 40
8.549066 1.564535 27.938126 24 26 28
8.591635 1.562116 27.894920 41 36 24
8.637655 1.560351 27.863403 26 29 20
8.675218 1.557090 27.805185 26 21 15
8.714948 1.554258 27.754612 33 23 20
8.752588 1.551092 27.698065 33 19 31
8.784906 1.547028 27.625492 40 23 35
8.824218 1.544238 27.575682 21 29 35
8.856870 1.540325 27.505808 42 17 21
8.896158 1.537608 27.457279 30 18 35
8.935432 1.534921 27.409300 18 23 27
8.968044 1.531130 27.341599 16 21 35
9.007213 1.528497 27.294586 22 36 43
9.038232 1.524521 27.223591 22 15 16
9.074467 1.521467 27.169062 41 27 37
9.110754 1.518459 27.115339 40 43 44
9.142208 1.514685 27.047953 42 23 20
9.181866 1.512307 27.005487 38 30 15
9.212258 1.508440 26.936428 36 28 18
9.246407 1.505229 26.879091 24 39 27
9.280545 1.502053 26.822384 29 41 31
9.309822 1.498132 26.752363 17 44 30
5.347136 1.824317 31.453741 19 21 28
5.372235 1.811568 31.233927 42 38 28
5.397767 1.799256 31.021650 25 42 38
5.423947 1.787437 30.817879 42 41 26
5.448506 1.775356 30.609585 24 30 21
5.490658 1.769212 30.503654 43 16 36
5.532702 1.763169 30.399460 30 22 15
5.584929 1.760467 30.352877 27 18 44
5.643208 1.759710 30.339827 21 32 17
5.699179 1.758257 30.314779 43 34 33
5.758782 1.757944 30.309380 24 42 34
5.812296 1.755798 30.272377 23 31 19
5.864683 1.753359 30.230324 20 33 29
5.912941 1.749748 30.168066 43 43 30
5.955903 1.744658 30.080318 21 40 38
6.002125 1.740616 30.010624 31 27 28
6.039558 1.734131 29.898802 33 39 19
6.081903 1.729168 29.813248 31 31 27
6.121917 1.723647 29.718044 33 28 35
6.154289 1.716100 29.587927 43 40 24
6.193997 1.710723 29.495222 120 120 120
6.221789 1.702188 29.348061 120 120 120
6.253464 1.694864 29.221796 120 120 120
6.287331 1.688265 29.108013 30 35 40
6.319466 1.681326 28.988377 30 35 40
6.364386 1.677884 28.929028 30 35 40
6.409318 1.674507 28.870802 30 35 40
6.460888 1.672909 28.843252 30 35 40
6.517312 1.672585 28.837666 30 35 40
6.573284 1.672151 28.830194 30 35 40
6.632084 1.672439 28.835150 30 35 40
6.688295 1.672074 28.828859 30 35 40
6.743152 1.671380 28.816889 28 31 29
6.795945 1.670190 28.796377 25 18 38
6.846783 1.668544 28.767994 39 25 17
6.898797 1.667209 28.744989 24 39 28
6.945745 1.664683 28.701427 42 34 31
6.993484 1.662386 28.661819 36 23 21
7.040267 1.659900 28.618971 28 25 41
7.084745 1.656916 28.567520 24 19 31
7.133616 1.654999 28.534466 27 29 26
7.179736 1.652479 28.491014 15 29 37
7.229778 1.650894 28.463692 40 42 20
7.279878 1.649347 28.437025 30 35 40
7.326010 1.646932 28.395388 30 35 40
7.374850 1.645159 28.364809 30 35 40
7.418670 1.642301 28.315533 30 35 40
7.464864 1.640008 28.275999 30 35 40
7.510508 1.637630 28.234993 30 35 40
7.552981 1.634600 28.182766 30 35 40
7.600077 1.632609 28.148432 30 35 40
7.642385 1.629626 28.097004 30 35 40
7.686849 1.627143 28.054193 30 35 40
7.732957 1.625042 28.017962 30 35 40
7.778480 1.622848 27.980145 30 35 40
7.829587 1.621843 27.962812 30 35 40
7.881881 1.621096 27.949934 27 36 23
7.937744 1.621089 27.949802 28 28 30
7.995122 1.621388 27.954973 26 27 18
8.050405 1.621262 27.952795 20 20 19
8.105197 1.621039 27.948954 36 21 43
8.159470 1.620717 27.943390 30 20 35
8.214749 1.620597 27.941322 44 32 27
8.269043 1.620286 27.935957 17 41 36
8.321621 1.619644 27.924902 25 31 21
8.374304 1.619032 27.914347 43 20 18
8.421604 1.617394 27.886106 18 19 26
8.468916 1.615780 27.858276 18 36 34
8.513449 1.613660 27.821728 42 41 39
8.554628 1.610936 27.774767 43 19 39
8.599633 1.608964 27.740753 35 43 23
8.635935 1.605398 27.679277 28 26 15
8.674842 1.602359 27.626886 39 34 18
8.711569 1.598959 27.568256 32 42 34
8.742377 1.594522 27.491753 25 31 29
8.780350 1.591438 27.438595 44 16 19
8.811204 1.587111 27.363989 17 24 37
8.848969 1.584075 27.311634 37 33 44
8.886967 1.581117 27.260633 30 44 19
8.918432 1.577040 27.190340 18 26 18
8.957078 1.574274 27.142662 29 25 18
8.987534 1.570111 27.070887 36 15 31
9.023107 1.566887 27.015289 20 38 31
9.059105 1.563774 26.961622 39 32 39
9.090784 1.559957 26.895811 44 16 18
9.130927 1.557629 26.855667 38 34 19
9.162350 1.553849 26.790497 16 16 41
9.197836 1.550798 26.737896 35 33 30
9.232605 1.547662 26.683828 32 21 37
9.261134 1.543522 26.612455 33 16 37
9.297449 1.540720 26.564140 34 31 27
5.322296 1.878457 31.307625 15 31 31
5.346595 1.865091 31.084852 26 20 35
5.371135 1.852115 30.868589 26 21 24
5.396639 1.839763 30.662720 43 22 16
5.421257 1.827390 30.456497 21 40 22
5.463935 1.821312 30.355192 40 33 41
5.506803 1.815429 30.257158 39 17 32
5.559408 1.812851 30.214176 33 24 30
5.618233 1.812333 30.205555 25 30 25
5.675496 1.811328 30.188807 18 23 32
5.736229 1.811441 30.190680 39 17 41
5.790475 1.809524 30.158726 33 36 28
5.842476 1.806951 30.115854 22 32 36
5.890075 1.803084 30.051403 38 39 37
5.933099 1.797909 29.965149 36 15 33
5.979640 1.793892 29.898199 42 44 28
6.017211 1.787291 29.788176 22 23 23
6.058926 1.782037 29.700617 44 24 25
6.098740 1.776332 29.605532 39 15 30
6.132538 1.769001 29.483356 23 38 23
6.174213 1.764061 29.401014 120 120 120
6.203281 1.755645 29.260757 120 120 120
6.234565 1.748009 29.133482 120 120 120
6.267482 1.740967 29.016119 35 28 44
6.299229 1.733733 28.895548 30 35 40
6.344015 1.730186 28.836432 30 35 40
6.388946 1.726742 28.779037 30 35 40
6.440681 1.725183 28.753042 30 35 40
6.497141 1.724905 28.748413 30 35 40
6.552693 1.724393 28.739883 30 35 40
6.610804 1.724558 28.742628 30 35 40
6.666467 1.724086 28.734772 34 43 33
6.721116 1.723363 28.722717 18 17 37
6.773903 1.722179 28.702980 34 41 16
6.824747 1.720524 28.675406 25 35 38
6.876765 1.719191 28.653189 35 17 40
6.923979 1.716689 28.611483 28 43 43
6.971994 1.714425 28.573748 16 43 32
7.019122 1.711981 28.533014 15 19 25
7.064043 1.709043 28.484045 23 30 18
7.113142 1.707154 28.452566 23 17 44
7.159638 1.704676 28.411263 22 29 23
7.209929 1.703133 28.385548 27 23 19
7.260187 1.701606 28.360104 17 22 36
7.306501 1.699186 28.319771 30 35 40
7.355323 1.697382 28.289703 30 35 40
7.399065 1.694442 28.240707 30 35 40
7.445068 1.692061 28.201015 30 35 40
7.490465 1.689579 28.159643 30 35 40
7.532749 1.686436 28.107271 30 35 40
7.579694 1.684376 28.072941 30 35 40
7.621826 1.681285 28.021418 30 35 40
7.666086 1.678705 27.978416 30 35 40
7.712004 1.676523 27.942043 30 35 40
7.757363 1.674251 27.904184 30 35 40
7.808335 1.673215 27.886911 34 21 23
7.860566 1.672461 27.874346 38 21 44
7.916401 1.672479 27.874653 26 17 21
7.973765 1.672818 27.880299 26 40 44
8.029001 1.672709 27.878475 35 43 19
8.083683 1.672486 27.874769 31 39 42
8.137922 1.672176 27.869595 16 25 19
8.193237 1.672089 27.868153 44 19 29
8.247493 1.671789 27.863153 23 44 18
8.299900 1.671121 27.852013 28 19 40
8.352312 1.670462 27.841040 20 36 44
8.398859 1.668647 27.810791 18 15 20
8.445200 1.666816 27.780262 29 34 44
8.488716 1.664454 27.740902 41 35 44
8.529057 1.661505 27.691744 33 19 44
8.573670 1.659420 27.657001 42 31 42
8.609586 1.655690 27.594828 24 24 44
8.648326 1.652546 27.542440 39 18 29
8.684841 1.649020 27.483673 37 19 38
8.715124 1.644363 27.406050 35 17 22
8.752508 1.641095 27.351587 30 22 37
8.782370 1.636466 27.274441 27 28 28
8.819199 1.633185 27.219749 19 24 39
8.856197 1.629975 27.166248 21 42 38
8.886608 1.625599 27.093317 33 43 31
8.924588 1.622652 27.044205 15 27 17
8.953923 1.618179 26.969646 39 42 35
8.988176 1.614642 26.910707 36 36 25
9.023202 1.611286 26.854769 18 41 39
9.054393 1.607289 26.788145 23 37 40
9.094650 1.604938 26.748970 28 15 35
9.127426 1.601303 26.688381 19 30 20
9.165171 1.598576 26.642939 31 27 29
9.201796 1.595687 26.594786 32 34 21
9.230575 1.591478 26.524641 37 34 31
9.265596 1.588388 26.473131 36 21 33
5.241944 1.934527 31.202049 33 20 23
5.283345 1.926867 31.078499 23 26 39
5.306771 1.912906 30.853317 35 17 38
5.331196 1.899622 30.639059 37 31 29
5.357264 1.887218 30.438997 26 38 37
5.382908 1.874946 30.241058 43 42 42
5.426503 1.869129 30.147242 36 32 36
5.470723 1.863653 30.058920 38 19 30
5.524169 1.861405 30.022659 43 42 24
5.583669 1.861223 30.019726 26 19 40
5.641875 1.860618 30.009975 32 40 19
5.703021 1.860986 30.015902 37 26 32
5.757478 1.859185 29.986862 28 25 22
5.809027 1.856493 29.943436 36 31 38
5.856073 1.852431 29.877924 17 38 23
5.899163 1.847213 29.793751 33 30 16
5.945958 1.843247 29.729790 24 37 26
5.983681 1.836575 29.622183 15 24 28
6.024801 1.831067 29.533340 41 25 41
6.064416 1.825213 29.438913 28 42 37
6.099442 1.818103 29.324240 23 33 19
6.142766 1.813579 29.251266 120 120 120
6.173350 1.805414 29.119574 120 120 120
6.204985 1.797706 28.995256 120 120 120
6.237777 1.790473 28.878595 30 32 29
6.269643 1.783110 28.759832 44 44 38
6.314306 1.779486 28.701391 16 28 36
6.359345 1.776033 28.645699 20 38 17
6.411507 1.774614 28.622801 30 35 40
6.467976 1.774401 28.619364 15 22 42
6.522470 1.773654 28.607323 25 42 18
6.578946 1.773455 28.604113 43 44 41
6.633224 1.772672 28.591482 24 44 30
6.687359 1.771864 28.578457 39 23 34
6.740055 1.770692 28.559555 37 20 33
6.790681 1.769001 28.532272 17 19 29
6.842549 1.767658 28.510620 30 35 40
6.889961 1.765197 28.470913 20 40 28
6.938252 1.762998 28.435457 32 29 39
6.985807 1.760651 28.397589 22 40 19
7.031302 1.757826 28.352026 23 41 15
7.080728 1.756020 28.322910 22 44 19
7.127748 1.753652 28.284714 24 16 31
7.178369 1.752200 28.261297 31 21 29
7.228848 1.750737 28.237686 25 37 29
7.275451 1.748364 28.199423 30 35 40
7.324293 1.746562 28.170359 30 35 40
7.368060 1.743587 28.122366 30 35 40
7.413935 1.741151 28.083086 30 35 40
7.459143 1.738597 28.041889 30 35 40
7.501344 1.735386 27.990091 30 35 40
7.548177 1.733285 27.956211 30 35 40
7.590260 1.730133 27.905369 30 35 40
7.634433 1.727500 27.862896 30 35 40
7.680263 1.725277 27.827042 30 35 40
7.725592 1.722974 27.789900 30 35 40
7.776461 1.721931 27.773075 38 18 21
7.828679 1.721199 27.761272 38 21 27
7.884464 1.721256 27.762197 16 32 31
7.941770 1.721642 27.768427 24 28 36
7.997004 1.721577 27.767376 38 33 31
8.051605 1.721378 27.764154 34 32 30
8.105688 1.721071 27.759205 35 40 19
8.160769 1.720979 27.757719 38 17 24
8.214657 1.720638 27.752218 44 31 17
8.266580 1.719892 27.740200 16 23 23
8.318507 1.719158 27.728355 20 37 34
8.364281 1.717170 27.696295 20 26 19
8.409844 1.715166 27.663961 20 39 27
8.452560 1.712610 27.622746 33 23 24
8.492079 1.709445 27.571686 28 34 35
8.536139 1.707228 27.535933 24 30 34
8.571509 1.703313 27.472784 32 27 42
8.609999 1.700064 27.420380 20 17 44
8.646165 1.696400 27.361282 21 44 18
8.675661 1.691481 27.281952 17 28 18
8.712191 1.687987 27.225595 31 39 28
8.740712 1.682994 27.145069 16 37 29
8.776317 1.679419 27.087399 31 33 18
8.812031 1.675908 27.030771 19 35 41
8.841068 1.671177 26.954475 22 41 35
8.878138 1.668014 26.903448 30 19 43
8.906036 1.663175 26.825411 30 43 36
8.938791 1.659296 26.762846 19 27 43
8.972552 1.655650 26.704025 23 29 43
9.002646 1.651373 26.635048 27 16 23
9.042396 1.648907 26.595282 19 24 39
9.076000 1.645357 26.538012 25 33 17
9.115767 1.642958 26.499323 25 40 21
9.154339 1.640373 26.457628 23 44 17
9.183806 1.636195 26.390247 17 33 15
9.218144 1.632928 26.337555 21 41 33
9.246233 1.628598 26.267708 24 18 40
5.212766 1.985815 31.028366 22 38 27
5.252559 1.977434 30.897406 25 32 25
5.275516 1.962983 30.671604 16 25 43
5.300725 1.949692 30.463936 39 27 37
5.328239 1.937542 30.274086 32 42 24
5.355279 1.925494 30.085836 15 30 35
5.399672 1.919884 29.998180 35 31 42
5.445048 1.914742 29.917849 44 33 26
5.499337 1.912813 29.887703 43 34 16
5.559343 1.912892 29.888939 22 18 37
5.617879 1.912470 29.882338 36 34 19
5.678775 1.912851 29.888290 20 34 29
5.733004 1.911001 29.859398 18 19 16
5.784300 1.908223 29.815979 20 35 30
5.831132 1.904043 29.750671 24 21 21
5.874224 1.898739 29.667797 19 38 23
5.921074 1.894744 29.605370 27 25 33
5.958836 1.887948 29.499187 26 23 16
5.999677 1.882252 29.410181 35 34 19
6.039157 1.876243 29.316294 39 36 41
6.074532 1.869087 29.204483 34 20 31
6.118309 1.864627 29.134804 120 120 120
