ply
format ascii 1.0
element vertex 1289
property float x
property float y
property float z
property uchar red
property uchar green
property uchar blue
end_header
7.658385 2.018088 25.872921 15 21 44
7.707799 2.017478 25.865097 42 24 44
7.756565 2.016707 25.855217 33 24 30
7.800208 2.014623 25.828503 25 39 16
7.843382 2.012447 25.800598 30 39 44
7.884613 2.009803 25.766710 30 25 25
7.924188 2.006775 25.727884 41 28 21
7.967875 2.004820 25.702822 31 25 32
8.004889 2.001222 25.656696 36 40 28
8.043868 1.998158 25.617414 16 23 20
8.080933 1.994661 25.572573 40 16 35
8.112705 1.989909 25.511650 39 21 42
8.149689 1.986487 25.467777 43 27 38
8.181747 1.981914 25.409151 31 20 23
8.220212 1.978940 25.371025 20 37 35
8.258853 1.976045 25.333904 19 18 40
8.291561 1.971774 25.279150 20 24 42
8.329309 1.968746 25.240332 18 21 43
8.359603 1.964003 25.179527 34 41 42
8.393408 1.960137 25.129963 26 41 23
8.427669 1.956423 25.082348 22 26 27
8.460232 1.952361 25.030273 39 18 19
8.500880 1.950202 25.002588 41 36 37
8.530236 1.945492 24.942211 36 34 32
8.560761 1.941103 24.885933 41 16 21
8.587430 1.935895 24.819162 15 44 29
8.606992 1.929153 24.732735 15 18 26
8.635133 1.924401 24.671808 28 43 29
4.571248 2.203011 27.537638 27 27 43
4.601982 2.191420 27.392748 30 27 40
4.639773 2.183423 27.292782 30 21 17
4.672216 2.173124 27.164047 19 24 33
4.710257 2.165635 27.070442 19 26 26
4.752472 2.160214 27.002680 27 28 43
4.794989 2.155051 26.938139 16 31 23
4.845459 2.153537 26.919214 23 42 24
4.894539 2.151446 26.893074 43 42 27
4.945311 2.150135 26.876692 28 36 37
4.996044 2.148836 26.860453 35 20 31
5.043475 2.146160 26.826994 23 34 32
5.091690 2.143869 26.798367 28 36 18
5.138775 2.141156 26.764454 33 30 21
5.189210 2.139880 26.748505 18 41 32
5.239151 2.138429 26.730360 40 41 35
5.285365 2.135501 26.693764 15 29 24
5.332425 2.132970 26.662125 26 44 40
5.374715 2.128600 26.607498 39 34 28
5.418477 2.124893 26.561161 27 24 35
5.461423 2.120941 26.511763 20 24 28
5.501900 2.116115 26.451443 34 32 20
5.546644 2.113007 26.412590 120 120 120
5.587266 2.108402 26.355028 120 120 120
5.629667 2.104548 26.306854 120 120 120
5.673778 2.101399 26.267492 19 44 17
5.717925 2.098321 26.229012 16 36 43
5.767089 2.097123 26.214041 20 24 37
5.817194 2.096286 26.203575 26 34 42
5.869433 2.096226 26.202826 36 21 17
5.923401 2.096779 26.209740 31 34 24
5.977184 2.097257 26.215717 30 17 16
6.030938 2.097717 26.221468 34 36 38
6.084556 2.098123 26.226536 40 44 18
6.137923 2.098435 26.230438 32 15 33
6.190017 2.098311 26.228886 34 19 25
6.240585 2.097676 26.220947 36 40 33
6.290496 2.096832 26.210400 42 22 24
6.337670 2.095098 26.188719 28 35 31
6.384896 2.093409 26.167606 37 21 34
6.431624 2.091585 26.144812 17 28 38
6.477610 2.089552 26.119396 31 19 15
6.526027 2.088329 26.104109 35 42 37
6.573817 2.086926 26.086576 30 40 15
6.623517 2.086147 26.076839 36 20 24
6.673871 2.085585 26.069809 36 17 26
6.723343 2.084758 26.059469 18 38 25
6.773890 2.084274 26.053425 28 24 32
6.821851 2.083008 26.037598 30 26 40
6.869674 2.081720 26.021494 15 25 15
6.916498 2.080150 26.001873 33 38 27
6.961826 2.078157 25.976961 43 43 17
7.009055 2.076757 25.959461 36 21 34
7.053908 2.074679 25.933485 21 36 43
7.100174 2.073044 25.913044 34 38 43
7.146835 2.071546 25.894329 38 17 40
7.192449 2.069770 25.872120 30 22 39
7.240626 2.068750 25.859379 18 36 38
7.287941 2.067501 25.843763 27 15 23
7.336779 2.066698 25.833729 31 19 16
7.386349 2.066112 25.826395 35 42 43
7.435016 2.065282 25.816027 35 27 37
7.484871 2.064792 25.809898 19 38 38
7.535050 2.064397 25.804964 24 26 30
7.587148 2.064530 25.806625 27 34 40
7.638648 2.064500 25.806244 44 43 37
7.687761 2.063829 25.797857 25 26 16
7.736279 2.063008 25.787598 38 32 24
7.779729 2.060855 25.760691 19 39 40
7.822775 2.058625 25.732813 31 41 38
7.863973 2.055941 25.699259 38 37 29
7.903622 2.052889 25.661110 41 29 31
7.947395 2.050941 25.636759 33 24 41
7.984647 2.047345 25.591816 32 35 34
8.023784 2.044276 25.553453 29 29 38
8.061047 2.040771 25.509642 24 22 35
8.093123 2.036006 25.450071 27 38 28
8.130280 2.032570 25.407124 24 25 19
8.162650 2.027988 25.349846 39 34 29
8.201369 2.025029 25.312868 21 36 29
8.240168 2.022127 25.276588 35 32 15
8.272947 2.017792 25.222401 32 26 40
8.310562 2.014682 25.183521 42 28 40
8.340755 2.009821 25.122757 21 27 22
8.374486 2.005865 25.073311 22 40 16
8.408702 2.002072 25.025898 24 30 20
8.441332 1.997948 24.974356 43 33 15
8.482052 1.995777 24.947210 17 38 33
8.511219 1.990928 24.886606 19 29 18
8.541214 1.986329 24.829111 18 16 33
8.567384 1.980898 24.761227 39 28 42
8.586799 1.973977 24.674709 26 38 44
8.615060 1.969157 24.614458 40 22 16
4.556525 2.250813 27.448944 29 32 25
4.587975 2.239369 27.309378 33 19 35
4.625963 2.231347 27.211550 40 27 37
4.658512 2.220918 27.084370 39 44 33
4.696504 2.213295 26.991400 41 43 19
4.738396 2.207662 26.922707 16 22 21
4.780535 2.202269 26.856936 31 33 16
4.830594 2.200604 26.836634 28 34 38
4.878377 2.197950 26.804270 15 27 35
4.927365 2.195891 26.779160 29 33 21
4.976296 2.193851 26.754282 44 33 16
5.022412 2.190626 26.714956 20 38 17
5.070223 2.188201 26.685383 18 22 24
5.116789 2.185295 26.649944 33 15 25
5.166635 2.183836 26.632141 15 38 24
5.216215 2.182294 26.613344 40 31 38
5.262306 2.179339 26.577301 33 42 24
5.309455 2.176877 26.547276 31 23 21
5.352152 2.172656 26.495804 15 44 32
5.396226 2.169071 26.452089 42 30 41
5.439656 2.165300 26.406096 31 44 32
5.480925 2.160749 26.350603 35 22 23
5.526255 2.157871 26.315498 120 120 120
5.567688 2.153540 26.262678 120 120 120
5.610631 2.149868 26.217901 120 120 120
5.655073 2.146833 26.180893 30 28 15
5.699525 2.143858 26.144609 23 22 44
5.748646 2.142677 26.130211 27 35 22
5.798503 2.141790 26.119385 31 15 44
5.850347 2.141645 26.117620 29 43 32
5.903747 2.142067 26.122774 40 27 36
5.956890 2.142390 26.126709 28 16 35
6.010112 2.142735 26.130920 41 30 27
6.063073 2.142983 26.133934 21 15 39
6.115904 2.143180 26.136343 38 37 38
6.167516 2.142951 26.133543 22 37 39
6.217526 2.142173 26.124060 33 22 31
6.267029 2.141235 26.112619 39 40 15
6.313876 2.139413 26.090397 27 36 41
6.360941 2.137693 26.069431 44 22 41
6.407573 2.135858 26.047043 37 41 23
6.453358 2.133772 26.021606 18 30 22
6.501527 2.132501 26.006107 22 39 42
6.549044 2.131038 25.988270 32 38 23
6.598464 2.130213 25.978207 26 15 35
6.648583 2.129624 25.971029 35 20 15
6.697917 2.128795 25.960918 23 15 18
6.748392 2.128339 25.955355 37 44 34
6.796286 2.127082 25.940022 38 37 17
6.843939 2.125769 25.924013 22 19 32
6.890637 2.124181 25.904650 33 40 22
6.936012 2.122212 25.880640 16 39 27
6.983300 2.120854 25.864073 17 43 44
7.028279 2.118819 25.839262 28 19 22
7.074590 2.117213 25.819670 22 35 24
7.121226 2.115727 25.801544 23 22 39
7.166764 2.113938 25.779728 43 32 41
7.214747 2.112890 25.766954 43 25 32
7.261775 2.111580 25.750975 21 32 42
7.310276 2.110713 25.740408 26 20 24
7.359469 2.110057 25.732409 41 17 35
7.407740 2.109148 25.721321 34 36 35
7.457274 2.108608 25.714737 41 16 31
7.506995 2.108129 25.708887 33 38 23
7.558646 2.108194 25.709681 36 15 26
7.609675 2.108086 25.708363 25 40 42
7.658198 2.107289 25.698650 30 25 29
7.706215 2.106365 25.687384 16 26 43
7.749219 2.104092 25.659664 17 40 26
7.791937 2.101773 25.631372 16 28 23
7.833017 2.099044 25.598095 44 24 36
7.872712 2.095982 25.560753 43 24 25
7.916609 2.094071 25.537449 20 30 40
7.954286 2.090550 25.494507 25 17 26
7.993780 2.087548 25.457897 26 24 42
8.031496 2.084123 25.416128 43 40 35
8.064238 2.079457 25.359238 28 29 33
8.101807 2.076088 25.318148 41 43 15
8.134824 2.071601 25.263428 35 36 20
8.174050 2.068741 25.228548 24 29 42
8.213148 2.065884 25.193705 25 37 31
8.246072 2.061518 25.140465 26 18 26
8.283480 2.058319 25.101454 23 23 24
8.313416 2.053314 25.040411 33 25 22
8.347033 2.049271 24.991116 20 26 18
8.380896 2.045338 24.943142 15 19 33
8.412659 2.040941 24.889524 38 29 35
8.452390 2.038518 24.859970 20 35 34
8.480608 2.033362 24.797098 24 28 43
8.510047 2.028558 24.738510 35 31 23
8.535991 2.022981 24.670494 26 27 15
8.555319 2.015908 24.584249 24 23 22
8.583678 2.011033 24.524794 29 19 43
4.546341 2.300558 27.387594 18 31 30
4.578426 2.289213 27.252537 22 25 42
4.616460 2.281074 27.155647 29 43 33
4.648864 2.270375 27.028278 36 27 43
4.686555 2.262475 26.934225 33 32 42
4.727953 2.256523 26.863371 25 26 41
4.769639 2.250841 26.795727 30 17 32
4.819365 2.249037 26.774248 23 25 38
4.866187 2.245932 26.737291 37 37 38
4.913903 2.243304 26.705996 43 32 20
4.961542 2.240696 26.674957 26 30 25
5.006648 2.237013 26.631107 18 24 40
5.054079 2.234435 26.600414 17 37 30
5.100205 2.231340 26.563570 15 30 26
5.149614 2.229730 26.544401 43 42 23
5.198955 2.228124 26.525282 27 16 22
5.244970 2.225139 26.489750 21 33 42
5.292197 2.222723 26.460983 15 23 18
5.335221 2.218607 26.411983 20 43 23
5.379547 2.215108 26.370329 37 43 22
5.423352 2.211464 26.326950 31 27 41
5.465243 2.207117 26.275208 35 44 31
5.511024 2.204410 26.242971 120 120 120
5.553072 2.200274 26.193737 120 120 120
5.596438 2.196733 26.151581 120 120 120
5.641123 2.193770 26.116310 16 37 16
5.685794 2.190856 26.081625 26 39 35
5.734861 2.189674 26.067549 16 36 27
5.784489 2.188726 26.056257 15 22 19
5.835998 2.188499 26.053562 16 43 34
5.888935 2.188808 26.057236 19 41 27
5.941573 2.189001 26.059530 29 23 23
5.994399 2.189259 26.062603 43 26 20
6.046882 2.189388 26.064148 23 27 37
6.099340 2.189507 26.065554 42 30 26
6.150636 2.189209 26.062016 37 41 18
6.200294 2.188339 26.051657 26 39 24
6.249550 2.187342 26.039791 33 35 37
6.296230 2.185468 26.017481 43 27 27
6.343254 2.183743 25.996943 39 17 35
6.389869 2.181907 25.975079 42 26 33
6.435555 2.179785 25.949820 30 23 21
6.483561 2.178477 25.934244 17 20 34
6.530884 2.176961 25.916206 38 36 19
6.580087 2.176092 25.905853 22 15 38
6.630017 2.175474 25.898502 30 42 23
6.679242 2.174637 25.888536 26 28 36
6.729658 2.174197 25.883301 22 38 30
6.777494 2.172937 25.868299 29 29 38
6.824998 2.171590 25.852266 29 35 39
6.871575 2.169971 25.832989 20 22 33
6.916977 2.168008 25.809614 17 15 32
6.964316 2.166676 25.793764 35 25 30
7.009396 2.164666 25.769838 31 34 23
7.055740 2.163074 25.750875 40 41 43
7.102344 2.161583 25.733130 21 15 38
7.147827 2.159775 25.711609 33 41 44
7.195670 2.158701 25.698820 34 41 29
7.242471 2.157332 25.682522 15 24 20
7.290724 2.156411 25.671562 22 15 16
7.339610 2.155690 25.662971 27 42 27
7.387549 2.154702 25.651213 28 18 42
7.436805 2.154109 25.644156 19 18 34
7.486136 2.153546 25.637453 30 44 27
7.537426 2.153550 25.637503 34 39 36
7.588042 2.153363 25.635279 30 16 30
7.636023 2.152436 25.624239 35 15 30
7.683599 2.151408 25.611996 31 23 20
7.726175 2.149002 25.583363 27 33 31
7.768584 2.146582 25.554552 40 42 30
7.809542 2.143796 25.521378 24 28 43
7.849262 2.140708 25.484617 36 27 39
7.893284 2.138825 25.462206 26 37 17
7.931377 2.135371 25.421082 42 28 19
7.971234 2.132432 25.386097 29 40 29
8.009430 2.129089 25.346296 21 37 30
8.042840 2.124524 25.291950 35 42 23
8.080850 2.121223 25.252657 22 33 43
8.114491 2.116824 25.200283 41 38 20
8.154200 2.114052 25.167284 17 23 41
8.193562 2.111225 25.133627 20 40 43
8.226598 2.106812 25.081093 32 41 42
8.263788 2.103510 25.041780 38 34 29
8.293506 2.098357 24.980440 44 34 22
8.327200 2.094266 24.931736 20 33 16
8.360754 2.090189 24.883198 17 34 41
8.391204 2.085388 24.826046 36 23 15
8.429311 2.082536 24.792091 28 44 16
8.456266 2.076978 24.725924 39 20 41
8.485420 2.072021 24.666920 24 42 30
8.511553 2.066389 24.599865 39 44 21
8.530880 2.059178 24.514023 17 15 41
8.559233 2.054216 24.454952 40 22 17
4.569050 2.338918 27.196726 41 23 44
4.607631 2.330919 27.103710 38 37 44
4.640242 2.320121 26.978151 33 21 16
4.677666 2.311950 26.883139 18 38 35
4.718409 2.305586 26.809139 19 34 33
4.759395 2.299483 26.738176 25 40 25
4.808514 2.297401 26.713968 35 36 35
4.854409 2.293842 26.672579 20 15 42
4.901254 2.290804 26.637251 26 44 36
4.948097 2.287830 26.602674 44 38 20
4.992472 2.283790 26.555700 35 43 44
5.039542 2.281056 26.523905 36 16 26
5.085238 2.277763 26.485617 18 26 22
5.134246 2.276006 26.465187 32 28 20
5.183313 2.274311 26.445473 40 23 19
5.229180 2.271260 26.410000 19 28 42
5.276400 2.268852 26.381998 33 21 44
5.319544 2.264756 26.334377 22 37 23
5.363927 2.261263 26.293760 15 32 17
5.407887 2.257662 26.251879 41 21 18
5.450114 2.253413 26.202473 37 27 15
5.496162 2.250809 26.172199 120 120 120
5.538581 2.246783 26.125383 120 120 120
5.582178 2.243305 26.084942 120 120 120
5.626957 2.240363 26.050728 44 22 25
5.671663 2.237445 26.016804 41 43 31
5.720579 2.236227 26.002634 20 30 41
5.769895 2.235184 25.990517 17 21 38
5.821037 2.234862 25.986773 16 40 29
5.873532 2.235061 25.989080 16 18 28
5.925681 2.235125 25.989830 25 19 18
5.978129 2.235300 25.991863 41 40 38
6.030207 2.235336 25.992273 32 20 38
6.082362 2.235398 25.992998 32 41 17
6.133441 2.235067 25.989155 24 44 23
6.182890 2.234154 25.978531 41 44 28
6.232010 2.233137 25.966707 28 35 32
6.278677 2.231265 25.944944 26 20 20
6.325753 2.229569 25.925217 36 16 25
6.372449 2.227767 25.904264 22 42 17
6.418166 2.225654 25.879702 41 39 40
6.466095 2.224337 25.864382 42 41 44
6.513350 2.222810 25.846626 34 30 17
6.562427 2.221924 25.836329 23 31 37
6.612238 2.221299 25.829056 20 15 16
6.661396 2.220465 25.819363 27 18 39
6.711751 2.220041 25.814426 20 19 22
6.759570 2.218790 25.799887 41 16 39
6.807018 2.217438 25.784159 31 32 43
6.853560 2.215813 25.765263 35 29 23
6.899010 2.213861 25.742575 19 21 18
6.946374 2.212549 25.727310 38 15 37
6.991496 2.210547 25.704031 26 33 18
7.037819 2.208950 25.685471 39 44 17
7.084337 2.207438 25.667887 32 44 39
7.129720 2.205597 25.646475 25 40 42
7.177409 2.204490 25.633604 30 44 24
7.223970 2.203055 25.616915 44 33 34
7.271960 2.202072 25.605492 43 41 38
7.320533 2.201279 25.596268 41 36 27
7.368127 2.200205 25.583775 23 30 17
7.417097 2.199553 25.576197 30 35 40
7.465999 2.198890 25.568489 32 26 44
7.516902 2.198822 25.567694 23 20 34
7.567072 2.198541 25.564434 30 41 29
7.614455 2.197460 25.551863 18 23 32
7.661502 2.196297 25.538340 25 39 40
7.703556 2.193728 25.508463 38 24 25
7.745567 2.191180 25.478838 29 16 35
7.786327 2.188314 25.445515 25 26 42
7.825982 2.185177 25.409031 27 29 43
7.870067 2.183309 25.387314 20 21 41
7.908541 2.179918 25.347889 37 39 24
7.948776 2.177053 25.314573 43 26 26
7.987492 2.173811 25.276873 37 38 28
8.021598 2.169363 25.225151 33 23 44
8.060073 2.166145 25.187727 23 42 41
8.094380 2.161853 25.137827 24 29 29
8.134602 2.159184 25.106796 27 19 34
8.174274 2.156404 25.074461 35 44 31
8.207485 2.151963 25.022821 23 24 37
8.244530 2.148575 24.983425 30 25 44
8.273900 2.143239 24.921385 42 38 23
8.307407 2.139033 24.872475 22 31 36
8.340286 2.134716 24.822279 26 43 15
8.369046 2.129402 24.760490 37 38 37
8.405298 2.126046 24.721464 28 31 22
8.430862 2.120041 24.651644 36 19 41
8.459847 2.114962 24.592579 30 23 20
8.486344 2.109323 24.527006 22 29 16
8.505743 2.101994 24.441792 16 42 36
4.555313 2.386116 27.114956 36 34 28
4.595578 2.378887 27.032812 26 40 31
4.629363 2.368512 26.914904 15 21 26
4.666782 2.360212 26.820587 16 18 44
4.706723 2.353362 26.742744 41 37 31
4.746697 2.346682 26.666838 31 34 22
4.794738 2.344094 26.637436 24 40 18
4.839435 2.339947 26.590302 40 29 38
4.885537 2.336561 26.551832 37 23 36
4.931821 2.333335 26.515165 37 29 39
4.975518 2.328966 26.465523 33 19 20
5.022162 2.326054 26.432434 36 43 35
5.067326 2.322524 26.392323 34 40 26
5.115831 2.320583 26.370264 43 17 16
5.164512 2.318761 26.349552 24 39 26
5.210091 2.315596 26.313593 24 24 38
5.257200 2.313168 26.285999 19 15 42
5.300263 2.309026 26.238928 37 27 33
5.344487 2.305465 26.198463 40 33 24
5.388381 2.301833 26.157188 18 18 33
5.430728 2.297616 26.109270 31 37 43
5.476922 2.295091 26.080582 120 120 120
5.519552 2.291135 26.035622 120 120 120
5.563252 2.287692 25.996504 120 120 120
5.608007 2.284744 25.962997 44 22 15
5.652607 2.281786 25.929388 44 21 37
5.701262 2.280505 25.914829 29 15 21
5.750158 2.279342 25.901613 19 27 39
5.800857 2.278908 25.896683 18 42 37
5.852846 2.278984 25.897549 31 42 32
5.904421 2.278899 25.896584 27 37 25
5.956420 2.278978 25.897476 36 22 15
6.008036 2.278910 25.896708 29 35 16
6.059833 2.278911 25.896721 33 37 35
6.110667 2.278554 25.892658 30 19 21
6.159905 2.277612 25.881952 18 36 20
6.208893 2.276594 25.870388 29 32 33
6.255576 2.274755 25.849489 27 16 27
6.302722 2.273113 25.830830 35 36 30
6.349529 2.271376 25.811092 26 32 17
6.395328 2.269310 25.787611 44 24 40
6.443205 2.268008 25.772820 38 39 15
6.490434 2.266501 25.755692 26 44 22
6.539429 2.265629 25.745783 15 28 15
6.589135 2.265015 25.738808 29 23 22
6.638236 2.264204 25.729595 28 33 39
6.688493 2.263798 25.724974 42 22 37
6.736324 2.262582 25.711159 40 29 38
6.783783 2.261261 25.696148 33 41 31
6.830355 2.259666 25.678028 38 29 36
6.875871 2.257749 25.656235 28 41 43
6.923227 2.256459 25.641581 16 42 30
6.968332 2.254460 25.618868 35 22 17
7.014565 2.252853 25.600601 30 27 27
7.060928 2.251310 25.583073 38 43 16
7.106131 2.249423 25.561623 26 18 38
7.153600 2.248274 25.548571 35 28 17
7.199825 2.246754 25.531294 41 44 42
7.247474 2.245696 25.519274 30 34 38
7.295644 2.244814 25.509245 30 35 40
7.342812 2.243637 25.495874 30 35 40
7.391440 2.242920 25.487724 30 35 40
7.439831 2.242141 25.478874 30 35 40
7.490274 2.241987 25.477123 30 35 40
7.539905 2.241593 25.472652 38 27 20
7.586553 2.240324 25.458233 19 39 33
7.632976 2.239006 25.443253 40 38 33
7.674371 2.236240 25.411823 34 28 21
7.715883 2.233545 25.381195 32 35 31
7.756366 2.230589 25.347603 24 26 33
7.795846 2.227385 25.311188 24 25 20
7.839919 2.225525 25.290060 22 23 42
7.878730 2.222206 25.252338 38 29 34
7.919339 2.219433 25.220825 27 36 28
7.958596 2.216318 25.185431 44 24 28
7.993409 2.212013 25.136507 42 25 38
8.032343 2.208894 25.101070 37 21 42
8.067374 2.204748 25.053957 38 32 21
8.108166 2.202218 25.025204 37 27 16
8.148225 2.199521 24.994555 30 16 34
8.181821 2.195123 24.944576 26 18 23
8.218900 2.191707 24.905758 28 34 30
8.247773 2.186157 24.842690 28 26 36
8.280569 2.181707 24.792124 33 30 20
8.312238 2.177015 24.738804 18 42 42
8.339155 2.171141 24.672056 42 39 37
8.373717 2.167315 24.628578 33 38 38
8.397994 2.160887 24.555538 40 41 34
8.426735 2.155676 24.496323 24 26 30
8.453517 2.150027 24.432129 39 43 25
8.473032 2.142606 24.347794 22 39 38
4.545561 2.435122 27.056913 22 28 34
4.587698 2.428782 26.986462 33 21 19
4.622894 2.418956 26.877293 43 20 31
4.660500 2.410604 26.784485 24 15 43
4.699845 2.403330 26.703663 36 24 38
4.738990 2.396119 26.623539 27 20 24
4.786040 2.393020 26.589113 43 30 15
4.829958 2.388441 26.538233 44 26 16
4.875949 2.384975 26.499722 34 37 16
4.922318 2.381767 26.464073 35 31 24
4.965826 2.377257 26.413967 39 31 21
5.012215 2.374207 26.380081 34 39 35
5.057044 2.370489 26.338772 25 28 29
5.105244 2.368412 26.315691 24 19 31
5.153637 2.366466 26.294067 16 37 15
5.198954 2.363161 26.257341 43 43 34
5.245892 2.360651 26.229458 32 33 18
5.288704 2.356353 26.181704 41 15 17
5.332620 2.352626 26.140293 40 33 17
5.376236 2.348841 26.098232 30 44 24
5.418379 2.344491 26.049900 28 36 28
5.464487 2.341923 26.021368 120 120 120
5.507010 2.337882 25.976461 120 120 120
5.550596 2.334363 25.937363 120 120 120
5.595204 2.331335 25.903721 19 39 17
5.639575 2.328265 25.869608 36 30 40
5.687985 2.326903 25.854477 30 16 34
5.736560 2.325632 25.840361 19 25 15
5.786970 2.325122 25.834688 31 18 40
5.838665 2.325132 25.834801 36 22 26
5.889907 2.324963 25.832926 34 25 25
5.941635 2.324988 25.833197 16 36 35
5.993001 2.324871 25.831902 25 24 17
6.044614 2.324851 25.831682 35 43 27
6.095346 2.324496 25.827738 34 42 31
6.144533 2.323563 25.817368 41 23 25
6.193499 2.322562 25.806244 40 16 36
6.240278 2.320764 25.786272 39 24 24
6.287514 2.319165 25.768499 41 17 17
6.334426 2.317473 25.749701 32 27 29
6.380358 2.315452 25.727249 27 44 38
6.428259 2.314173 25.713037 24 44 44
6.475562 2.312701 25.696674 34 30 23
6.524574 2.311857 25.687298 43 33 29
6.574271 2.311267 25.680744 40 25 29
6.623366 2.310477 25.671963 42 30 36
6.673549 2.310075 25.667498 43 23 40
6.721424 2.308886 25.654289 39 20 30
6.768973 2.307605 25.640051 42 28 35
6.815641 2.306044 25.622711 30 35 40
6.861220 2.304141 25.601568 15 44 35
6.908527 2.302842 25.587135 25 24 27
6.953562 2.300811 25.564568 27 38 29
6.999691 2.299168 25.546316 29 28 20
7.045896 2.297575 25.528610 40 16 33
7.090942 2.295629 25.506987 35 22 27
7.138254 2.294439 25.493763 17 19 30
7.184241 2.292843 25.476032 32 20 19
7.231651 2.291720 25.463560 38 44 38
7.279562 2.290771 25.453012 30 35 40
7.326445 2.289514 25.439045 30 35 40
7.374863 2.288751 25.430563 30 35 40
7.422928 2.287889 25.420986 30 35 40
7.473072 2.287675 25.418612 30 35 40
7.522358 2.287203 25.413372 37 19 15
7.568524 2.285796 25.397732 16 38 38
7.614530 2.284359 25.381767 26 17 18
7.655463 2.281429 25.349216 44 26 38
7.696631 2.278608 25.317865 43 22 28
7.736876 2.275552 25.283909 38 41 30
7.776169 2.272257 25.247301 38 30 21
7.820153 2.270367 25.226301 33 20 25
7.859097 2.267047 25.189415 17 32 25
7.899894 2.264301 25.158899 35 40 17
7.939451 2.261236 25.124844 18 18 25
7.974646 2.256975 25.077503 19 44 21
8.013810 2.253884 25.043158 15 19 27
8.049257 2.249792 24.997694 27 28 15
8.090385 2.247329 24.970324 23 25 17
8.130722 2.244678 24.940866 16 16 20
8.164680 2.240309 24.892317 27 16 44
8.201941 2.236893 24.854366 24 39 36
8.230420 2.231138 24.790422 23 19 20
8.262391 2.226393 24.737698 43 27 36
8.292936 2.221322 24.681356 28 15 21
8.318647 2.215024 24.611382 27 39 41
8.352356 2.210918 24.565754 27 40 34
8.376003 2.204211 24.491236 26 43 27
8.404611 2.198881 24.432009 33 28 32
8.431564 2.193181 24.368681 44 30 23
8.451179 2.185650 24.284998 21 33 26
4.530163 2.480803 26.965254 34 27 41
4.573670 2.475162 26.903938 33 29 26
4.610195 2.465918 26.803461 24 38 34
4.648457 2.457805 26.715271 21 21 22
4.687753 2.450416 26.634960 18 23 27
4.726203 2.442757 26.551702 38 36 17
4.772054 2.439050 26.511414 24 33 39
4.815080 2.433997 26.456484 43 27 16
4.860990 2.430495 26.418427 18 26 42
4.907530 2.427380 26.384567 18 15 19
4.950931 2.422796 26.334738 29 19 21
4.997103 2.419650 26.300543 32 26 41
5.041566 2.415750 26.258156 42 20 27
5.089365 2.413513 26.233841 31 21 38
5.137308 2.411389 26.210754 22 42 32
5.182153 2.407869 26.172489 20 20 26
5.228743 2.405222 26.143713 19 33 18
5.271040 2.400672 26.094259 29 43 15
5.314441 2.396709 26.051180 19 18 44
5.357565 2.392699 26.007595 28 27 40
5.399234 2.388123 25.957855 27 35 37
5.445041 2.385446 25.928766 120 120 120
5.487202 2.381239 25.883028 120 120 120
5.530481 2.377590 25.843370 120 120 120
5.574779 2.374443 25.809160 25 44 26
5.618747 2.371215 25.774071 40 30 15
5.666799 2.369752 25.758179 15 34 42
5.714952 2.368359 25.743029 44 24 44
5.764986 2.367762 25.736544 18 22 21
5.816326 2.367708 25.735956 32 27 35
5.867187 2.367461 25.733276 36 41 34
5.918617 2.367447 25.733118 26 23 27
5.969780 2.367326 25.731810 18 17 33
6.021255 2.367331 25.731857 37 17 15
6.071971 2.367040 25.728691 33 41 32
6.121244 2.366195 25.719513 34 29 34
6.170277 2.365273 25.709486 30 30 27
6.217324 2.363611 25.691420 31 17 44
6.264788 2.362133 25.675360 35 42 25
6.311945 2.360565 25.658314 38 42 18
6.358191 2.358684 25.637865 29 15 33
6.406211 2.357486 25.624846 23 33 29
6.453738 2.356127 25.610071 39 21 28
6.502878 2.355373 25.601883 21 31 20
6.552623 2.354849 25.596182 36 25 20
6.601752 2.354113 25.588186 18 20 27
6.651806 2.353716 25.583870 30 35 40
6.699707 2.352569 25.571402 30 35 40
6.747386 2.351362 25.558279 30 35 40
6.794173 2.349864 25.542004 30 35 40
6.839803 2.347992 25.521654 30 35 40
6.887006 2.346683 25.507429 30 35 40
6.931888 2.344609 25.484882 30 35 40
6.977826 2.342920 25.466518 41 40 20
7.023777 2.341259 25.448467 27 25 37
7.068558 2.339235 25.426466 29 40 27
7.115621 2.337990 25.412931 41 15 31
7.161284 2.336305 25.394625 16 17 33
7.208381 2.335109 25.381622 30 35 40
7.255951 2.334082 25.370457 30 35 40
7.302468 2.332733 25.355793 30 35 40
7.350589 2.331911 25.346857 30 35 40
7.398172 2.330931 25.336205 30 35 40
7.447872 2.330627 25.332897 30 35 40
7.496587 2.330020 25.326307 30 35 40
7.541983 2.328397 25.308668 21 29 25
7.587320 2.326778 25.291065 16 44 37
7.627466 2.323599 25.256510 44 19 18
7.667999 2.320579 25.223680 36 34 28
7.707792 2.317375 25.188864 35 25 15
7.746699 2.313949 25.151619 37 23 20
7.790513 2.312023 25.130686 18 22 23
7.829621 2.308734 25.094938 21 27 42
7.870698 2.306064 25.065916 37 17 41
7.910722 2.303122 25.033930 30 37 38
7.946489 2.298984 24.988958 16 17 32
7.986006 2.295977 24.956270 37 17 21
8.022060 2.292017 24.913231 29 20 31
8.063734 2.289702 24.888069 15 28 32
8.104406 2.287133 24.860142 32 38 37
8.138573 2.282771 24.812723 16 20 41
8.175688 2.279283 24.774813 33 23 15
8.203181 2.273171 24.708378 23 23 40
8.233631 2.267946 24.651588 37 17 30
8.262521 2.262357 24.590836 36 27 25
8.286900 2.255606 24.517454 23 17 39
8.320023 2.251300 24.470657 42 41 24
8.343356 2.244412 24.395779 23 37 23
8.371985 2.239019 24.337166 16 15 32
8.399271 2.233332 24.275351 21 29 32
8.419299 2.225792 24.193388 42 44 29
4.561391 2.522181 26.831715 32 27 40
4.598419 2.513089 26.734993 22 36 37
4.637545 2.505340 26.652555 44 31 15
4.677465 2.498192 26.576506 27 44 37
4.715718 2.490323 26.492796 20 21 33
4.760692 2.486139 26.448290 29 33 18
4.803122 2.480733 26.390781 16 40 16
4.849047 2.477230 26.353516 29 19 33
4.895780 2.474211 26.321396 38 28 20
4.939226 2.469613 26.272478 36 32 37
4.985333 2.466428 26.238596 41 28 36
5.029619 2.462417 26.195930 35 18 20
5.077154 2.460064 26.170895 25 39 34
5.124737 2.457782 26.146618 15 31 23
5.169199 2.454064 26.107067 31 26 31
5.215479 2.451275 26.077393 40 22 16
5.257332 2.446481 26.026398 43 19 42
5.300325 2.442307 25.981985 41 19 37
5.343033 2.438083 25.937052 36 32 34
5.384277 2.433279 25.885948 16 26 27
5.429785 2.430475 25.856119 120 120 120
5.471581 2.426078 25.809345 120 120 120
5.514562 2.422284 25.768980 120 120 120
5.558575 2.419010 25.734144 40 41 34
5.602213 2.415633 25.698223 27 24 17
5.650005 2.414093 25.681839 20 19 18
5.697858 2.412606 25.666025 24 31 19
5.747623 2.411949 25.659031 20 39 44
5.798729 2.411861 25.658094 29 36 17
5.849350 2.411574 25.655045 19 27 34
5.900593 2.411547 25.654751 42 36 36
5.951682 2.411457 25.653803 25 18 21
6.003132 2.411514 25.654409 22 25 38
6.053942 2.411316 25.652296 30 24 33
6.103384 2.410580 25.644472 18 19 31
6.152531 2.409741 25.635548 36 40 41
6.199901 2.408226 25.619425 33 33 26
6.247633 2.406875 25.605055 25 17 34
6.295081 2.405437 25.589760 21 23 27
6.341705 2.403711 25.571390 42 30 18
6.389923 2.402611 25.559690 17 34 17
6.437757 2.401385 25.546654 31 34 23
6.487115 2.400743 25.539822 18 20 36
6.536992 2.400302 25.535124 20 43 25
6.586195 2.399621 25.527887 30 35 40
6.636143 2.399221 25.523626 30 35 40
6.684084 2.398106 25.511770 30 35 40
6.731890 2.396961 25.499584 30 35 40
6.778807 2.395518 25.484236 30 35 40
6.824503 2.393669 25.464565 30 35 40
6.871642 2.392349 25.450525 30 35 40
6.916421 2.390234 25.428019 30 35 40
6.962229 2.388502 25.409594 30 35 40
7.007999 2.386782 25.391302 36 24 27
7.052603 2.384693 25.369076 39 35 34
7.099499 2.383403 25.355354 35 31 37
7.144946 2.381649 25.336689 44 36 36
7.191834 2.380396 25.323359 19 36 44
7.239166 2.379306 25.311768 30 35 40
7.285430 2.377883 25.296631 30 35 40
7.333340 2.377014 25.287380 30 35 40
7.380554 2.375932 25.275869 30 35 40
7.429898 2.375546 25.271763 30 35 40
7.478156 2.374820 25.264040 30 19 21
7.522888 2.372992 25.244591 20 34 20
7.567640 2.371194 25.225468 39 17 37
7.607069 2.367763 25.188969 19 27 15
7.647008 2.364535 25.154633 25 43 32
7.686358 2.361169 25.118816 23 36 32
7.724873 2.357591 25.080755 31 40 25
7.768506 2.355612 25.059698 38 31 25
7.807695 2.352318 25.024662 36 17 43
7.848982 2.349695 24.996759 39 34 30
7.889364 2.346836 24.966341 15 28 40
7.925573 2.342779 24.923185 39 20 18
7.965358 2.339824 24.891745 24 16 30
8.001854 2.335945 24.850477 38 19 37
8.043942 2.333736 24.826981 24 43 41
8.084820 2.331206 24.800062 31 19 32
8.119035 2.326797 24.753157 20 40 25
8.155923 2.323202 24.714918 27 26 19
8.182428 2.316711 24.645866 17 43 41
8.211351 2.310979 24.584885 18 33 42
8.238782 2.304897 24.520184 32 34 23
8.262366 2.297818 24.444870 17 23 20
8.295510 2.293465 24.398560 32 40 27
8.319033 2.286518 24.324657 24 38 43
8.347794 2.281083 24.266842 25 44 15
8.375362 2.275387 24.206249 26 19 34
4.548558 2.568598 26.756226 35 44 17
4.585738 2.559482 26.661270 23 29 27
4.625704 2.552112 26.584503 21 16 36
4.666454 2.545339 26.513943 29 17 34
4.704826 2.537434 26.431608 20 44 18
4.749271 2.532944 26.384838 34 34 29
4.791403 2.527333 26.326387 22 28 16
4.837394 2.523858 26.290186 17 40 35
4.884308 2.520933 26.259722 39 30 19
4.927884 2.516366 26.212149 28 41 32
4.974019 2.513188 26.179047 40 39 26
5.018187 2.509094 26.136393 16 29 43
5.065489 2.506634 26.110769 28 20 29
5.112701 2.504180 26.085207 18 36 42
5.156717 2.500226 26.044025 42 29 26
5.202596 2.497246 26.012980 35 15 44
5.243889 2.492145 25.959848 36 30 19
5.286415 2.487725 25.913799 31 25 26
5.328643 2.483251 25.867199 41 29 15
5.369291 2.478134 25.813898 36 18 27
5.414341 2.475127 25.782576 120 120 120
5.455605 2.470463 25.733986 120 120 120
5.498175 2.466471 25.692406 120 120 120
5.541844 2.463042 25.656683 19 35 16
5.585106 2.459496 25.619753 30 35 40
5.632641 2.457880 25.602913 22 19 17
5.680242 2.456321 25.586676 32 34 19
5.729788 2.455623 25.579411 25 17 24
5.780742 2.455536 25.578505 34 19 31
5.831243 2.455260 25.575628 43 23 17
5.882397 2.455261 25.575640 27 35 19
5.933543 2.455259 25.575617 34 41 39
5.985059 2.455409 25.577175 18 38 33
6.036016 2.455329 25.576340 42 20 25
6.085697 2.454735 25.570156 30 40 27
6.134995 2.453998 25.562479 18 22 19
6.182695 2.452640 25.548328 30 41 26
6.230676 2.451413 25.535557 30 17 19
6.278377 2.450098 25.521858 38 28 30
6.325339 2.448518 25.505400 43 23 35
6.373711 2.447505 25.494843 15 36 34
6.421801 2.446400 25.483335 22 34 42
6.471342 2.445862 25.477724 37 19 40
6.521306 2.445490 25.473852 37 42 20
6.570547 2.444855 25.467237 30 35 40
6.620376 2.444447 25.462986 30 35 40
6.668295 2.443345 25.451508 30 35 40
6.716161 2.442240 25.440002 30 35 40
6.763119 2.440825 25.425259 30 35 40
6.808777 2.438965 25.405884 30 35 40
6.855773 2.437608 25.391752 30 35 40
6.900363 2.435422 25.368980 30 35 40
6.945959 2.433621 25.350214 30 35 40
6.991494 2.431824 25.331499 34 36 17
7.035846 2.429645 25.308798 39 31 18
7.082534 2.428297 25.294764 42 22 29
7.127752 2.426469 25.275717 18 34 28
7.174455 2.425168 25.262167 41 40 30
7.221610 2.424037 25.250383 30 35 40
7.267654 2.422551 25.234909 30 35 40
7.315368 2.421639 25.225409 30 35 40
7.362245 2.420464 25.213167 30 35 40
7.411246 2.419999 25.208321 30 35 40
7.459048 2.419151 25.199486 20 26 23
7.503171 2.417129 25.178427 36 18 29
7.547400 2.415168 25.157999 26 35 25
7.586154 2.411493 25.119715 18 34 15
7.625521 2.408059 25.083950 35 18 28
7.664437 2.404529 25.047178 31 42 44
7.702565 2.400799 25.008327 43 15 19
7.746038 2.398773 24.987219 22 39 20
7.785316 2.395482 24.952936 27 28 31
7.826813 2.392911 24.926157 35 42 38
7.867546 2.390141 24.897297 15 29 22
7.904182 2.386168 24.855919 29 24 36
7.944222 2.383267 24.825693 34 24 41
7.981160 2.379476 24.786211 29 35 19
8.023721 2.377399 24.764570 28 28 15
8.064765 2.374900 24.738543 15 33 41
8.098697 2.370350 24.691149 28 43 26
8.134935 2.366527 24.651320 42 43 35
8.160262 2.359594 24.579102 27 41 44
8.187817 2.353385 24.514423 21 34 33
8.214148 2.346899 24.446869 19 23 38
8.237322 2.339594 24.370775 32 18 32
8.270781 2.335279 24.325827 25 43 28
8.294810 2.328368 24.253830 23 21 33
8.323827 2.322929 24.197172 20 17 38
8.351756 2.317250 24.138023 33 23 24
4.570587 2.604172 26.573179 30 19 33
4.611098 2.597055 26.500563 40 19 42
4.652331 2.590502 26.433699 44 24 18
4.690873 2.582616 26.353220 27 29 24
4.735061 2.577978 26.305897 24 41 31
4.777068 2.572267 26.247627 22 21 35
4.823075 2.568812 26.212366 29 31 42
4.870025 2.565927 26.182932 19 36 22
4.913663 2.561378 26.136507 17 22 41
4.959781 2.558203 26.104109 26 36 18
5.003765 2.554005 26.061274 22 17 37
5.050757 2.551414 26.034832 28 32 40
5.097481 2.548741 26.007557 24 24 42
5.140890 2.544481 25.964092 44 37 43
5.186223 2.541249 25.931114 38 39 31
5.226760 2.535755 25.875050 42 26 18
5.268657 2.531022 25.826752 32 33 22
5.310240 2.526231 25.777863 17 26 37
5.350060 2.520701 25.721443 26 34 16
5.394466 2.517417 25.687931 120 120 120
5.434990 2.512401 25.636747 120 120 120
5.477009 2.508163 25.593498 120 120 120
5.520236 2.504552 25.556650 30 35 40
5.563010 2.500803 25.518394 30 35 40
5.610226 2.499101 25.501026 30 35 40
5.657522 2.497464 25.484331 22 35 39
5.706817 2.496732 25.476860 29 39 19
5.757624 2.496669 25.476213 43 23 24
5.808052 2.496443 25.473911 20 20 36
5.859165 2.496514 25.474630 34 17 36
5.910431 2.496648 25.475996 27 37 15
5.962028 2.496918 25.478754 31 17 33
6.013133 2.496979 25.479378 42 30 17
6.063096 2.496569 25.475193 41 18 29
6.112551 2.495958 25.468962 31 32 37
6.160567 2.494775 25.456890 25 41 32
6.208752 2.493679 25.445705 26 40 29
6.256618 2.492474 25.433405 35 30 26
6.303801 2.491018 25.418550 40 35 34
6.352216 2.490069 25.408865 32 34 34
6.400409 2.489048 25.398447 33 26 41
6.449977 2.488574 25.393612 38 39 23
6.499905 2.488245 25.390253 30 35 32
6.549104 2.487644 25.384123 30 35 40
6.598795 2.487238 25.379982 30 35 40
6.646592 2.486130 25.368671 30 35 40
6.694359 2.485027 25.357420 30 35 40
6.741178 2.483592 25.342775 30 35 40
6.786628 2.481678 25.323240 30 35 40
6.833363 2.480258 25.308752 30 35 40
6.877605 2.477961 25.285313 30 35 40
6.922854 2.476057 25.265890 30 35 40
6.968024 2.474153 25.246464 27 24 28
7.011948 2.471838 25.222836 39 34 30
7.058290 2.470402 25.208179 40 37 26
7.103160 2.468474 25.188511 43 39 33
7.149629 2.467125 25.174749 28 24 44
7.196566 2.465956 25.162817 39 27 38
7.242331 2.464404 25.146982 24 42 33
7.289797 2.463449 25.137232 30 35 40
7.336240 2.462163 25.124109 34 24 34
7.384806 2.461602 25.118387 40 19 29
7.432074 2.460619 25.108356 26 19 34
7.475547 2.458402 25.085730 30 20 21
7.519225 2.456280 25.064083 35 40 26
7.557300 2.452369 25.024174 16 42 30
7.596055 2.448728 24.987022 41 39 28
7.634511 2.445040 24.949383 30 29 35
7.672311 2.441190 24.910101 15 43 25
7.715685 2.439152 24.889307 25 25 44
7.755200 2.435928 24.856409 42 29 17
7.797009 2.433461 24.831238 44 24 39
7.838228 2.430843 24.804518 27 26 19
7.875478 2.427034 24.765656 24 38 21
7.915892 2.424242 24.737164 25 36 44
7.953518 2.420636 24.700365 21 21 29
7.996920 2.418822 24.681852 41 30 17
8.038299 2.416421 24.657358 34 36 23
8.071590 2.411634 24.608507 38 20 24
8.106504 2.407386 24.565165 33 33 21
8.130351 2.399923 24.489010 16 35 22
8.156868 2.393333 24.421761 29 33 20
8.182536 2.386573 24.352787 33 36 19
8.205330 2.379060 24.276125 44 21 30
8.238862 2.374731 24.231947 43 32 21
8.263265 2.367836 24.161592 17 28 27
8.292589 2.362424 24.106363 37 33 17
4.560912 2.651693 26.516930 18 27 41
4.601488 2.644533 26.445332 33 28 36
4.642813 2.637962 26.379620 21 18 23
4.681617 2.630122 26.301218 17 34 37
4.726019 2.625566 26.255661 26 40 35
4.768215 2.619898 26.198984 40 15 21
4.814216 2.616422 26.164217 23 16 29
4.861085 2.613487 26.134867 24 38 23
4.904749 2.608909 26.089090 28 22 44
4.950877 2.605725 26.057249 21 27 21
4.994747 2.601431 26.014305 15 25 32
5.041540 2.598732 25.987322 32 28 42
5.087937 2.595886 25.958864 39 21 18
5.130898 2.591363 25.913626 35 22 35
5.175821 2.587911 25.879107 39 36 19
5.215795 2.582077 25.820766 42 27 34
5.257247 2.577082 25.770819 42 20 43
5.298353 2.572016 25.720160 28 29 28
5.337519 2.566115 25.661148 24 21 27
5.381411 2.562577 25.625769 120 120 120
5.421349 2.557240 25.572403 120 120 120
5.462942 2.552777 25.527767 30 35 40
5.505854 2.549007 25.490067 30 35 40
5.548290 2.545087 25.450872 30 35 40
5.595289 2.543313 25.433130 30 35 40
5.642425 2.541633 25.416330 30 35 40
5.691593 2.540890 25.408899 29 37 29
5.742366 2.540870 25.408699 34 16 29
5.792843 2.540721 25.407207 36 19 39
5.844014 2.540876 25.408758 37 37 33
5.895443 2.541139 25.411394 29 44 32
5.947131 2.541509 25.415091 22 24 16
5.998350 2.541674 25.416737 30 19 30
6.048511 2.541391 25.413910 40 41 38
6.098064 2.540860 25.408602 35 19 38
6.146240 2.539769 25.397686 29 37 18
6.194499 2.538729 25.387289 43 17 27
6.242372 2.537550 25.375498 30 27 28
6.289580 2.536121 25.361210 16 21 18
6.337927 2.535171 25.351709 27 40 25
6.386053 2.534148 25.341480 17 18 29
6.435516 2.533668 25.336678 28 37 28
6.485325 2.533330 25.333300 30 35 40
6.534435 2.532727 25.327267 30 35 40
6.584039 2.532323 25.323229 30 35 40
6.631686 2.531178 25.311779 30 35 40
6.679266 2.530025 25.300249 30 35 40
6.725843 2.528512 25.285124 30 35 40
6.771025 2.526502 25.265018 30 35 40
6.817524 2.525009 25.250090 30 35 40
6.861445 2.522590 25.225901 30 35 40
6.906401 2.520584 25.205843 30 35 40
6.951266 2.518575 25.185747 30 35 40
6.994831 2.516126 25.161263 37 38 27
7.040886 2.514602 25.146023 38 36 29
7.085492 2.512586 25.125858 37 16 27
7.131818 2.511204 25.112036 33 33 28
7.178646 2.510016 25.100163 31 15 15
7.224248 2.508420 25.084196 43 33 28
7.271553 2.507432 25.074322 18 21 29
7.317740 2.506075 25.060753 38 44 16
7.366017 2.505448 25.054480 43 43 40
7.412973 2.504383 25.043829 42 26 39
7.456105 2.502048 25.020485 23 16 32
7.499516 2.499839 24.998386 19 23 38
7.537263 2.495782 24.957825 23 23 21
7.575686 2.492002 24.920019 30 36 37
7.613901 2.488203 24.882030 44 23 35
7.651584 2.484280 24.842804 29 31 19
7.694948 2.482241 24.822414 42 29 43
7.734690 2.479067 24.790672 27 37 15
7.776733 2.476666 24.766665 28 29 19
7.818287 2.474142 24.741415 39 39 31
7.855977 2.470433 24.704330 16 17 19
7.896656 2.467705 24.677050 41 38 31
7.934809 2.464226 24.642263 33 21 42
7.978933 2.462634 24.626337 35 24 34
8.020591 2.460304 24.603039 31 17 34
8.053172 2.455235 24.552353 22 16 44
8.086768 2.450536 24.505358 23 33 44
8.109578 2.442644 24.426441 26 23 25
8.135866 2.435888 24.358879 23 20 22
8.161656 2.429064 24.290642 39 43 16
8.184442 2.421432 24.214325 17 34 30
8.217967 2.417049 24.170490 30 26 32
8.242599 2.410117 24.101168 25 20 26
8.272162 2.404698 24.046984 18 38 26
4.588004 2.689519 26.367838 27 38 30
4.629410 2.682954 26.303469 29 31 38
4.668409 2.675156 26.227018 17 35 43
4.712921 2.670655 26.182894 18 15 16
4.755129 2.664963 26.127085 35 43 30
4.800923 2.661381 26.091970 18 22 31
4.847519 2.658317 26.061928 17 16 34
4.891072 2.653667 26.016342 21 20 19
4.937169 2.650480 25.985102 32 44 29
4.980816 2.646058 25.941750 44 24 26
5.027277 2.643208 25.913799 18 25 25
5.073178 2.640123 25.883560 41 16 25
5.115525 2.635270 25.835983 30 40 20
5.159901 2.631550 25.799505 27 21 36
5.199187 2.625332 25.738548 31 20 38
5.240152 2.620076 25.687017 20 24 23
5.280733 2.614732 25.634624 16 17 38
5.319115 2.608412 25.572668 28 32 25
5.362326 2.604558 25.534883 120 120 120
5.401531 2.598850 25.478922 120 120 120
5.442636 2.594154 25.432878 120 120 120
5.485187 2.590227 25.394386 30 35 40
5.527234 2.586137 25.354286 30 35 40
5.573986 2.584303 25.336300 30 35 40
5.620889 2.582571 25.319321 27 26 17
5.669836 2.581800 25.311768 21 43 23
5.720476 2.581808 25.311840 28 17 41
5.770929 2.581732 25.311094 36 39 28
5.822104 2.581977 25.313498 16 33 22
5.873612 2.582364 25.317295 37 32 21
5.925295 2.582821 25.321772 38 20 17
5.976494 2.583061 25.324129 18 17 38
6.026689 2.582867 25.322222 34 24 30
6.076193 2.582382 25.317472 41 36 35
6.124320 2.581325 25.307106 28 30 24
6.172488 2.580302 25.297081 31 21 39
6.220196 2.579106 25.285349 40 26 23
6.267196 2.577637 25.270950 19 29 25
6.315297 2.576641 25.261187 41 18 38
6.363114 2.575546 25.250454 16 35 40
6.412279 2.575010 25.245192 36 32 31
6.461787 2.574618 25.241356 17 20 27
6.510600 2.573958 25.234884 30 35 40
6.559967 2.573525 25.230640 30 35 40
6.607385 2.572341 25.219028 30 35 40
6.654823 2.571182 25.207663 30 35 40
6.701198 2.569632 25.192472 30 35 40
6.745996 2.567506 25.171625 30 35 40
6.792051 2.565886 25.155745 30 35 40
6.835401 2.563275 25.130150 30 35 40
6.879868 2.561119 25.109009 30 35 40
6.924261 2.558966 25.087904 27 41 23
6.967270 2.556336 25.062122 39 33 22
7.012895 2.554698 25.046055 16 19 27
7.057134 2.552580 25.025297 18 21 17
7.103251 2.551168 25.011448 34 40 26
7.149941 2.549979 24.999794 30 39 39
7.195319 2.548342 24.983747 24 24 30
7.242383 2.547321 24.973734 36 38 29
7.288232 2.545889 24.959700 27 28 19
7.336129 2.545188 24.952820 18 33 27
7.382697 2.544037 24.941544 44 38 33
7.425472 2.541604 24.917690 40 18 44
7.468619 2.539330 24.895395 40 34 24
7.506067 2.535162 24.854527 15 22 24
7.544143 2.531259 24.816261 28 17 19
7.582099 2.527366 24.778101 18 40 22
7.619642 2.523388 24.739098 44 33 34
7.662958 2.521360 24.719219 17 42 34
7.702855 2.518241 24.688639 30 28 34
7.745053 2.515909 24.665773 21 16 35
7.786842 2.513474 24.641905 26 29 33
7.824897 2.509873 24.606594 28 32 20
7.865803 2.507225 24.580633 22 30 21
7.904166 2.503804 24.547098 33 17 19
7.948474 2.502297 24.532328 36 42 17
7.989879 2.499901 24.508831 16 23 31
8.021485 2.494486 24.455748 36 18 39
8.053782 2.489351 24.405401 27 29 40
8.075550 2.481042 24.323946 19 36 22
8.101509 2.474114 24.256016 31 23 32
8.127362 2.467235 24.188578 33 44 16
8.150167 2.459518 24.112921 23 23 40
8.183742 2.455123 24.069830 24 26 27
8.208828 2.448247 24.002422 25 16 40
4.578625 2.736650 26.313938 21 37 40
4.620044 2.730026 26.250250 24 17 37
4.659039 2.722135 26.174376 32 27 24
4.703486 2.717570 26.130478 29 40 43
4.745534 2.711734 26.074364 28 31 38
4.791073 2.707998 26.038439 44 31 40
4.837408 2.704787 26.007568 16 33 24
4.880840 2.700039 25.961914 29 35 19
4.926928 2.696845 25.931200 18 28 23
4.970428 2.692315 25.887644 24 18 44
5.016638 2.689332 25.858959 38 21 29
5.062188 2.686059 25.827492 39 19 37
5.104109 2.680946 25.778328 40 42 30
5.148121 2.677023 25.740606 24 16 34
5.186971 2.670520 25.678076 32 19 28
5.227639 2.665071 25.625683 37 17 24
5.267898 2.659521 25.572319 15 24 18
5.305758 2.652879 25.508451 36 33 21
5.348480 2.648771 25.468950 120 120 120
5.387185 2.642770 25.411249 120 120 120
5.427963 2.637888 25.364311 120 120 120
5.470291 2.633844 25.325420 27 42 30
5.512095 2.629623 25.284840 30 35 40
5.558685 2.627742 25.266752 17 25 33
5.605439 2.625971 25.249725 37 37 42
5.654222 2.625174 25.242062 31 25 41
5.704735 2.625188 25.242191 26 43 21
5.755117 2.625141 25.241743 38 42 21
5.806248 2.625434 25.244556 17 35 40
5.857707 2.625869 25.248737 21 24 31
5.909301 2.626356 25.253422 18 18 17
5.960372 2.626605 25.255814 36 21 17
6.010424 2.626404 25.253881 36 38 34
6.059767 2.625899 25.249031 36 35 28
6.107682 2.624789 25.238356 16 25 29
6.155642 2.623716 25.228041 32 19 15
6.203107 2.622452 25.215881 22 43 40
6.249801 2.620884 25.200811 30 19 41
6.297623 2.619811 25.190493 30 28 30
6.345085 2.618606 25.178907 43 29 15
6.393917 2.617982 25.172901 29 21 42
6.443119 2.617517 25.168432 36 19 16
6.491593 2.616766 25.161215 30 35 40
6.540709 2.616284 25.156574 30 35 40
6.587968 2.615071 25.144915 30 35 40
6.635438 2.613960 25.134233 30 35 40
6.681766 2.612420 25.119423 30 35 40
6.726188 2.610163 25.097717 30 35 40
6.771719 2.608366 25.080442 30 35 40
6.814450 2.605525 25.053123 30 35 40
6.858481 2.603219 25.030954 30 35 40
6.902471 2.600931 25.008951 42 24 38
6.945008 2.598132 24.982042 29 43 39
6.990292 2.596394 24.965328 26 17 28
7.034222 2.594181 24.944048 22 40 25
7.080160 2.592735 24.930140 44 21 19
7.126732 2.591539 24.918642 40 25 43
7.171951 2.589871 24.902609 31 27 42
7.218842 2.588826 24.892557 37 15 41
7.264485 2.587351 24.878372 34 17 34
7.312138 2.586607 24.871218 30 31 28
7.358487 2.585414 24.859753 22 32 18
7.401101 2.582935 24.835909 23 29 31
7.444148 2.580638 24.813826 29 44 42
7.481480 2.576404 24.773111 44 37 15
7.519390 2.572423 24.734837 26 28 23
7.557187 2.568456 24.696690 31 16 30
7.594615 2.564415 24.657841 33 42 16
7.637826 2.562368 24.638149 39 26 23
7.677676 2.559225 24.607937 42 16 31
7.719822 2.556884 24.585421 30 18 18
7.761574 2.554442 24.561943 16 43 32
7.799623 2.550820 24.527117 21 28 23
7.840483 2.548157 24.501509 34 30 31
7.878562 2.544629 24.467583 42 20 23
7.922442 2.543006 24.451981 29 28 43
7.963243 2.540421 24.427126 38 25 27
7.994093 2.534712 24.372234 29 19 23
8.025745 2.529326 24.320440 39 35 43
8.046965 2.520736 24.237846 23 44 20
8.072623 2.513631 24.169531 18 38 36
8.098447 2.506662 24.102520 39 32 30
8.121348 2.498876 24.027657 34 21 28
8.155079 2.494495 23.985527 39 42 39
8.180733 2.487708 23.920271 31 27 40
4.610805 2.776962 26.197754 22 41 41
4.649753 2.768954 26.122208 23 15 20
4.694095 2.764301 26.078308 18 40 44
4.735869 2.758253 26.021257 41 20 34
4.781004 2.754274 25.983717 28 25 18
4.826925 2.750828 25.951212 23 30 20
4.870077 2.745894 25.904663 27 44 21
4.916062 2.742645 25.874012 28 33 38
4.959316 2.737956 25.829771 18 27 34
5.005204 2.734802 25.800022 22 35 15
5.050383 2.731330 25.767262 28 31 41
5.091873 2.725952 25.716532 36 31 42
5.135554 2.721844 25.677771 20 24 34
5.174089 2.715116 25.614300 27 44 25
5.214608 2.709551 25.561804 44 34 29
5.254716 2.703883 25.508331 15 36 19
5.292222 2.696998 25.443373 16 16 41
5.334550 2.692678 25.402618 120 120 120
5.372894 2.686447 25.343842 120 120 120
5.413474 2.681440 25.296608 120 120 120
5.455683 2.677326 25.257793 42 31 23
5.497346 2.673022 25.217184 18 37 23
5.543820 2.671113 25.199181 28 41 36
5.590417 2.669298 25.182058 35 23 26
5.638992 2.668452 25.174072 41 15 19
5.689308 2.668437 25.173931 19 36 32
5.739561 2.668392 25.173512 22 20 33
5.790618 2.668720 25.176601 33 36 16
5.841952 2.669168 25.180828 24 27 39
5.893385 2.669653 25.185408 25 42 24
5.944237 2.669869 25.187445 15 21 43
5.994010 2.669601 25.184916 38 29 41
6.043089 2.669031 25.179539 43 43 16
6.090653 2.667807 25.167986 35 40 22
6.138309 2.666643 25.157005 34 24 34
6.185445 2.665273 25.144085 20 31 41
6.231716 2.663556 25.127888 21 26 19
6.279174 2.662370 25.116697 19 18 23
6.326177 2.661011 25.103876 20 40 29
6.374613 2.660272 25.096903 41 18 24
6.423444 2.659707 25.091578 20 43 17
6.471515 2.658840 25.083393 30 35 40
6.520338 2.658292 25.078224 30 35 40
6.567413 2.657045 25.066462 30 35 40
6.614900 2.655983 25.056440 30 35 40
6.661227 2.654474 25.042208 30 35 40
6.705422 2.652145 25.020231 30 35 40
6.750596 2.650234 25.002207 30 35 40
6.792877 2.647224 24.973814 30 35 40
6.836521 2.644786 24.950808 30 35 40
6.880136 2.642371 24.928028 16 21 15
6.922266 2.639425 24.900238 18 21 23
6.967244 2.637600 24.883015 42 28 20
7.010933 2.635315 24.861465 23 27 25
7.056761 2.633862 24.847752 30 42 27
7.103265 2.632679 24.836592 27 19 42
7.148338 2.630985 24.820618 19 41 29
7.195050 2.629915 24.810518 35 32 36
7.240481 2.628394 24.796167 38 25 36
7.287894 2.627608 24.788754 36 40 41
7.334032 2.626376 24.777136 39 29 32
7.376555 2.623875 24.753540 29 21 44
7.419570 2.621581 24.731899 17 24 21
7.456897 2.617321 24.691711 17 37 41
7.494731 2.613294 24.653721 34 34 18
7.532453 2.609281 24.615858 37 22 37
7.569859 2.605211 24.577463 30 38 34
7.613011 2.603159 24.558100 24 40 31
7.652820 2.599997 24.528271 41 29 44
7.694884 2.597636 24.506001 37 44 41
7.736532 2.595166 24.482697 44 37 24
7.774610 2.591537 24.448460 21 18 28
7.815506 2.588886 24.423456 25 42 39
7.853155 2.585200 24.388681 28 40 42
7.896177 2.583317 24.370916 35 31 23
7.936046 2.580432 24.343699 29 15 29
7.966290 2.574472 24.287470 15 28 35
7.997738 2.568970 24.235569 22 34 32
8.018811 2.560223 24.153046 30 27 25
8.044304 2.552983 24.084743 27 35 21
8.070088 2.545920 24.018118 28 33 35
8.093024 2.538049 23.943859 37 29 36
8.126792 2.533647 23.902330 15 24 28
4.636945 2.813427 26.050253 24 22 41
4.681234 2.808741 26.006857 34 21 36
4.722686 2.802473 25.948824 42 36 38
4.767279 2.798186 25.909126 40 24 42
4.812580 2.794401 25.874084 24 41 28
4.855267 2.789196 25.825890 30 26 16
4.901030 2.785849 25.794897 28 31 34
4.943856 2.780919 25.749249 24 29 27
4.989244 2.777517 25.717754 39 38 41
5.033872 2.773766 25.683022 31 19 38
5.074745 2.768043 25.630026 18 27 43
5.117962 2.763699 25.589808 37 33 16
5.156111 2.756733 25.525301 23 28 23
