ply
format ascii 1.0
element vertex 1288
property float x
property float y
property float z
property uchar red
property uchar green
property uchar blue
end_header
8.215598 0.979343 27.203966 33 32 15
8.273622 0.979771 27.215860 31 20 21
8.330160 0.980019 27.222744 34 21 36
8.387111 0.980312 27.230881 33 16 25
8.442498 0.980419 27.233866 34 25 17
8.495024 0.980195 27.227640 23 38 41
8.546133 0.979811 27.216984 21 31 20
8.594971 0.979174 27.199276 36 31 41
5.431591 1.021784 26.889065 30 37 28
5.482936 1.021331 26.877138 24 18 36
5.534619 1.020949 26.867083 23 19 42
5.584213 1.020193 26.847178 40 18 32
5.634638 1.019601 26.831608 120 120 120
5.680600 1.018221 26.795284 120 120 120
5.726015 1.016769 26.757078 120 120 120
5.770731 1.015221 26.716347 44 36 33
5.814518 1.013540 26.672102 18 42 27
5.862190 1.012560 26.646318 19 29 20
5.909672 1.011565 26.620144 39 42 42
5.958906 1.010886 26.602259 43 35 20
6.011760 1.010827 26.600708 37 27 39
6.067606 1.011268 26.612309 25 30 30
6.125879 1.012102 26.634258 34 34 23
6.188237 1.013590 26.673433 16 42 25
6.250519 1.015042 26.711618 39 17 40
6.312256 1.016380 26.746849 26 44 16
6.372454 1.017451 26.775015 19 43 29
6.427848 1.017743 26.782701 42 26 42
6.484131 1.018169 26.793930 40 31 26
6.539722 1.018481 26.802137 22 39 25
6.595084 1.018753 26.809284 40 35 29
6.651384 1.019164 26.820097 37 38 23
6.706883 1.019446 26.827534 33 41 24
6.763881 1.019950 26.840799 22 22 20
6.820621 1.020408 26.852840 35 40 19
6.877397 1.020864 26.864834 42 28 25
6.934566 1.021370 26.878162 32 38 29
6.990298 1.021659 26.885763 41 23 16
7.046516 1.022014 26.895100 32 34 38
7.102213 1.022288 26.902321 17 30 43
7.156979 1.022426 26.905935 30 41 21
7.211006 1.022456 26.906740 31 17 24
7.263982 1.022338 26.903639 18 29 27
7.316270 1.022126 26.898052 39 30 36
7.368122 1.021856 26.890955 40 25 41
7.420703 1.021691 26.886604 44 25 38
7.474778 1.021732 26.887690 21 34 42
7.530065 1.021937 26.893089 16 21 29
7.587343 1.022408 26.905472 32 37 44
7.644545 1.022862 26.917412 31 19 31
7.702563 1.023417 26.932039 20 30 17
7.761347 1.024067 26.949121 35 43 31
7.818524 1.024496 26.960426 44 32 33
7.878184 1.025243 26.980082 27 25 17
7.937170 1.025893 26.997175 25 23 35
7.996343 1.026558 27.014671 26 20 44
8.056675 1.027361 27.035824 23 36 19
8.114749 1.027868 27.049164 28 28 24
8.173648 1.028472 27.065060 16 30 16
8.230899 1.028862 27.075325 37 22 34
8.287073 1.029114 27.081938 20 34 24
8.344129 1.029470 27.091328 18 25 24
8.399946 1.029671 27.096600 20 37 20
8.452459 1.029466 27.091215 41 24 22
8.502956 1.029020 27.079479 17 37 24
8.550807 1.028262 27.059517 41 29 25
8.596961 1.027310 27.034470 34 33 22
8.644805 1.026571 27.015015 16 43 20
8.688922 1.025401 26.984230 18 35 28
5.319169 1.074580 26.864491 33 24 26
5.368180 1.073636 26.840899 31 42 26
5.416694 1.072613 26.815319 19 21 42
5.468039 1.072164 26.804111 22 43 41
5.519771 1.071800 26.795006 23 20 22
5.569537 1.071065 26.776621 25 34 28
5.620086 1.070493 26.762316 120 120 120
5.666198 1.069094 26.727348 120 120 120
5.711528 1.067575 26.689383 120 120 120
5.756257 1.065973 26.649336 17 35 29
5.800434 1.064300 26.607496 42 43 15
5.848547 1.063372 26.584305 27 21 33
5.896631 1.062456 26.561399 26 20 35
5.946229 1.061827 26.545664 36 31 30
5.999368 1.061835 26.545877 30 28 40
6.055601 1.062386 26.559652 44 37 35
6.114058 1.063314 26.582861 31 24 37
6.176577 1.064927 26.623177 29 42 18
6.238887 1.066476 26.661911 30 15 35
6.300500 1.067881 26.697035 43 15 31
6.360553 1.069000 26.725012 20 23 21
6.415740 1.069290 26.732250 36 30 17
6.471549 1.069678 26.741940 39 31 29
6.526592 1.069933 26.748329 39 18 30
6.581323 1.070134 26.753347 30 36 25
6.636971 1.070479 26.761980 22 30 29
6.692029 1.070725 26.768116 42 19 42
6.748455 1.071183 26.779583 27 17 34
6.804730 1.071611 26.790274 19 39 17
6.861071 1.072042 26.801058 35 41 39
6.917671 1.072507 26.812677 37 35 21
6.972973 1.072765 26.819126 37 20 19
7.028842 1.073106 26.827641 43 38 22
7.084417 1.073396 26.834911 42 35 41
7.139158 1.073558 26.838942 43 43 44
7.193077 1.073594 26.839840 18 20 44
7.245917 1.073469 26.836731 33 42 19
7.298118 1.073253 26.831318 40 16 41
7.349920 1.072981 26.824524 30 21 40
7.402464 1.072821 26.820520 27 26 18
7.456516 1.072880 26.822001 38 33 27
7.511749 1.073107 26.827677 16 26 33
7.568880 1.073600 26.839998 43 16 17
7.626065 1.074094 26.852343 35 15 21
7.683662 1.074638 26.865952 29 23 19
7.741335 1.075185 26.879635 31 37 18
7.797229 1.075480 26.886995 44 16 34
7.854751 1.075993 26.899834 42 26 16
7.911712 1.076423 26.910585 17 32 34
7.968957 1.076886 26.922152 25 29 43
8.027395 1.077503 26.937569 28 26 39
8.084482 1.077931 26.948275 31 31 35
8.142607 1.078491 26.962276 22 27 33
8.199402 1.078869 26.971718 21 38 41
8.255782 1.079187 26.979679 37 17 20
8.313745 1.079707 26.992680 43 26 28
8.370736 1.080095 27.002373 34 37 15
8.424139 1.080018 27.000444 23 34 41
8.474695 1.079579 26.989475 41 37 25
8.522051 1.078741 26.968515 28 31 33
8.567528 1.077676 26.941912 30 16 16
8.614556 1.076820 26.920488 21 41 29
8.657911 1.075517 26.887922 23 38 23
8.704604 1.074642 26.866062 34 37 15
8.749483 1.073556 26.838905 31 42 34
5.251380 1.125296 26.792755 37 23 15
5.298006 1.123820 26.757608 42 43 37
5.347055 1.122881 26.735273 30 39 19
5.395679 1.121874 26.711281 39 15 19
5.447009 1.121443 26.701025 42 19 17
5.498721 1.121098 26.692820 33 43 25
5.548543 1.120379 26.675690 31 21 23
5.599079 1.119816 26.662283 120 120 120
5.645390 1.118426 26.629200 120 120 120
5.690882 1.116902 26.592909 120 120 120
5.735891 1.115312 26.555052 16 44 35
5.780585 1.113691 26.516447 23 24 24
5.829079 1.112824 26.495815 18 24 17
5.877718 1.112001 26.476208 41 33 23
5.927654 1.111435 26.462742 18 25 41
5.981025 1.111518 26.464714 39 41 22
6.037629 1.112195 26.480827 35 22 32
6.096251 1.113228 26.505440 28 32 44
6.158484 1.114898 26.545189 38 18 36
6.220069 1.116423 26.581493 32 19 35
6.280724 1.117756 26.613239 33 34 25
6.339993 1.118822 26.638624 29 43 34
6.394737 1.119079 26.644737 15 29 44
6.449658 1.119362 26.651478 40 20 19
6.503735 1.119495 26.654652 19 42 32
6.557427 1.119561 26.656208 19 41 40
6.611937 1.119764 26.661037 15 18 31
6.666239 1.119928 26.664957 17 24 25
6.721685 1.120281 26.673351 42 25 41
6.777170 1.120634 26.681772 24 21 43
6.832805 1.121007 26.690645 29 17 23
6.888542 1.121391 26.699776 22 32 26
6.943213 1.121596 26.704666 29 32 24
6.998585 1.121911 26.712158 28 40 34
7.053948 1.122219 26.719500 31 27 30
7.108622 1.122414 26.724144 16 37 29
7.162374 1.122462 26.725277 40 33 15
7.214999 1.122333 26.722218 44 15 21
7.267055 1.122119 26.717115 35 29 30
7.318752 1.121853 26.710775 37 28 16
7.371195 1.121704 26.707228 38 34 40
7.425158 1.121786 26.709200 40 33 29
7.480253 1.122038 26.715191 21 39 30
7.537156 1.122555 26.727505 25 32 34
7.594143 1.123077 26.739939 41 17 23
7.651302 1.123618 26.752806 21 42 23
7.708170 1.124108 26.764479 41 29 29
7.763187 1.124324 26.769611 36 32 29
7.819468 1.124718 26.779001 37 17 16
7.875345 1.125049 26.786886 32 27 32
7.931551 1.125423 26.795780 38 36 41
7.988892 1.125951 26.808363 26 30 42
8.045298 1.126342 26.817659 41 21 22
8.102724 1.126869 26.830214 33 41 34
8.158954 1.127224 26.838663 27 25 30
8.215076 1.127560 26.846655 31 27 26
8.273098 1.128150 26.860708 19 30 31
8.330358 1.128629 26.872122 21 16 28
8.384125 1.128632 26.872196 40 21 41
8.434912 1.128237 26.862778 20 24 16
8.482238 1.127386 26.842525 34 36 35
8.527295 1.126246 26.815392 39 28 44
8.573596 1.125285 26.792488 24 31 24
8.616187 1.123850 26.758345 43 18 32
8.662366 1.122899 26.735697 24 15 16
8.706823 1.121738 26.708046 44 36 30
8.745359 1.119833 26.662680 40 42 35
5.188215 1.176708 26.743374 32 31 37
5.236090 1.175449 26.714745 39 40 29
5.282948 1.173988 26.681557 42 35 35
5.332109 1.173064 26.660545 24 35 24
5.380879 1.172073 26.638014 36 30 22
5.432215 1.171654 26.628506 36 38 24
5.483868 1.171312 26.620716 34 37 39
5.533627 1.170575 26.603975 40 39 33
5.584008 1.169983 26.590513 120 120 120
5.630424 1.168579 26.558605 120 120 120
5.676164 1.167062 26.524132 120 120 120
5.721481 1.165487 26.488337 19 40 38
5.766480 1.163877 26.451744 18 39 18
5.815076 1.163015 26.432165 37 43 31
5.863873 1.162209 26.413841 30 21 25
5.913859 1.161651 26.401155 20 24 27
5.967243 1.161764 26.403728 44 25 36
6.024091 1.162544 26.421453 37 18 30
6.082947 1.163694 26.447594 15 43 42
6.144677 1.165370 26.485678 38 44 40
6.205087 1.166769 26.517467 19 27 22
6.264331 1.167926 26.543776 20 24 42
6.322496 1.168865 26.565111 43 20 20
6.376778 1.169076 26.569908 15 36 39
6.430813 1.169239 26.573608 26 23 21
6.483975 1.169241 26.573669 21 33 30
6.536715 1.169169 26.572014 18 20 39
6.590155 1.169221 26.573204 23 34 37
6.643747 1.169300 26.574989 43 37 34
6.698290 1.169543 26.580515 34 42 36
6.753055 1.169821 26.586830 41 41 15
6.808068 1.170137 26.594017 30 40 37
6.863078 1.170447 26.601078 29 35 20
6.917264 1.170614 26.604860 24 32 18
6.972240 1.170911 26.611603 42 17 38
7.027412 1.171235 26.618984 21 29 22
7.082016 1.171461 26.624121 43 17 27
7.135613 1.171519 26.625423 19 28 20
7.188070 1.171389 26.622482 29 39 17
7.239996 1.171176 26.617634 33 38 17
7.291576 1.170910 26.611591 18 40 20
7.343910 1.170768 26.608368 24 34 24
7.397731 1.170864 26.610542 44 21 18
7.452637 1.171129 26.616560 28 16 30
7.509434 1.171685 26.629200 38 42 38
7.566273 1.172239 26.641806 16 33 29
7.623408 1.172832 26.655273 25 16 30
7.680405 1.173395 26.668074 26 29 31
7.735539 1.173668 26.674273 15 44 21
7.792395 1.174197 26.686285 20 41 21
7.848978 1.174677 26.697203 37 26 23
7.905880 1.175198 26.709055 42 43 23
7.963803 1.175864 26.724171 25 40 42
8.020329 1.176315 26.734430 32 21 16
8.077672 1.176879 26.747257 23 37 18
8.133597 1.177231 26.755255 34 22 30
8.189155 1.177526 26.761944 39 31 35
8.246324 1.178046 26.773781 34 38 42
8.302746 1.178454 26.783052 16 43 16
8.356200 1.178438 26.782692 44 39 17
8.407495 1.178120 26.775461 24 30 33
8.455393 1.177333 26.757572 34 38 39
8.500327 1.176146 26.730589 41 21 28
8.546009 1.175076 26.706278 17 31 44
8.587961 1.173510 26.670687 33 40 42
8.633767 1.172487 26.647430 36 41 34
8.677882 1.171248 26.619270 24 36 18
8.715921 1.169209 26.572931 32 34 33
8.756616 1.167549 26.535200 39 23 39
5.075139 1.228718 26.711256 23 44 15
5.124092 1.227647 26.687979 39 39 33
5.172825 1.226546 26.664045 16 40 39
5.220961 1.225328 26.637558 24 35 27
5.268159 1.223916 26.606863 17 16 19
5.317488 1.223022 26.587439 43 24 40
5.366397 1.222051 26.566324 27 31 18
5.417691 1.221636 26.557310 44 39 29
5.469197 1.221277 26.549500 23 17 27
5.518784 1.220500 26.532614 37 21 22
5.568932 1.219861 26.518723 120 120 120
5.615518 1.218461 26.488291 120 120 120
5.661749 1.217011 26.456770 120 120 120
5.707631 1.215514 26.424219 27 18 17
5.752984 1.213932 26.389833 21 42 18
5.801577 1.213057 26.370804 42 16 29
5.850430 1.212251 26.353289 25 31 23
5.900500 1.211710 26.341516 43 15 35
5.953867 1.211849 26.344545 36 44 44
6.010715 1.212688 26.362787 35 41 19
6.069494 1.213899 26.389105 30 44 18
6.130391 1.215509 26.424101 30 41 40
6.189462 1.216732 26.450693 15 25 43
6.247214 1.217677 26.471245 37 25 38
6.304244 1.218467 26.488420 24 40 16
6.358087 1.218633 26.492027 22 34 41
6.411340 1.218684 26.493141 42 37 20
6.463691 1.218565 26.490538 38 26 19
6.515602 1.218365 26.486185 36 38 21
6.568102 1.218277 26.484282 20 28 15
6.621061 1.218275 26.484245 17 27 27
6.674793 1.218415 26.487272 16 38 24
6.728903 1.218620 26.491743 36 16 23
6.783359 1.218885 26.497498 23 32 43
6.837744 1.219133 26.502882 39 26 35
6.891525 1.219270 26.505867 40 29 26
6.946160 1.219555 26.512062 31 22 34
7.001153 1.219898 26.519518 19 38 31
7.055665 1.220153 26.525057 41 25 28
7.109137 1.220225 26.526632 28 35 35
7.161438 1.220097 26.523846 16 34 16
7.213254 1.219889 26.519316 34 15 33
7.264720 1.219625 26.513578 39 18 44
7.316937 1.219489 26.510641 18 22 33
7.370660 1.219606 26.513165 20 39 33
7.425419 1.219890 26.519352 20 39 41
7.482010 1.220470 26.531950 23 41 16
7.538439 1.221015 26.543798 18 31 31
7.595347 1.221629 26.557156 31 36 41
7.652548 1.222282 26.571346 23 25 23
7.708066 1.222659 26.579538 34 26 32
7.765934 1.223401 26.595663 16 37 41
7.823612 1.224102 26.610924 42 17 17
7.881553 1.224836 26.626869 27 37 44
7.940357 1.225693 26.645493 19 36 24
7.997093 1.226221 26.656977 21 28 43
8.054341 1.226820 26.670002 35 32 39
8.109952 1.227164 26.677475 24 25 23
8.164743 1.227380 26.682167 19 28 20
8.220622 1.227755 26.690332 25 40 39
8.275716 1.228009 26.695858 26 17 34
8.328418 1.227908 26.693647 16 17 41
8.379965 1.227638 26.687788 42 36 18
8.428540 1.226939 26.672594 21 25 44
8.473948 1.225791 26.647635 43 19 34
8.519822 1.224724 26.624443 42 21 33
8.561784 1.223112 26.589392 16 26 15
8.607331 1.222029 26.565838 20 18 25
8.650983 1.220691 26.536757 23 16 32
8.688555 1.218517 26.489498 27 31 21
8.728853 1.216749 26.451071 19 19 44
8.763374 1.214202 26.395704 16 30 20
5.002582 1.277255 26.609478 16 35 18
5.053944 1.276786 26.599705 33 37 20
5.102965 1.275741 26.577942 34 29 26
5.151860 1.274687 26.555979 39 38 37
5.200267 1.273535 26.531973 26 19 23
5.247815 1.272197 26.504114 30 38 34
5.297320 1.271357 26.486599 19 16 40
5.346375 1.270426 26.467205 23 30 35
5.397564 1.270015 26.458647 26 38 23
5.448882 1.269642 26.450884 21 43 41
5.498305 1.268840 26.434156 32 26 34
5.548246 1.268170 26.420218 120 120 120
5.595222 1.266843 26.392555 120 120 120
5.642221 1.265545 26.365519 120 120 120
5.688969 1.264215 26.337820 29 27 40
5.734953 1.262742 26.307123 25 30 35
5.783627 1.261882 26.289215 44 41 32
5.832762 1.261138 26.273705 17 29 39
5.883236 1.260693 26.264444 16 17 27
5.936727 1.260898 26.268702 36 33 25
5.993290 1.261745 26.286362 18 32 21
6.051427 1.262907 26.310553 32 30 20
6.111256 1.264398 26.341621 39 30 33
6.169246 1.265486 26.364300 38 18 16
6.225945 1.266294 26.381124 40 25 32
6.282094 1.266977 26.395353 37 41 31
6.335559 1.267112 26.398161 30 33 15
6.388138 1.267069 26.397266 38 28 35
6.439781 1.266842 26.392546 25 24 29
6.490943 1.266526 26.385948 21 19 35
6.542612 1.266312 26.381500 19 18 44
6.594982 1.266237 26.379929 35 18 16
6.647976 1.266281 26.380856 44 23 42
6.701459 1.266417 26.383696 17 42 38
6.755361 1.266630 26.388130 37 44 36
6.809125 1.266814 26.391958 37 31 23
6.862471 1.266918 26.394119 25 33 16
6.916739 1.267189 26.399769 42 19 23
6.971512 1.267548 26.407244 17 34 17
7.025903 1.267832 26.413170 38 29 21
7.079212 1.267919 26.414970 32 26 43
7.131340 1.267794 26.412371 28 34 31
7.183020 1.267592 26.408161 25 23 18
7.234351 1.267332 26.402742 43 39 44
7.286437 1.267206 26.400133 15 41 21
7.340119 1.267359 26.403305 41 21 19
7.394835 1.267686 26.410124 33 19 40
7.450916 1.268241 26.421688 20 38 40
7.506381 1.268684 26.430920 26 24 41
7.562322 1.269201 26.441687 37 30 18
7.619013 1.269836 26.454906 43 22 19
7.674497 1.270262 26.463781 34 32 20
7.732430 1.271084 26.480925 30 18 28
7.790180 1.271866 26.497211 18 41 42
7.848121 1.272668 26.513922 27 33 31
7.906712 1.273564 26.532591 35 24 39
7.963058 1.274089 26.543526 41 20 24
8.019637 1.274644 26.555088 27 21 36
8.074626 1.274941 26.561270 31 17 31
8.128574 1.275070 26.563969 35 42 39
8.183146 1.275296 26.568657 26 31 38
8.237029 1.275411 26.571062 43 42 37
8.288768 1.275195 26.566563 34 34 33
8.339719 1.274862 26.559616 30 29 31
8.388486 1.274200 26.545841 42 22 39
8.435157 1.273231 26.525650 26 22 26
8.482689 1.272403 26.508402 35 36 27
8.525662 1.270906 26.477211 39 23 24
8.570774 1.269744 26.453007 42 34 31
8.613417 1.268233 26.421524 16 40 33
8.650393 1.265911 26.373148 18 30 31
8.690316 1.264046 26.334290 41 42 24
8.724431 1.261363 26.278406 21 26 44
8.763129 1.259372 26.236912 41 30 26
4.937750 1.327352 26.547041 21 22 19
4.988341 1.326686 26.533730 17 28 25
5.039547 1.326196 26.523930 42 21 41
5.088576 1.325150 26.503000 37 22 17
5.137574 1.324117 26.482342 19 43 17
5.186156 1.322999 26.459980 16 35 18
5.233942 1.321702 26.434050 41 32 19
5.283566 1.320891 26.417828 32 30 19
5.332699 1.319975 26.399500 40 24 16
5.383773 1.319552 26.391043 39 36 43
5.434932 1.319158 26.383165 27 21 30
5.484252 1.318330 26.366594 27 21 23
5.534073 1.317636 26.352728 120 120 120
5.581429 1.316375 26.327497 120 120 120
5.629120 1.315215 26.304298 120 120 120
5.676629 1.314034 26.280689 31 19 27
5.723135 1.312646 26.252914 19 24 39
5.771873 1.311789 26.235786 39 42 33
5.821260 1.311095 26.221893 20 20 44
5.872167 1.310752 26.215033 36 30 22
5.925818 1.311022 26.220432 23 18 26
5.981939 1.311829 26.236576 37 22 38
6.039239 1.312878 26.257563 24 38 28
6.098222 1.314272 26.285440 34 25 30
6.155777 1.315337 26.306738 18 23 23
6.212212 1.316147 26.322931 33 33 28
6.268073 1.316822 26.336441 44 20 31
6.321402 1.316959 26.339176 17 42 19
6.373772 1.316895 26.337902 27 33 29
6.425164 1.316632 26.332640 31 24 41
6.476061 1.316273 26.325453 26 34 28
6.527444 1.316017 26.320337 43 22 42
6.579576 1.315915 26.318304 39 30 41
6.632272 1.315927 26.318539 19 17 41
6.685490 1.316041 26.320827 38 24 18
6.739140 1.316238 26.324764 21 20 30
6.792639 1.316403 26.328058 43 32 30
6.845782 1.316496 26.329929 17 16 35
6.899863 1.316768 26.335354 33 19 19
6.954500 1.317140 26.342802 33 19 29
7.008794 1.317443 26.348850 23 19 36
7.062010 1.317539 26.350784 30 40 21
7.114039 1.317415 26.348291 21 44 18
7.165653 1.317216 26.344313 25 36 16
7.216896 1.316952 26.339035 27 41 22
7.268902 1.316830 26.336603 35 19 41
7.322622 1.317018 26.340368 17 23 44
7.377397 1.317392 26.347845 22 29 42
7.432981 1.317904 26.358089 43 42 23
7.487451 1.318213 26.364264 25 35 43
7.542305 1.318585 26.371695 22 29 32
7.598281 1.319146 26.382919 17 16 40
7.653573 1.319582 26.391630 24 38 39
7.711091 1.320392 26.407845 24 27 21
7.768353 1.321148 26.422970 16 27 23
7.825724 1.321913 26.438257 44 19 16
7.883601 1.322752 26.455036 36 41 27
7.939372 1.323229 26.464573 41 30 36
7.995215 1.323711 26.474222 20 38 43
8.049679 1.323960 26.479208 32 27 31
8.103069 1.324031 26.480618 33 20 23
8.156783 1.324153 26.483063 29 40 38
8.209926 1.324182 26.483631 41 42 25
8.260831 1.323851 26.477022 39 43 36
8.310799 1.323376 26.467512 39 23 26
8.359366 1.322684 26.453690 28 16 15
8.407508 1.321935 26.438705 17 28 32
8.457246 1.321445 26.428894 43 16 16
8.501706 1.320141 26.402813 22 30 30
8.546500 1.318904 26.378086 20 15 20
8.588177 1.317205 26.344101 32 33 25
8.624751 1.314749 26.294971 36 33 22
8.664504 1.312804 26.256073 26 32 18
8.698481 1.310012 26.200245 38 32 30
8.737020 1.307937 26.158743 21 34 23
8.776206 1.305983 26.119661 34 27 33
8.811811 1.303522 26.070448 15 24 23
4.865032 1.374900 26.440392 29 28 36
4.917043 1.374657 26.435713 27 25 25
4.967656 1.374032 26.423700 32 22 15
5.018791 1.373564 26.414688 15 15 27
5.068021 1.372589 26.395941 35 44 39
5.117292 1.371645 26.377792 23 43 29
5.166169 1.370616 26.358007 23 24 25
5.214252 1.369399 26.334604 37 30 34
5.263937 1.368624 26.319683 33 33 42
5.312964 1.367694 26.301804 22 44 35
5.363675 1.367211 26.292524 20 30 40
5.414378 1.366736 26.283390 21 25 34
5.463271 1.365818 26.265724 34 31 38
5.512746 1.365061 26.251169 120 120 120
5.560263 1.363838 26.227655 120 120 120
5.608517 1.362817 26.208025 120 120 120
5.656742 1.361808 26.188622 28 43 17
5.703766 1.360531 26.164062 21 22 44
5.752590 1.359703 26.148134 18 21 38
5.802252 1.359086 26.136269 29 31 41
5.853621 1.358876 26.132238 28 42 16
5.907341 1.359211 26.138676 15 38 25
5.962710 1.359916 26.152239 20 32 25
6.018770 1.360765 26.168564 44 43 43
6.076541 1.361983 26.191986 37 42 36
6.133499 1.363000 26.211533 34 20 31
6.189595 1.363809 26.227098 24 17 22
6.245026 1.364459 26.239605 24 29 44
6.298098 1.364588 26.242077 42 22 43
6.350122 1.364489 26.240173 32 39 27
6.401159 1.364181 26.234257 43 43 19
6.451695 1.363773 26.226402 19 25 38
6.502679 1.363465 26.220478 31 16 35
6.554491 1.363334 26.217964 32 26 44
6.606830 1.363314 26.217581 30 42 43
6.659731 1.363409 26.219412 28 23 26
6.713104 1.363599 26.223064 39 44 30
6.766352 1.363761 26.226171 37 18 28
6.819296 1.363859 26.228062 44 31 41
6.873247 1.364156 26.233768 23 34 19
6.927771 1.364561 26.241556 28 26 20
6.981993 1.364901 26.248093 35 29 31
7.035176 1.365034 26.250658 36 34 16
7.087130 1.364929 26.248629 33 26 38
7.138736 1.364758 26.245352 33 21 17
7.189938 1.364514 26.240648 20 27 37
7.241904 1.364417 26.238781 33 22 40
7.295724 1.364668 26.243610 27 29 32
7.350559 1.365104 26.251995 44 18 25
7.405701 1.365590 26.261353 24 38 42
7.459271 1.365782 26.265038 21 28 36
7.513082 1.366015 26.269516 31 38 38
7.568288 1.366496 26.278778 34 37 31
7.623244 1.366927 26.287048 39 15 35
7.680215 1.367710 26.302107 20 33 24
7.736953 1.368441 26.316168 38 31 44
7.793693 1.369162 26.330044 18 20 38
7.850706 1.369922 26.344652 21 19 19
7.905730 1.370327 26.352434 26 25 33
7.960635 1.370705 26.359718 41 24 35
8.014373 1.370880 26.363070 23 25 22
8.067041 1.370870 26.362881 29 21 30
8.119789 1.370873 26.362951 35 23 25
8.172155 1.370813 26.361792 40 33 16
8.222212 1.370369 26.353243 26 25 35
8.271306 1.369770 26.341738 29 32 18
8.319567 1.369043 26.327744 29 25 29
8.368359 1.368411 26.315596 35 32 32
8.419239 1.368126 26.310122 33 39 26
8.465033 1.367024 26.288923 42 22 24
8.510573 1.365894 26.267200 36 18 38
8.552662 1.364228 26.235161 27 32 42
8.589633 1.361771 26.187904 41 26 39
8.629337 1.359774 26.149506 22 43 24
8.662874 1.356836 26.092995 21 26 20
8.700624 1.354588 26.049772 15 43 35
8.738900 1.352449 26.008631 41 22 39
8.773791 1.349814 25.957960 15 23 30
8.815156 1.348200 25.926929 31 38 40
4.798038 1.423594 26.362846 32 43 26
4.849341 1.423176 26.355116 20 18 29
4.901459 1.423004 26.351931 21 34 22
4.952209 1.422443 26.341539 18 16 29
5.003375 1.422012 26.333551 43 27 19
5.052836 1.421110 26.316856 20 21 23
5.102376 1.420249 26.300905 21 18 31
5.151488 1.419287 26.283100 20 44 35
5.199757 1.418116 26.261398 22 18 28
5.249416 1.417342 26.247082 31 29 40
5.298235 1.416360 26.228886 19 40 19
5.348564 1.415796 26.218452 42 21 39
5.398796 1.415218 26.207748 22 41 16
5.447217 1.414181 26.188541 31 16 44
5.496344 1.413346 26.173067 120 120 120
5.543810 1.412103 26.150049 120 120 120
5.592302 1.411142 26.132252 120 120 120
5.640896 1.410224 26.115257 23 42 24
5.688170 1.408996 26.092524 20 38 26
5.737014 1.408176 26.077337 20 28 25
5.786881 1.407620 26.067034 36 32 22
5.838659 1.407534 26.065443 17 29 39
5.892481 1.407938 26.072924 19 32 41
5.947209 1.408550 26.084251 40 30 19
6.002199 1.409212 26.096519 44 35 29
6.059001 1.410285 26.116385 37 29 39
6.115574 1.411286 26.134933 32 30 25
6.171504 1.412124 26.150442 21 18 43
6.226641 1.412767 26.162355 27 33 21
6.279500 1.412887 26.164583 25 15 40
6.331260 1.412760 26.162230 19 24 21
6.382036 1.412418 26.155884 19 15 38
6.432316 1.411972 26.147627 27 33 35
6.483017 1.411625 26.141199 43 33 21
6.534600 1.411474 26.138399 29 44 28
6.586711 1.411438 26.137743 28 30 15
6.639416 1.411529 26.139435 40 24 39
6.692642 1.411729 26.143133 30 22 15
6.745773 1.411906 26.146406 33 28 42
6.798638 1.412025 26.148607 17 23 23
6.852567 1.412361 26.154835 27 25 39
6.907051 1.412806 26.163071 27 44 15
6.961259 1.413188 26.170145 25 37 25
7.014453 1.413360 26.173332 28 22 23
7.066376 1.413275 26.171762 25 35 40
7.118029 1.413138 26.169224 30 39 33
7.169254 1.412919 26.165161 43 28 35
7.221240 1.412851 26.163914 37 15 44
7.275157 1.413160 26.169628 44 20 44
7.330028 1.413648 26.178671 40 20 15
7.385057 1.414160 26.188147 21 32 23
7.438333 1.414331 26.191315 28 27 41
7.491738 1.414524 26.194889 26 18 42
7.546558 1.414980 26.203325 39 26 42
7.601200 1.415396 26.211035 18 25 29
7.657771 1.416163 26.225243 19 18 33
7.714202 1.416894 26.238781 17 16 20
7.770574 1.417605 26.251938 37 22 25
7.827019 1.418319 26.265165 26 39 15
7.881515 1.418673 26.271715 44 39 30
7.935756 1.418976 26.277336 41 25 18
7.988968 1.419093 26.279501 41 32 42
8.041168 1.419030 26.278326 31 34 31
8.093380 1.418969 26.277208 41 27 30
8.145382 1.418873 26.275427 25 38 41
8.195069 1.418377 26.266247 20 15 26
8.243922 1.417745 26.254528 21 41 44
8.291965 1.416981 26.240395 44 44 43
8.340132 1.416249 26.226831 22 19 28
8.390313 1.415865 26.219727 29 22 36
8.436721 1.414854 26.200998 29 19 41
8.484139 1.414023 26.185616 20 17 35
8.528202 1.412647 26.160128 24 38 32
8.566163 1.410283 26.116350 35 40 38
8.605623 1.408193 26.077644 40 43 43
8.638229 1.405013 26.018761 28 33 25
8.674696 1.402496 25.972145 28 38 31
8.711521 1.400066 25.927145 35 32 19
8.745264 1.397172 25.873562 22 25 24
8.786120 1.395443 25.841530 37 17 21
8.823680 1.393213 25.800234 44 32 23
4.782755 1.471617 26.278873 32 29 22
4.834186 1.471274 26.272751 30 36 28
4.886502 1.471205 26.271519 21 30 39
4.937541 1.470757 26.263515 43 16 35
4.988864 1.470402 26.257179 25 26 28
5.038686 1.469617 26.243156 38 15 44
5.088579 1.468868 26.229790 36 26 40
5.137944 1.467984 26.214001 25 39 32
5.186382 1.466855 26.193848 37 31 42
5.235951 1.466066 26.179756 23 31 27
5.284430 1.464990 26.160543 30 19 43
5.334273 1.464310 26.148399 37 23 22
5.383891 1.463582 26.135393 30 25 36
5.431682 1.462376 26.113855 30 27 18
5.480348 1.461426 26.096897 120 120 120
5.527460 1.460084 26.072924 120 120 120
5.575792 1.459086 26.055103 120 120 120
5.624395 1.458176 26.038864 25 27 16
5.671737 1.456960 26.017141 25 34 35
5.720660 1.456168 26.002998 41 36 42
5.770591 1.455645 25.993654 36 23 44
5.822411 1.455603 25.992905 36 44 37
5.876013 1.456003 26.000057 31 44 42
5.930061 1.456506 26.009041 38 43 19
5.984186 1.457019 26.018202 20 37 30
6.040178 1.457974 26.035252 23 35 40
6.096396 1.458967 26.052975 35 38 33
6.152128 1.459827 26.068340 31 41 43
6.206955 1.460460 26.079641 36 31 25
6.259560 1.460564 26.081499 24 39 39
6.311048 1.460408 26.078712 37 19 20
6.361589 1.460037 26.072086 28 41 36
6.411657 1.459564 26.063644 20 15 27
6.462132 1.459191 26.056982 23 39 29
6.513522 1.459029 26.054087 23 27 29
6.565489 1.458997 26.053526 35 16 23
6.618057 1.459099 26.055344 40 44 31
6.671208 1.459327 26.059408 41 27 27
6.724335 1.459546 26.063313 15 16 32
6.777182 1.459701 26.066084 27 41 36
6.831190 1.460102 26.073244 22 38 18
6.885691 1.460601 26.082163 17 30 36
6.939933 1.461039 26.089975 18 31 38
6.993240 1.461274 26.094177 25 34 41
7.045183 1.461223 26.093269 25 38 23
7.096960 1.461139 26.091766 36 43 26
7.148260 1.460958 26.088541 28 34 19
7.200307 1.460932 26.088070 35 31 22
7.254338 1.461305 26.094740 33 31 37
7.309218 1.461844 26.104351 36 44 42
7.364243 1.462403 26.114338 33 38 21
7.417455 1.462597 26.117800 40 20 23
7.470687 1.462792 26.121284 38 38 18
7.525250 1.463243 26.129339 41 39 40
7.579581 1.463643 26.136486 21 16 17
7.635824 1.464405 26.150084 33 31 42
7.692058 1.465154 26.163464 34 40 16
7.748185 1.465873 26.176302 23 44 22
7.804216 1.466564 26.188644 19 32 31
7.858282 1.466879 26.194275 23 15 28
7.911982 1.467122 26.198616 16 25 22
7.964734 1.467188 26.199783 29 36 21
8.016525 1.467076 26.197794 32 24 29
8.068365 1.466975 26.195990 19 34 36
8.120151 1.466866 26.194035 15 18 19
8.169613 1.466341 26.184656 39 30 17
8.218413 1.465704 26.173288 15 22 32
8.266185 1.464894 26.158813 28 41 28
8.313253 1.463969 26.142305 19 34 33
8.362070 1.463362 26.131468 20 24 29
8.408483 1.462345 26.113302 29 25 35
8.457479 1.461786 26.103329 43 17 37
8.503567 1.460735 26.084560 29 41 37
8.542918 1.458547 26.045483 31 17 27
8.582765 1.456469 26.008379 19 21 38
8.615057 1.453142 25.948967 34 40 24
8.650543 1.450390 25.899828 16 35 41
8.685981 1.447664 25.851135 38 32 22
8.718511 1.444487 25.794413 24 18 28
8.758632 1.442598 25.760681 34 30 42
8.795257 1.440159 25.717125 39 26 15
4.713931 1.518933 26.188505 36 35 17
4.763378 1.518000 26.172409 22 38 27
4.814959 1.517759 26.168255 25 27 15
4.867536 1.517834 26.169546 24 28 35
4.918996 1.517563 26.164871 26 40 26
4.970584 1.517336 26.160971 34 15 19
5.020953 1.516746 26.150799 23 37 17
5.071350 1.516177 26.140978 44 35 25
5.121087 1.515424 26.127993 31 30 16
5.169794 1.514384 26.110073 37 42 34
5.219285 1.513593 26.096426 26 23 38
5.267358 1.512410 26.076031 17 42 43
5.316593 1.511580 26.061731 42 19 34
5.365417 1.510651 26.045712 28 27 35
5.412375 1.509220 26.021032 33 35 34
5.460419 1.508116 26.001997 120 120 120
5.506897 1.506604 25.975931 120 120 120
5.554743 1.505491 25.956745 120 120 120
5.603102 1.504537 25.940287 40 43 29
5.650512 1.503347 25.919781 41 44 34
5.699714 1.502652 25.907791 34 21 22
5.749536 1.502131 25.898811 30 29 25
5.800799 1.501993 25.896423 19 18 32
5.853586 1.502248 25.900824 29 16 32
5.906817 1.502611 25.907091 32 31 28
5.960315 1.503036 25.914413 17 33 24
6.015542 1.503885 25.929060 21 41 37
6.071145 1.504814 25.945063 34 44 39
6.126344 1.505627 25.959084 15 44 34
6.180585 1.506193 25.968845 27 33 29
6.232804 1.506261 25.970018 41 24 21
6.283861 1.506049 25.966368 29 40 42
6.334022 1.505628 25.959108 32 19 24
6.383767 1.505116 25.950274 36 28 19
6.433897 1.504702 25.943134 34 29 43
6.485006 1.504521 25.940025 43 26 42
6.536740 1.504488 25.939445 24 24 26
6.589104 1.504598 25.941353 32 30 25
6.642128 1.504857 25.945812 35 26 34
6.695214 1.505126 25.950443 25 28 20
6.748015 1.505326 25.953905 37 21 35
6.802108 1.505810 25.962244 22 15 33
6.856637 1.506382 25.972111 36 15 30
6.910945 1.506898 25.980995 32 21 29
6.964404 1.507222 25.986584 42 41 20
7.016393 1.507225 25.986639 33 24 25
7.068335 1.507219 25.986526 15 18 35
7.119712 1.507092 25.984352 21 16 30
7.171816 1.507121 25.984842 15 43 43
7.225989 1.507581 25.992767 27 30 19
7.280910 1.508189 26.003250 17 32 37
7.335859 1.508794 26.013683 35 22 38
7.388803 1.508981 26.016912 30 17 20
7.441669 1.509150 26.019823 43 34 29
7.495902 1.509591 26.027437 15 15 19
7.549951 1.509990 26.034313 16 42 43
7.605962 1.510773 26.047815 41 15 38
7.662092 1.511569 26.061537 37 16 35
7.718081 1.512327 26.074598 42 19 35
7.773797 1.513021 26.086567 36 33 38
7.827472 1.513311 26.091572 30 18 15
7.880639 1.513500 26.094831 17 32 22
7.932874 1.513509 26.094980 15 44 26
7.984158 1.513337 26.092018 37 19 28
8.035483 1.513175 26.089231 28 43 23
8.086911 1.513035 26.086809 44 15 21
8.136018 1.512465 26.076981 24 16 44
8.184614 1.511808 26.065649 19 42 39
8.232129 1.510960 26.051043 42 23 29
8.278578 1.509929 26.033264 18 40 37
8.326679 1.509211 26.020872 43 37 19
8.372763 1.508138 26.002371 18 34 30
8.421657 1.507581 25.992767 20 17 27
8.468291 1.506628 25.976353 21 24 38
8.509199 1.504675 25.942678 19 26 15
8.550729 1.502855 25.911301 15 31 29
8.584144 1.499640 25.855856 30 41 33
8.619561 1.496810 25.807070 25 20 43
8.654071 1.493858 25.756165 23 18 38
8.685373 1.490390 25.696371 15 28 17
8.724200 1.488246 25.659410 38 26 26
8.759438 1.485519 25.612391 30 37 39
8.799731 1.483676 25.580614 43 28 35
4.652307 1.568193 26.136557 20 20 30
4.701444 1.567148 26.119133 35 43 41
4.751067 1.566286 26.104765 15 43 16
4.802776 1.566123 26.102043 16 30 30
4.855565 1.566311 26.105190 43 27 18
4.907402 1.566192 26.103203 18 26 43
4.959253 1.566080 26.101330 43 25 35
5.010082 1.565651 26.094177 38 21 41
5.060879 1.565220 26.087004 26 17 26
5.110891 1.564558 26.075974 36 42 33
5.159801 1.563576 26.059603 20 23 22
5.209236 1.562771 26.046181 43 29 39
5.257009 1.561488 26.024799 32 23 41
5.305812 1.560533 26.008881 21 24 38
5.354048 1.559431 25.990522 17 35 18
5.400374 1.557800 25.963335 21 23 19
5.447953 1.556558 25.942635 120 120 120
5.493789 1.554846 25.914097 120 120 120
5.540990 1.553549 25.892479 120 120 120
5.588906 1.552474 25.874567 42 19 22
5.636267 1.551266 25.854437 41 39 15
5.685778 1.550667 25.844444 43 17 21
5.735373 1.550101 25.835012 25 32 17
5.785783 1.549763 25.829388 26 21 39
5.837605 1.549807 25.830109 40 40 36
5.890301 1.550079 25.834652 26 20 35
5.943744 1.550542 25.842363 43 26 41
5.998682 1.551383 25.856386 33 21 16
6.053806 1.552258 25.870968 31 16 36
6.108492 1.553007 25.883442 18 43 43
6.162252 1.553509 25.891815 24 18 44
6.214165 1.553541 25.892355 35 38 39
6.264881 1.553276 25.887938 28 43 27
6.314769 1.552812 25.880199 38 37 17
6.364294 1.552267 25.871115 37 40 28
6.414190 1.551820 25.863668 18 18 31
6.465114 1.551627 25.860455 16 43 43
6.516707 1.551597 25.859949 18 32 34
6.568939 1.551718 25.861965 25 19 20
6.621896 1.552007 25.866783 29 41 29
6.674980 1.552321 25.872017 41 34 37
6.727772 1.552563 25.876047 34 29 27
6.781956 1.553120 25.885328 19 42 17
6.836528 1.553756 25.895939 37 37 21
6.890904 1.554339 25.905653 37 27 40
6.944507 1.554740 25.912340 29 26 32
6.996562 1.554791 25.913191 37 26 17
7.048647 1.554849 25.914143 34 37 27
7.100084 1.554763 25.912716 16 22 26
7.152228 1.554832 25.913870 30 44 28
7.206515 1.555363 25.922714 38 18 40
7.261463 1.556028 25.933798 16 37 18
7.316376 1.556676 25.944597 36 43 16
7.369149 1.556862 25.947706 44 20 44
7.421794 1.557020 25.950329 27 25 25
7.475876 1.557474 25.957903 26 19 32
7.529799 1.557889 25.964823 17 20 38
7.585796 1.558725 25.978752 35 22 26
7.641991 1.559590 25.993166 33 35 42
7.698035 1.560413 26.006876 41 27 31
7.753741 1.561156 26.019264 26 23 35
7.807282 1.561456 26.024275 28 31 37
7.860245 1.561638 26.027300 28 25 38
7.912220 1.561622 26.027039 26 16 30
7.963208 1.561413 26.023556 24 26 18
8.014260 1.561219 26.020325 39 17 37
8.065476 1.561060 26.017666 16 23 44
8.114390 1.560460 26.007662 25 21 18
8.162869 1.559784 25.996399 29 39 36
8.210253 1.558909 25.981813 39 34 21
8.256518 1.557834 25.963892 28 37 17
8.304421 1.557079 25.951317 25 34 24
8.349858 1.555874 25.931236 19 34 34
8.397436 1.555081 25.918013 39 29 35
8.443351 1.553991 25.899851 27 37 19
8.485341 1.552197 25.869942 27 22 17
8.528893 1.550708 25.845131 40 26 29
8.564143 1.547737 25.795612 18 17 35
8.600266 1.544958 25.749300 30 19 35
8.634620 1.541896 25.698275 18 24 37
8.665235 1.538207 25.636789 41 28 15
8.702881 1.535803 25.596710 42 42 37
8.736935 1.532796 25.546595 28 29 34
8.776750 1.530828 25.513807 39 22 35
8.818889 1.529287 25.488119 15 36 24
4.634220 1.614166 26.034943 23 32 31
4.683412 1.613175 26.018955 20 31 26
4.733251 1.612426 26.006876 34 25 43
4.785065 1.612359 26.005791 30 15 23
4.838036 1.612679 26.010946 33 34 40
4.890251 1.612742 26.011972 25 44 43
4.942368 1.612773 26.012463 35 17 35
4.993681 1.612543 26.008757 19 29 37
5.044907 1.612290 26.004675 31 32 37
5.095185 1.611742 25.995842 17 37 37
5.144214 1.610815 25.980881 41 16 22
5.193451 1.609970 25.967255 23 24 29
5.240701 1.608532 25.944063 28 18 20
5.288851 1.607396 25.925739 20 38 25
5.336283 1.606066 25.904285 44 29 33
5.381750 1.604176 25.873800 22 25 17
5.428720 1.602765 25.851046 120 120 120
5.473757 1.600816 25.819607 120 120 120
5.520210 1.599313 25.795376 120 120 120
5.567581 1.598102 25.775839 22 27 39
5.614729 1.596850 25.755638 27 28 44
5.664383 1.596326 25.747196 24 27 30
5.713710 1.595721 25.737432 21 41 44
5.763385 1.595223 25.729397 39 29 16
5.814370 1.595093 25.727299 30 44 34
5.866544 1.595288 25.730455 31 35 19
5.919808 1.595774 25.738295 33 23 38
5.974340 1.596591 25.751467 36 43 24
6.028882 1.597396 25.764454 24 27 32
6.082963 1.598067 25.775269 17 35 27
6.136196 1.598505 25.782337 30 35 40
6.187796 1.598514 25.782482 40 39 23
6.238187 1.598213 25.777632 37 26 39
6.287786 1.597716 25.769613 33 23 42
6.337084 1.597151 25.760504 29 44 30
6.386771 1.596693 25.753111 30 24 18
6.437521 1.596505 25.750082 22 16 44
6.489014 1.596504 25.750057 44 21 26
6.541134 1.596655 25.752497 28 31 40
6.594042 1.596994 25.757975 37 44 24
6.647157 1.597379 25.764174 41 43 15
6.699942 1.597679 25.769009 31 43 31
6.754268 1.598338 25.779648 34 41 34
6.808937 1.599069 25.791430 20 28 24
6.863451 1.599752 25.802446 42 36 18
6.917321 1.600276 25.810900 40 34 40
6.969516 1.600407 25.813021 24 35 26
7.021866 1.600572 25.815685 39 32 18
7.073519 1.600577 25.815763 44 18 30
7.125730 1.600708 25.817863 39 17 35
7.179920 1.601277 25.827049 35 24 26
7.234535 1.601933 25.837624 37 19 39
7.289137 1.602576 25.848005 29 19 31
7.341700 1.602766 25.851057 15 23 24
7.394137 1.602925 25.853624 25 41 40
7.447951 1.603378 25.860941 32 34 29
7.501596 1.603790 25.867573 37 29 34
7.557391 1.604652 25.881477 38 40 38
7.613526 1.605574 25.896347 16 35 25
7.669484 1.606446 25.910418 19 40 21
7.724959 1.607206 25.922680 22 29 29
7.778188 1.607492 25.927292 21 21 39
7.830607 1.607608 25.929163 39 39 42
7.882024 1.607518 25.927711 27 42 21
7.932361 1.607210 25.922749 36 30 18
7.982668 1.606901 25.917753 18 42 38
8.033307 1.606661 25.913893 17 40 34
8.081505 1.605940 25.902260 30 19 21
8.129448 1.605178 25.889961 17 43 30
8.176267 1.604204 25.874262 16 28 24
8.221768 1.602986 25.854616 21 15 17
8.269022 1.602123 25.840694 28 34 40
8.313439 1.600724 25.818134 22 29 39
8.359600 1.599676 25.801233 21 16 41
8.404757 1.598451 25.781464 30 25 22
8.447461 1.596776 25.754454 24 38 29
8.492601 1.595580 25.735155 26 42 44
8.529750 1.592905 25.692019 40 26 17
8.566960 1.590274 25.649582 34 31 37
8.602083 1.587289 25.601439 37 41 23
8.633626 1.583683 25.543272 15 32 17
8.671628 1.581297 25.504789 15 24 24
8.705722 1.578230 25.455328 27 16 20
8.745284 1.576185 25.422338 40 15 43
8.786643 1.574485 25.394922 20 15 19
4.575860 1.663949 25.999205 26 22 44
4.620858 1.661432 25.959879 30 44 33
4.670138 1.660493 25.945210 28 30 33
4.720162 1.659837 25.934956 27 32 34
4.772053 1.659844 25.935070 24 31 26
4.825127 1.660259 25.941545 23 39 25
4.877574 1.660451 25.944540 19 29 27
4.929838 1.660577 25.946514 16 38 33
4.981424 1.660475 25.944916 38 25 18
5.032886 1.660334 25.942713 43 18 34
5.083271 1.659844 25.935057 17 35 24
5.132269 1.658915 25.920549 20 43 25
5.181269 1.658006 25.906343 25 22 24
5.228035 1.656407 25.881363 29 21 31
5.275634 1.655101 25.860952 40 41 34
5.322439 1.653573 25.837084 42 24 15
5.367254 1.651463 25.804106 24 26 32
5.413780 1.649914 25.779905 120 120 120
5.458285 1.647784 25.746628 120 120 120
5.504288 1.646142 25.720974 120 120 120
5.551318 1.644835 25.700546 44 20 40
5.598215 1.643513 25.679886 43 16 24
5.647780 1.642991 25.671728 18 24 42
5.696963 1.642368 25.661997 17 42 36
5.746426 1.641836 25.653687 40 43 25
5.797189 1.641682 25.651278 21 26 43
5.849151 1.641867 25.654173 30 35 30
5.902239 1.642362 25.661909 29 42 37
5.956503 1.643173 25.674582 15 18 42
6.010704 1.643953 25.686768 27 25 33
6.064462 1.644600 25.696871 30 35 40
6.117464 1.645032 25.703630 30 35 40
6.168936 1.645050 25.703899 30 35 40
6.219236 1.644757 25.699322 26 28 36
6.268723 1.644255 25.691486 29 40 34
6.317944 1.643693 25.682697 33 22 42
6.367605 1.643253 25.675827 35 41 36
6.418315 1.643089 25.673260 29 20 44
6.469838 1.643134 25.673962 25 37 44
6.521937 1.643323 25.676916 41 16 25
6.574850 1.643713 25.683008 15 20 31
6.628021 1.644160 25.690004 37 21 31
6.680811 1.644507 25.695425 24 18 35
6.735271 1.645257 25.707140 36 37 26
6.790028 1.646067 25.719803 21 33 21
6.844667 1.646837 25.731831 39 17 23
6.898779 1.647470 25.741713 29 41 28
6.951116 1.647672 25.744873 39 40 36
7.003733 1.647937 25.749020 22 22 18
7.055642 1.648033 25.750517 30 44 19
7.107935 1.648217 25.753389 17 21 22
7.161912 1.648785 25.762272 44 30 44
7.216050 1.649383 25.771606 26 26 23
7.270284 1.649994 25.781149 34 39 26
7.322760 1.650199 25.784365 18 42 21
7.375156 1.650385 25.787258 38 39 18
7.428745 1.650832 25.794254 19 32 35
7.482104 1.651223 25.800358 27 41 25
7.537612 1.652079 25.813740 25 44 39
7.593589 1.653026 25.828533 37 41 34
7.649353 1.653914 25.842407 18 41 41
7.704485 1.654654 25.853975 33 26 19
7.757356 1.654903 25.857853 20 27 27
7.809150 1.654919 25.858112 18 36 15
7.859968 1.654730 25.855158 25 40 32
7.909582 1.654292 25.848307 17 39 17
7.958973 1.653812 25.840820 17 42 44
8.008878 1.653446 25.835091 18 32 38
8.056071 1.652527 25.820740 17 42 36
8.103243 1.651616 25.806507 30 23 35
8.149270 1.650485 25.788828 23 17 25
8.193673 1.649041 25.766266 38 39 44
8.240073 1.648015 25.750227 38 27 25
8.283529 1.646416 25.725245 22 33 30
8.328893 1.645214 25.706461 33 38 17
8.373643 1.643905 25.686022 41 41 44
8.416247 1.642194 25.659288 26 39 43
8.461611 1.641040 25.641245 19 19 42
8.499787 1.638513 25.601768 28 18 30
8.538013 1.636026 25.562912 23 31 28
8.574634 1.633264 25.519745 43 28 31
8.608641 1.630039 25.469353 40 15 20
8.648710 1.627993 25.437384 19 17 38
8.684127 1.625100 25.392183 29 19 25
8.723466 1.622970 25.358912 40 38 34
8.763712 1.621033 25.328648 42 19 35
8.800477 1.618479 25.288727 34 15 24
4.518338 1.713852 25.967459 26 30 29
4.563102 1.711163 25.926714 24 28 38
4.608133 1.708634 25.888390 25 23 27
4.657471 1.707739 25.874840 28 16 40
4.707578 1.707144 25.865812 17 27 30
4.759417 1.707182 25.866398 42 44 20
4.812437 1.707639 25.873316 39 37 27
4.864939 1.707904 25.877333 27 23 22
4.917240 1.708094 25.880211 42 23 41
4.968948 1.708076 25.879940 19 26 16
5.020544 1.708020 25.879093 29 19 41
5.070955 1.707566 25.872219 24 29 15
5.119841 1.706614 25.857784 19 26 38
5.168574 1.705629 25.842869 25 39 26
5.214896 1.703877 25.816315 21 23 39
5.262030 1.702422 25.794266 30 33 39
5.308338 1.700730 25.768629 27 29 37
5.352650 1.698437 25.733894 28 18 29
5.398834 1.696776 25.708733 120 120 120
5.442931 1.694497 25.674204 120 120 120
5.488593 1.692743 25.647629 120 120 120
5.535331 1.691351 25.626534 33 20 18
5.581904 1.689934 25.605062 43 33 41
5.631232 1.689370 25.596510 25 37 35
5.680286 1.688734 25.586872 42 35 23
5.729749 1.688230 25.579235 43 44 22
5.780531 1.688120 25.577570 30 16 34
5.832393 1.688324 25.580669 44 16 37
5.885277 1.688819 25.588161 38 25 24
5.939266 1.689619 25.600286 21 37 35
5.993149 1.690375 25.611750 30 35 40
6.046611 1.691001 25.621231 30 35 40
6.099415 1.691435 25.627796 30 35 40
6.150790 1.691467 25.628292 30 35 40
6.201018 1.691187 25.624043 30 35 40
6.250401 1.690682 25.616396 18 30 43
6.299544 1.690122 25.607903 43 16 36
6.349195 1.689705 25.601591 40 41 25
6.399879 1.689568 25.599514 43 39 29
6.451437 1.689662 25.600939 43 16 30
6.503534 1.689895 25.604465 37 17 17
6.556455 1.690336 25.611153 19 35 39
6.609684 1.690849 25.618931 38 19 39
6.662467 1.691242 25.624872 21 39 15
6.717053 1.692082 25.637608 26 36 17
6.771906 1.692976 25.651157 31 26 42
6.826691 1.693841 25.664253 38 34 38
6.881056 1.694588 25.675583 20 25 32
6.933542 1.694866 25.679785 26 41 41
6.986417 1.695234 25.685356 39 27 19
7.038607 1.695431 25.688347 28 30 38
7.090945 1.695661 25.691830 27 24 26
7.144541 1.696186 25.699787 44 29 40
7.198009 1.696674 25.707174 33 15 17
7.251695 1.697205 25.715231 42 16 22
7.304044 1.697419 25.718464 18 28 26
7.356409 1.697633 25.721708 27 40 44
7.409745 1.698067 25.728281 20 23 21
7.462797 1.698430 25.733784 21 17 25
7.517980 1.699269 25.746506 36 42 38
7.573773 1.700235 25.761131 31 25 35
7.629310 1.701130 25.774696 23 27 36
7.684085 1.701844 25.785521 15 33 43
7.736601 1.702052 25.788670 31 18 30
7.787793 1.701968 25.787394 39 35 42
7.838049 1.701682 25.783054 25 41 24
7.886999 1.701117 25.774506 39 31 38
7.935559 1.700477 25.764801 26 28 29
7.984817 1.699993 25.757473 43 25 41
8.031111 1.698889 25.740740 35 31 32
8.077576 1.697835 25.724766 15 25 43
8.122868 1.696548 25.705278 30 26 30
8.166285 1.694889 25.680141 20 44 25
8.211921 1.693709 25.662254 23 25 22
8.254603 1.691937 25.635414 22 41 38
8.299497 1.690638 25.615732 29 21 39
8.343983 1.689273 25.595039 15 25 41
8.386160 1.687459 25.567560 16 28 18
8.431178 1.686236 25.549025 38 27 39
8.469863 1.683768 25.511635 17 33 29
8.508868 1.681393 25.475653 37 42 37
8.547019 1.678879 25.437557 27 28 15
8.583620 1.676091 25.395325 23 15 37
8.626016 1.674462 25.370636 40 23 35
8.663393 1.671883 25.331558 41 20 18
8.703255 1.669811 25.300159 28 24 40
8.743097 1.667758 25.269066 22 23 37
8.779445 1.665067 25.228291 22 15 37
8.820456 1.663286 25.201303 39 44 17
4.501955 1.759385 25.873302 39 29 21
4.546535 1.756616 25.832582 21 22 19
4.591523 1.754065 25.795073 44 16 26
4.640871 1.753218 25.782618 34 28 18
4.690946 1.752661 25.774429 27 41 38
4.742586 1.752695 25.774921 36 19 29
4.795404 1.753159 25.781744 15 43 41
4.847861 1.753482 25.786495 39 30 34
4.900156 1.753740 25.790297 19 21 21
4.951982 1.753827 25.791573 43 30 36
5.003724 1.753883 25.792393 41 42 43
5.054195 1.753496 25.786707 27 22 18
5.102984 1.752540 25.772646 36 24 30
5.151430 1.751486 25.757149 41 36 25
5.197311 1.749590 25.729263 37 31 32
5.244000 1.748000 25.705881 27 26 38
5.289809 1.746151 25.678684 32 20 19
5.333619 1.743683 25.642397 28 34 16
5.379438 1.741913 25.616373 120 120 120
5.423086 1.739480 25.580593 120 120 120
5.468335 1.737602 25.552967 120 120 120
5.514708 1.736112 25.531057 23 34 19
5.560919 1.734599 25.508802 18 24 23
5.609982 1.733995 25.499920 38 20 40
5.658829 1.733335 25.490223 19 18 27
5.708191 1.732844 25.482996 23 23 32
5.758843 1.732749 25.481606 32 36 30
5.810440 1.732938 25.484386 34 36 22
5.862991 1.733406 25.491264 44 37 39
5.916483 1.734142 25.502081 18 21 43
5.969833 1.734823 25.512106 20 24 41
6.022787 1.735379 25.520283 30 35 40
6.075163 1.735761 25.525894 30 35 40
6.126291 1.735782 25.526213 30 35 40
6.176256 1.735477 25.521721 39 15 33
6.225355 1.734935 25.513752 39 28 44
6.274272 1.734352 25.505173 17 42 38
6.323744 1.733930 25.498966 41 42 21
6.374301 1.733810 25.497204 31 25 42
6.425798 1.733945 25.499197 21 42 40
6.477815 1.734218 25.503210 37 42 27
6.530700 1.734717 25.510548 24 39 28
6.583952 1.735305 25.519196 29 38 34
6.636695 1.735751 25.525751 30 38 15
6.691433 1.736708 25.539820 20 27 38
6.746413 1.737713 25.554596 29 35 30
6.801393 1.738702 25.569147 40 41 31
6.856042 1.739593 25.582247 44 26 37
6.908670 1.739961 25.587666 22 31 36
6.961842 1.740460 25.595007 43 19 41
7.014388 1.740797 25.599957 24 21 24
7.066802 1.741096 25.604355 20 35 24
7.119925 1.741564 25.611240 34 19 27
7.172541 1.741903 25.616219 18 28 22
7.225462 1.742310 25.622206 23 36 38
7.277502 1.742500 25.625006 33 41 43
7.329673 1.742719 25.628227 43 24 24
7.382620 1.743119 25.634096 36 17 34
7.435298 1.743449 25.638960 32 33 29
7.490131 1.744277 25.651134 18 40 22
7.545714 1.745267 25.665695 29 34 31
7.601048 1.746187 25.679216 16 42 35
7.655463 1.746884 25.689472 42 21 16
7.707602 1.747056 25.692007 18 33 40
7.758261 1.746893 25.689606 25 27 35
7.808010 1.746528 25.684242 43 28 15
7.856446 1.745877 25.674660 16 28 15
7.904467 1.745142 25.663853 39 32 31
7.953345 1.744605 25.655951 38 44 34
7.999159 1.743406 25.638329 32 25 30
8.045226 1.742278 25.621738 31 40 21
8.090110 1.740910 25.601614 27 36 18
8.132969 1.739125 25.575375 26 17 25
8.178112 1.737849 25.556599 39 36 24
8.220335 1.735971 25.528992 19 44 42
8.264888 1.734606 25.508913 31 19 32
8.309188 1.733205 25.488306 25 36 32
8.351226 1.731352 25.461056 35 29 25
8.396165 1.730119 25.442924 32 21 20
8.435159 1.727683 25.407104 43 16 32
8.474442 1.725335 25.372580 21 22 34
8.513243 1.722918 25.337032 43 33 37
8.551042 1.720328 25.298941 15 28 43
8.594488 1.718898 25.277906 24 16 32
8.633635 1.716629 25.244547 44 17 32
8.675333 1.714891 25.218992 41 29 22
8.716322 1.713034 25.191681 23 40 28
8.752613 1.710281 25.151188 43 39 15
8.792351 1.708228 25.121002 38 30 23
4.491452 1.806906 25.812944 29 28 30
4.535905 1.804053 25.772188 35 39 42
4.580818 1.801445 25.734932 21 25 25
4.630130 1.800606 25.722946 40 32 31
4.680077 1.800029 25.714706 16 38 41
4.731457 1.800011 25.714439 33 15 35
4.784010 1.800434 25.720482 32 32 42
4.836296 1.800748 25.724977 33 25 33
4.888515 1.801032 25.729029 22 32 42
4.940344 1.801167 25.730959 15 16 25
4.992124 1.801282 25.732599 27 38 23
5.042616 1.800934 25.727633 20 40 42
5.091329 1.799965 25.713781 16 32 23
5.139604 1.798861 25.698019 21 17 18
5.185283 1.796880 25.669716 40 42 33
5.231786 1.795221 25.646009 15 23 32
5.277401 1.793292 25.618452 41 22 26
5.321016 1.790726 25.581806 27 35 32
5.366678 1.788893 25.555609 120 120 120
5.410116 1.786359 25.519415 120 120 120
5.455166 1.784400 25.491428 120 120 120
5.501321 1.782836 25.469080 33 21 41
5.547286 1.781238 25.446264 39 30 40
5.596138 1.780589 25.436991 41 39 29
5.644833 1.779902 25.427177 32 21 39
5.694155 1.779423 25.420334 16 44 20
5.744745 1.779346 25.419224 32 18 36
5.796144 1.779518 25.421684 18 32 17
5.848424 1.779955 25.427931 16 36 37
5.901513 1.780629 25.437557 19 43 27
5.954462 1.781249 25.446419 17 36 25
6.007022 1.781744 25.453484 20 37 27
6.059039 1.782070 25.458147 30 35 40
6.109955 1.782070 25.458147 31 36 37
6.159658 1.781719 25.453133 37 18 19
6.208508 1.781129 25.444706 36 31 21
