ply
format ascii 1.0
element vertex 1288
property float x
property float y
property float z
property uchar red
property uchar green
property uchar blue
end_header
6.114924 2.685995 28.574411 120 120 120
6.157571 2.679684 28.507273 40 39 20
6.198686 2.672828 28.434340 44 33 37
6.247492 2.669383 28.397692 28 41 30
6.295454 2.665642 28.357899 21 22 33
6.347156 2.663539 28.335518 20 40 39
6.401423 2.662539 28.324883 29 23 22
6.454734 2.661162 28.310236 16 24 22
6.510214 2.660696 28.305277 18 32 19
6.565679 2.660232 28.300341 17 26 28
6.622324 2.660250 28.300531 24 36 16
6.678479 2.660072 28.298641 40 42 44
6.732618 2.659101 28.288311 33 44 25
6.786387 2.658002 28.276613 33 42 27
6.836850 2.655636 28.251446 30 19 28
6.886942 2.653166 28.225170 33 38 24
6.936837 2.650661 28.198524 44 29 30
6.987149 2.648355 28.173988 41 40 44
7.040807 2.647344 28.163229 37 28 30
7.092207 2.645506 28.143677 38 37 43
7.144194 2.643914 28.126747 28 25 33
7.195781 2.642201 28.108521 26 31 40
7.245933 2.639991 28.085011 40 30 35
7.298004 2.638509 28.069246 39 20 23
7.347001 2.635947 28.041988 41 42 32
7.397617 2.634000 28.021278 41 26 30
7.446759 2.631561 27.995333 31 27 18
7.492190 2.627858 27.955935 16 28 35
7.539743 2.624948 27.924974 17 15 27
7.581824 2.620189 27.874353 36 37 19
7.626100 2.616253 27.832483 25 25 20
7.670014 2.612251 27.789907 19 30 30
7.711196 2.607383 27.738113 37 18 30
7.757572 2.604328 27.705616 30 32 15
7.800292 2.600097 27.660608 40 22 21
7.845841 2.596863 27.626200 15 16 37
7.893151 2.594252 27.598429 25 44 26
7.939552 2.591382 27.567890 32 28 37
7.990538 2.590036 27.553579 44 15 30
8.041173 2.588597 27.538263 35 32 16
8.094574 2.588061 27.532566 28 32 40
8.148098 2.587572 27.527359 25 18 17
8.198543 2.586118 27.511890 23 15 32
8.249233 2.584760 27.497442 32 33 33
8.296936 2.582490 27.473299 18 28 34
8.345901 2.580641 27.453623 15 28 23
8.394265 2.578630 27.432238 16 37 40
8.440876 2.576111 27.405441 26 18 31
8.490203 2.574449 27.387751 41 29 18
8.535650 2.571638 27.357851 18 41 40
8.583109 2.569466 27.334743 30 22 42
8.629139 2.566896 27.307402 15 43 36
8.670851 2.563082 27.266827 33 26 34
8.715412 2.560152 27.235662 18 15 23
8.755480 2.555948 27.190933 19 27 31
8.799672 2.552991 27.159483 32 33 24
8.843432 2.549947 27.127092 34 25 23
8.882698 2.545651 27.081396 39 20 15
8.926233 2.542624 27.049191 33 21 16
8.963644 2.537899 26.998928 32 27 33
9.003085 2.533802 26.955345 19 23 32
9.044363 2.530268 26.917746 19 32 41
9.087084 2.527177 26.884865 32 41 40
9.137409 2.526225 26.874733 36 28 39
9.181017 2.523437 26.845079 33 41 38
9.224964 2.520775 26.816755 22 30 32
9.264808 2.517029 26.776903 24 15 26
9.297334 2.511349 26.716478 29 17 17
5.037166 2.913060 30.344376 41 34 26
5.077256 2.901289 30.221764 31 26 27
5.124498 2.893834 30.144106 41 44 21
5.165064 2.882827 30.029444 16 22 34
5.209634 2.874281 29.940426 26 44 35
5.255154 2.866448 29.858829 36 25 35
5.297411 2.857031 29.760738 19 35 36
5.346627 2.851535 29.703485 30 32 16
5.391725 2.843987 29.624863 21 23 36
5.441139 2.838855 29.571405 17 27 24
5.490770 2.833946 29.520269 33 32 38
5.535684 2.826732 29.445129 31 17 27
5.584520 2.821652 29.392210 41 36 30
5.628608 2.814304 29.315668 20 35 24
5.677039 2.809257 29.263090 33 33 43
5.724483 2.803828 29.206545 23 28 25
5.766262 2.795763 29.122536 43 37 27
5.812056 2.789787 29.060280 30 44 19
5.850220 2.780302 28.961483 31 15 41
5.891906 2.772662 28.881891 16 20 33
5.933211 2.764992 28.801996 17 26 43
5.970545 2.755636 28.704542 20 15 16
6.015185 2.749799 28.643740 120 120 120
6.053109 2.741031 28.552402 120 120 120
6.094166 2.733831 28.477409 120 120 120
6.137088 2.727595 28.412445 43 36 31
6.178597 2.720850 28.342190 26 42 28
6.227657 2.717523 28.307531 19 36 25
6.276104 2.713991 28.270737 30 21 30
6.328167 2.712071 28.250744 28 19 16
6.382779 2.711269 28.242384 30 29 17
6.436502 2.710106 28.230270 23 21 39
6.492139 2.709762 28.226690 39 16 44
6.547957 2.709499 28.223951 34 30 34
6.604869 2.709690 28.225935 34 20 37
6.661287 2.709676 28.225792 19 41 18
6.715795 2.708892 28.217625 43 16 25
6.769753 2.707901 28.207306 32 23 24
6.820544 2.705670 28.184065 26 15 40
6.870911 2.703309 28.159470 22 27 16
6.920948 2.700858 28.133934 22 25 16
6.971338 2.698582 28.110233 28 40 40
7.024872 2.697551 28.099487 26 43 26
7.075726 2.695515 28.078279 42 41 42
7.126842 2.693610 28.058434 38 20 20
7.177575 2.691591 28.037401 22 37 17
7.227251 2.689210 28.012602 43 28 29
7.279300 2.687742 27.997309 40 26 32
7.328302 2.685179 27.970619 25 27 22
7.378839 2.683214 27.950148 34 18 31
7.427958 2.680767 27.924656 25 26 25
7.473469 2.677064 27.886080 33 19 42
7.521079 2.674161 27.855846 21 33 38
7.563184 2.669359 27.805824 21 15 15
7.607398 2.665366 27.764227 19 22 32
7.651102 2.661253 27.721384 30 38 44
7.691954 2.656214 27.668900 21 39 34
7.737947 2.653011 27.635527 18 22 28
7.780032 2.648522 27.588766 41 33 24
7.825013 2.645075 27.552864 18 23 30
7.871616 2.642221 27.523134 37 35 21
7.917079 2.639026 27.489859 37 26 39
7.967298 2.637450 27.473442 39 38 34
8.016935 2.635705 27.455256 40 35 42
8.069567 2.634961 27.447508 21 29 29
8.122397 2.634291 27.440531 26 16 34
8.172012 2.632594 27.422859 39 33 41
8.222130 2.631082 27.407101 44 15 19
8.269293 2.628649 27.381765 35 35 30
8.317811 2.626677 27.361221 33 34 44
8.366064 2.624648 27.340078 42 35 29
8.412900 2.622203 27.314610 34 19 21
8.462630 2.620685 27.298805 42 39 31
8.509028 2.618162 27.272526 18 18 41
8.557385 2.616270 27.252817 33 18 39
8.604405 2.613996 27.229130 31 26 30
8.647237 2.610487 27.192568 37 16 32
8.692401 2.607720 27.163754 24 43 17
8.733323 2.603724 27.122120 43 38 19
8.778170 2.600939 27.093117 16 25 29
8.822319 2.597984 27.062328 34 36 33
8.861875 2.593720 27.017912 31 18 42
8.905302 2.590633 26.985764 33 30 35
8.942389 2.585751 26.934908 22 42 37
8.981285 2.581447 26.890076 21 16 22
9.022086 2.577739 26.851446 31 26 19
9.064959 2.574663 26.819405 27 27 41
9.115793 2.573871 26.811155 37 33 25
9.158859 2.570908 26.780291 43 32 30
9.200952 2.567708 26.746954 26 27 39
9.239117 2.563454 26.702650 42 38 23
5.015682 2.961065 30.214952 33 31 28
5.056577 2.949670 30.098675 41 31 43
5.104103 2.942365 30.024137 23 44 15
5.144840 2.931362 29.911861 22 28 18
5.189291 2.922704 29.823513 40 21 19
5.234399 2.914608 29.740902 27 31 24
5.276088 2.904812 29.640942 44 35 32
5.324645 2.898973 29.581362 24 23 17
5.369349 2.891188 29.501917 16 36 35
5.418777 2.886088 29.449873 34 34 42
5.468551 2.881280 29.400812 19 22 15
5.513476 2.874046 29.326998 44 23 33
5.562164 2.868906 29.274549 40 30 37
5.605883 2.861336 29.197306 37 42 24
5.653763 2.856025 29.143110 35 43 24
5.700559 2.850279 29.084484 15 27 26
5.741721 2.841862 28.998590 17 19 16
5.787068 2.835663 28.935341 28 22 19
5.824708 2.825849 28.835190 37 30 27
5.865892 2.817928 28.754372 39 19 16
5.906818 2.810040 28.673874 27 18 37
5.943872 2.800478 28.576305 41 42 44
5.988365 2.794570 28.516022 120 120 120
6.026406 2.785791 28.426443 120 120 120
6.067617 2.778628 28.353350 120 120 120
6.110828 2.772505 28.290871 17 34 30
6.152747 2.765914 28.223612 41 26 27
6.202028 2.762722 28.191036 26 16 28
6.250949 2.759428 28.157427 28 31 37
6.303365 2.757722 28.140022 18 41 22
6.358291 2.757135 28.134031 39 29 44
6.412400 2.756207 28.124561 19 42 44
6.468153 2.755996 28.122404 43 29 41
6.524274 2.755943 28.121872 21 37 25
6.581397 2.756312 28.125629 16 15 33
6.638021 2.756466 28.127209 40 26 32
6.692860 2.755884 28.121262 15 34 19
6.746965 2.755011 28.112352 16 28 19
6.798042 2.752926 28.091084 22 21 38
6.848732 2.750720 28.068575 41 37 26
6.898817 2.748309 28.043972 31 38 17
6.948809 2.745900 28.019390 31 26 43
7.001611 2.744631 28.006443 37 37 18
7.051596 2.742287 27.982523 15 28 43
7.102024 2.740151 27.960724 36 39 20
7.152226 2.737961 27.938381 31 24 22
7.201483 2.735447 27.912724 16 41 21
7.253379 2.733966 27.897610 36 40 35
7.302307 2.731397 27.871401 30 26 42
7.352765 2.729436 27.851383 28 39 38
7.401872 2.727006 27.826588 40 34 40
7.447462 2.723326 27.789036 17 17 38
7.495113 2.720448 27.759678 21 27 30
7.537205 2.715611 27.710314 18 25 31
7.581319 2.711567 27.669048 25 21 25
7.624743 2.707336 27.625879 19 16 19
7.665140 2.702100 27.572447 35 35 17
7.710625 2.698719 27.537947 27 41 30
7.751907 2.693925 27.489033 24 42 29
7.796198 2.690237 27.451401 18 31 44
7.841956 2.687104 27.419426 19 38 34
7.886269 2.683522 27.382877 32 31 39
7.935526 2.681660 27.363882 29 19 27
7.983894 2.679526 27.342104 19 44 42
8.035504 2.678501 27.331646 44 36 34
8.087415 2.677590 27.322350 25 43 20
8.136006 2.675599 27.302034 25 43 33
8.185464 2.673918 27.284882 27 18 44
8.231985 2.671306 27.258228 23 32 19
8.279906 2.669180 27.236532 30 19 43
8.327978 2.667130 27.215614 17 21 20
8.375096 2.664803 27.191872 43 38 37
8.425347 2.663497 27.178537 37 34 26
8.473001 2.661391 27.157053 21 27 18
8.522524 2.659896 27.141796 17 39 42
8.570848 2.658048 27.122938 24 28 39
8.615192 2.654996 27.091799 28 18 19
8.661213 2.652496 27.066290 30 25 20
8.703397 2.648860 27.029184 28 42 44
8.749237 2.646374 27.003817 32 15 24
8.794073 2.643617 26.975685 15 19 33
8.834211 2.639490 26.933571 42 25 19
8.877627 2.636386 26.901901 19 38 15
8.914664 2.631437 26.851397 38 26 18
8.953756 2.627150 26.807652 38 36 41
8.994106 2.623281 26.768171 20 37 17
9.035226 2.619681 26.731438 22 39 29
9.083868 2.618291 26.717258 38 43 43
9.124948 2.614751 26.681135 29 18 21
9.166049 2.611258 26.645491 28 22 36
9.204148 2.606955 26.601583 44 31 19
5.040264 3.000157 30.001572 39 30 24
5.087795 2.992821 29.928205 38 44 39
5.128779 2.981848 29.818483 19 29 35
5.173462 2.973254 29.732540 17 39 42
5.218869 2.965266 29.652664 35 31 41
5.260977 2.955605 29.556053 31 24 29
5.309781 2.949878 29.498781 20 25 39
5.354721 2.942154 29.421543 18 31 36
5.404164 2.937045 29.370455 38 42 32
5.453837 2.932171 29.321707 23 33 26
5.498764 2.924874 29.248743 24 44 36
5.547392 2.919680 29.196798 30 39 22
5.590921 2.911938 29.119379 44 24 18
5.638484 2.906435 29.064352 31 39 43
5.684892 2.900455 29.004551 25 17 36
5.725688 2.891761 28.917614 15 30 37
5.770760 2.885380 28.853800 27 40 36
5.808122 2.875308 28.753078 26 23 33
5.849057 2.867185 28.671846 33 41 18
5.889791 2.859122 28.591221 42 29 27
5.926693 2.849372 28.493715 34 30 17
5.971074 2.843369 28.433687 120 120 120
6.009166 2.834512 28.345123 120 120 120
6.050469 2.827322 28.273220 120 120 120
6.093837 2.821221 28.212208 29 21 31
6.135986 2.814672 28.146725 29 17 20
6.185372 2.811533 28.115328 41 16 43
6.234530 2.808347 28.083469 19 24 20
6.287101 2.806741 28.067413 24 24 27
6.342157 2.806264 28.062643 40 23 20
6.396450 2.805460 28.054604 22 41 44
6.452238 2.805321 28.053207 26 38 40
6.508501 2.805388 28.053885 21 36 23
6.565723 2.805864 28.058643 40 27 17
6.622437 2.806117 28.061174 32 27 27
6.677440 2.805647 28.056469 19 35 30
6.731613 2.804839 28.048386 23 22 32
6.782842 2.802827 28.028275 40 32 28
6.833761 2.800722 28.007215 22 16 39
6.883810 2.798297 27.982969 39 34 17
6.933192 2.795642 27.956419 39 26 24
6.985085 2.794034 27.940342 34 36 36
7.034376 2.791419 27.914190 43 23 38
7.084686 2.789246 27.892464 31 18 27
7.134967 2.787097 27.870966 19 22 37
7.184111 2.784539 27.845392 21 20 18
7.235819 2.783007 27.830074 31 21 44
7.284648 2.780400 27.804001 18 16 17
7.335064 2.778433 27.784332 36 16 30
7.384185 2.776010 27.760096 25 40 27
7.429832 2.772325 27.723253 23 23 15
7.477507 2.769447 27.694469 36 44 22
7.519596 2.764557 27.645575 34 26 42
7.563641 2.760453 27.604530 22 19 20
7.606880 2.756116 27.561159 41 15 16
7.646993 2.750717 27.507168 31 35 31
7.692145 2.747194 27.471945 38 32 31
7.732941 2.742178 27.421776 22 17 27
7.776831 2.738321 27.383209 29 25 30
7.822086 2.734995 27.349953 15 19 44
7.865665 2.731134 27.311337 33 19 32
7.914270 2.729059 27.290586 41 27 16
7.961776 2.726636 27.266357 41 19 38
8.012676 2.725400 27.254000 18 20 41
8.063960 2.724311 27.243109 27 28 37
8.111904 2.722115 27.221153 38 39 17
8.160976 2.720325 27.203255 22 39 34
8.207090 2.717579 27.175795 19 37 20
8.254576 2.715321 27.153210 23 31 19
8.302488 2.713231 27.132315 41 37 15
8.349790 2.710971 27.109709 29 37 28
8.400415 2.709811 27.098112 23 27 31
8.448933 2.707991 27.079912 33 31 26
8.499246 2.706766 27.067661 36 37 33
8.548471 2.705212 27.052122 16 30 36
8.593872 2.702475 27.024754 18 40 36
8.640507 2.700158 27.001583 38 41 22
8.683622 2.696777 26.967772 30 15 16
8.730197 2.694505 26.945053 43 31 28
8.775590 2.691899 26.918987 34 42 30
8.816211 2.687869 26.878691 30 43 21
8.859679 2.684751 26.847511 22 15 41
8.896868 2.679779 26.797794 15 27 31
8.936667 2.675649 26.756487 16 25 22
8.976762 2.671655 26.716555 18 39 30
9.015272 2.667240 26.672401 42 32 25
9.060417 2.664828 26.648285 27 22 31
9.099207 2.660587 26.605869 31 44 20
9.140547 2.657136 26.571358 28 41 16
5.064843 3.038906 29.793194 16 21 43
5.106171 3.028078 29.687042 36 36 36
5.151214 3.019677 29.604677 31 17 20
5.197034 3.011918 29.528605 28 42 17
5.239648 3.002495 29.436224 43 33 33
5.288670 2.996913 29.381498 44 16 15
5.333790 2.989267 29.306538 43 22 32
5.383136 2.984130 29.256174 26 16 27
5.432567 2.979149 29.207348 42 17 16
5.477374 2.971767 29.134966 25 19 20
5.525860 2.966514 29.083471 44 21 38
5.569009 2.958536 29.005255 36 16 32
5.616009 2.952747 28.948500 36 41 26
5.661761 2.946427 28.886536 43 21 27
5.701918 2.937351 28.797564 26 23 39
5.746524 2.930727 28.732622 21 35 43
5.783454 2.920358 28.630960 18 37 33
5.824084 2.912042 28.549429 26 18 44
5.864632 2.903847 28.469088 21 25 23
5.901336 2.893924 28.371807 40 24 26
5.945541 2.887834 28.312101 120 120 120
5.983707 2.878954 28.225035 120 120 120
6.025157 2.871804 28.154938 120 120 120
6.068788 2.865817 28.096243 43 34 41
6.111294 2.859413 28.033459 35 21 24
6.160861 2.856399 28.003914 22 28 34
6.210310 2.853386 27.974371 37 20 18
6.263004 2.851904 27.959841 29 32 43
6.318126 2.851544 27.956310 20 28 38
6.372568 2.850885 27.949858 33 44 40
6.428362 2.850839 27.949398 18 43 44
6.484732 2.851046 27.951431 29 43 22
6.541999 2.851641 27.957260 17 19 30
6.598736 2.851996 27.960745 17 23 26
6.653806 2.851631 27.957169 42 27 21
6.707932 2.850871 27.949717 24 30 28
6.759187 2.848913 27.930523 18 37 16
6.810262 2.846913 27.910912 22 31 32
6.860190 2.844469 27.886950 20 19 40
6.908857 2.841546 27.858294 40 36 42
6.959729 2.839570 27.838917 36 44 26
7.008149 2.836632 27.810116 37 32 39
7.058143 2.834373 27.787966 18 15 20
7.108302 2.832214 27.766804 28 34 25
7.157115 2.829557 27.740757 36 30 30
7.208497 2.827949 27.724987 33 20 33
7.257116 2.825290 27.698917 39 31 23
7.307429 2.823325 27.679657 21 34 16
7.356562 2.820937 27.656248 44 33 42
7.402319 2.817301 27.620594 23 25 20
7.450062 2.814468 27.592821 19 20 18
7.492238 2.809589 27.544992 37 41 23
7.536257 2.805468 27.504589 30 30 26
7.579360 2.801068 27.461449 20 35 20
7.619287 2.795566 27.407509 25 32 20
7.664172 2.791948 27.372044 39 28 30
7.704560 2.786756 27.321136 23 26 20
7.748109 2.782772 27.282074 15 36 20
7.792831 2.779261 27.247662 32 38 28
7.835548 2.775090 27.206764 40 33 33
7.883307 2.772749 27.183817 16 18 34
7.929680 2.769957 27.156437 36 23 21
7.979628 2.768442 27.141592 36 24 44
8.030047 2.767111 27.128536 24 27 36
8.077087 2.764640 27.104319 27 21 35
8.125615 2.762709 27.085382 42 27 15
8.171101 2.759776 27.056625 31 39 21
8.217933 2.757333 27.032675 29 38 28
8.265520 2.755173 27.011503 39 16 17
8.312931 2.752984 26.990036 17 29 28
8.363937 2.752005 26.980442 24 25 34
8.413367 2.750524 26.965919 36 42 24
8.464487 2.749610 26.956964 42 29 31
8.514618 2.748389 26.944994 17 21 16
8.561102 2.746014 26.921703 42 37 32
8.608333 2.743906 26.901041 15 39 29
8.652395 2.740821 26.870790 35 29 37
8.699701 2.738795 26.850929 32 22 40
8.745644 2.736367 26.827127 24 17 30
8.786938 2.732523 26.789444 15 41 23
8.830662 2.729477 26.759583 21 35 44
8.867504 2.724354 26.709349 16 35 16
8.906783 2.720036 26.667015 29 32 38
8.945400 2.715568 26.623213 33 32 28
8.980750 2.710167 26.570265 16 38 16
9.022565 2.706770 26.536957 35 41 18
9.059374 2.701919 26.489399 33 16 41
5.048493 3.088490 29.697016 23 30 19
5.090025 3.077690 29.593170 39 37 18
5.135333 3.069394 29.513407 22 42 31
5.181435 3.061757 29.439972 21 32 30
5.224322 3.052413 29.350126 34 37 44
5.273394 3.046850 29.296633 40 44 30
5.318537 3.039164 29.222733 20 40 22
5.367775 3.033960 29.172688 44 30 22
5.417007 3.028864 29.123695 32 20 41
5.461694 3.021362 29.051561 43 18 20
5.510056 3.016031 29.000296 31 40 28
5.552863 3.007801 28.921164 38 21 25
5.599384 3.001732 28.862806 21 20 19
5.644575 2.995081 28.798851 31 37 29
5.684176 2.985628 28.707960 34 36 37
5.728382 2.978759 28.641912 25 37 23
5.764972 2.968104 28.539465 38 17 28
5.805400 2.959616 28.457844 19 39 24
5.845855 2.951305 28.377935 44 25 27
5.882445 2.941223 28.280987 29 24 44
5.926532 2.935045 28.221582 120 120 120
5.964799 2.926128 28.135845 120 120 120
6.006405 2.919001 28.067314 120 120 120
6.050287 2.913101 28.010588 41 35 36
6.093123 2.906811 27.950106 21 18 38
6.142867 2.903901 27.922123 29 32 28
6.192539 2.901009 27.894320 44 33 22
6.245291 2.899599 27.880764 29 42 44
6.300387 2.899293 27.877817 22 31 15
6.354854 2.898705 27.872168 25 30 44
6.410585 2.898699 27.872110 19 19 35
6.466915 2.898962 27.874636 43 19 36
6.524126 2.899612 27.880882 29 16 42
6.580771 2.900001 27.884624 24 39 18
6.635725 2.899645 27.881199 16 32 29
6.689677 2.898860 27.873655 20 22 34
6.740800 2.896873 27.854546 28 29 31
6.791847 2.894886 27.835440 24 42 18
6.841623 2.892393 27.811476 42 42 39
6.889818 2.889278 27.781523 25 27 36
6.940094 2.887079 27.760376 18 18 25
6.987908 2.883899 27.729794 23 36 29
7.037545 2.881514 27.706869 17 23 22
7.087431 2.879269 27.685278 26 41 26
7.135890 2.876483 27.658489 24 24 36
7.186990 2.874796 27.642271 15 32 32
7.235432 2.872080 27.616154 27 22 38
7.285649 2.870104 27.597155 36 35 25
7.334806 2.867744 27.574459 33 17 35
7.380690 2.864148 27.539886 41 28 31
7.428537 2.861363 27.513102 29 39 35
7.470873 2.856510 27.466446 41 34 44
7.514939 2.852386 27.426786 44 32 16
7.558025 2.847951 27.384148 30 26 22
7.597956 2.842401 27.330776 30 42 32
7.642758 2.838739 27.295563 33 34 30
7.682976 2.833438 27.244596 41 38 38
7.726348 2.829367 27.205450 29 36 23
7.770706 2.825711 27.170300 29 40 43
7.812802 2.821290 27.127785 33 20 42
7.859903 2.818724 27.103113 44 18 33
7.905386 2.815617 27.073238 37 18 23
7.954606 2.813874 27.056482 27 37 34
8.004333 2.812333 27.041664 42 28 15
8.050637 2.809618 27.015562 25 30 39
8.098686 2.807545 26.995621 21 34 18
8.143612 2.804423 26.965603 23 38 32
8.189907 2.801810 26.940483 28 39 30
8.237186 2.799567 26.918909 28 29 44
8.284569 2.797387 26.897951 16 28 32
8.335767 2.796515 26.889570 40 32 20
8.385673 2.795224 26.877157 21 37 16
8.437202 2.794487 26.870071 17 15 37
8.487786 2.793448 26.860081 30 37 25
8.534777 2.791248 26.838923 44 44 42
8.582232 2.789225 26.819475 34 36 19
8.626704 2.786265 26.791006 30 21 24
8.674289 2.784340 26.772497 27 29 34
8.720478 2.781993 26.749933 23 40 29
8.762310 2.778294 26.714361 42 43 20
8.806439 2.775363 26.686178 43 43 26
8.842757 2.770020 26.634809 21 26 15
8.880721 2.765254 26.588985 16 30 43
8.917580 2.760203 26.540417 20 27 44
8.951026 2.754162 26.482325 39 29 37
8.991463 2.750330 26.445478 17 23 37
9.028137 2.745398 26.398062 22 27 23
5.074491 3.127302 29.502853 19 43 37
5.120118 3.119152 29.425964 17 41 22
5.166540 3.111666 29.355343 25 16 17
5.209743 3.102431 29.268219 27 23 15
5.258885 3.096899 29.216030 22 15 35
5.303994 3.089139 29.142824 27 18 42
5.353011 3.083800 29.092451 34 25 44
5.401916 3.078511 29.042557 25 21 39
5.446358 3.070819 28.969992 30 36 26
5.494540 3.065375 28.918631 22 16 39
5.536950 3.056858 28.838284 38 26 43
5.582971 3.050489 28.778200 26 30 43
5.627605 3.043500 28.712269 17 35 33
5.666633 3.033652 28.619360 32 30 33
5.710430 3.026528 28.552149 37 34 40
5.746704 3.015597 28.449030 38 16 37
5.787003 3.006972 28.367662 38 23 29
5.827427 2.998579 28.288483 43 22 35
5.863901 2.988334 28.191832 18 38 42
5.907824 2.982044 28.132494 120 120 120
5.946119 2.973059 28.047729 120 120 120
5.987833 2.965936 27.980528 120 120 120
6.031904 2.960101 27.925482 26 17 38
6.074994 2.953896 27.866945 17 42 44
6.124870 2.951074 27.840319 43 31 26
6.174668 2.948265 27.813818 17 35 23
6.227364 2.946878 27.800732 43 30 38
6.282351 2.946589 27.798014 32 18 41
6.336798 2.946055 27.792974 40 18 19
6.392480 2.946099 27.793390 34 29 31
6.448796 2.946433 27.796534 43 27 19
6.505961 2.947145 27.803251 21 41 31
6.562513 2.947570 27.807261 26 39 32
6.617340 2.947219 27.803951 35 38 24
6.671102 2.946403 27.796259 16 17 24
6.722049 2.944369 27.777061 16 31 15
6.773005 2.942371 27.758219 21 21 18
6.822628 2.939831 27.734259 18 18 33
6.870501 2.936585 27.703632 35 24 31
6.920397 2.934248 27.681589 31 15 21
6.967769 2.930887 27.649878 20 25 27
7.017060 2.928379 27.626219 39 29 41
7.066621 2.926023 27.603989 35 19 26
7.114696 2.923092 27.576342 37 38 20
7.165478 2.921310 27.559530 18 40 31
7.213697 2.918519 27.533195 17 22 29
7.263789 2.916521 27.514353 31 39 38
7.312938 2.914178 27.492247 31 34 26
7.358904 2.910611 27.458595 37 28 31
7.406823 2.907864 27.432676 33 39 18
7.449309 2.903039 27.387165 30 19 43
7.493428 2.898917 27.348278 31 42 41
7.536554 2.894474 27.306356 44 30 35
7.576635 2.888933 27.254084 26 17 19
7.621496 2.885281 27.219627 34 31 19
7.661816 2.879974 27.169561 33 43 36
7.705268 2.875910 27.131224 44 38 22
7.749545 2.872209 27.096312 22 41 37
7.791341 2.867646 27.053267 31 32 26
7.838000 2.864924 27.027588 43 15 34
7.882886 2.861595 26.996183 16 32 37
7.931583 2.859686 26.978172 24 21 27
7.980800 2.857989 26.962162 36 30 34
8.026575 2.855090 26.934814 36 20 18
8.074283 2.852913 26.914278 24 37 26
8.118768 2.849634 26.883337 24 36 30
8.164594 2.846865 26.857218 33 27 37
8.211555 2.844525 26.835146 39 29 18
8.258836 2.842327 26.814404 22 24 41
8.310114 2.841523 26.806820 43 31 35
8.360244 2.840339 26.795652 30 18 37
8.411924 2.839694 26.789566 30 25 26
8.462674 2.838745 26.780615 29 28 17
8.509912 2.836637 26.760729 37 20 15
8.557467 2.834661 26.742085 37 29 27
8.602163 2.831768 26.714792 27 36 29
8.649899 2.829905 26.697220 27 24 16
8.696195 2.827597 26.675446 15 28 26
8.738431 2.824005 26.641558 40 18 40
8.782913 2.821178 26.614887 26 20 37
8.818266 2.815471 26.561043 33 30 28
8.854088 2.809980 26.509247 37 44 26
8.888582 2.804136 26.454113 40 23 26
8.920410 2.797525 26.391747 38 42 38
8.960385 2.793532 26.354073 23 37 43
5.100176 3.165627 29.311357 15 35 28
5.147022 3.158400 29.244444 25 21 24
5.190689 3.149407 29.161175 31 30 37
5.239971 3.143982 29.110949 21 35 19
5.285034 3.136174 29.038649 23 30 32
5.333715 3.130659 28.987583 29 25 30
5.382120 3.125102 28.936131 27 18 15
5.426181 3.117168 28.862667 22 43 43
5.474080 3.111583 28.810949 33 28 24
5.515958 3.102726 28.728949 41 36 39
5.561342 3.096005 28.666714 26 20 16
5.605285 3.088626 28.598392 40 32 16
5.643591 3.078323 28.502987 20 34 20
5.686861 3.070905 28.434303 20 39 24
5.722732 3.059678 28.330355 25 40 18
5.762868 3.050930 28.249355 18 32 34
5.803229 3.042470 28.171015 34 26 44
5.839495 3.032045 28.074493 38 25 33
5.883126 3.025608 28.014887 120 120 120
5.921344 3.016534 27.930870 120 120 120
5.963104 3.009417 27.864973 120 120 120
6.007330 3.003665 27.811712 27 43 35
6.050640 2.997565 27.755230 35 19 44
6.100609 2.994844 27.730040 25 19 19
6.150524 2.992147 27.705065 37 24 18
6.203139 2.990799 27.692583 22 27 41
6.258032 2.990564 27.690405 32 25 29
6.312579 2.990169 27.686749 33 22 36
6.368333 2.990347 27.688402 17 40 23
6.424845 2.990876 27.693298 29 30 32
6.482121 2.991748 27.701370 25 37 34
6.538739 2.992304 27.706522 31 33 20
6.593642 2.992073 27.704376 40 37 43
6.647315 2.991292 27.697147 37 31 36
6.698242 2.989298 27.678684 19 38 42
6.749203 2.987352 27.660667 34 39 38
6.798715 2.984802 27.637054 22 16 31
6.846284 2.981446 27.605986 32 36 31
6.895742 2.978961 27.582968 38 30 36
6.942608 2.975403 27.550032 35 35 30
6.991514 2.972770 27.525644 28 43 39
7.040698 2.970294 27.502726 30 21 34
7.088304 2.967197 27.474045 23 42 40
7.138683 2.965299 27.456474 32 23 26
7.186579 2.962407 27.429691 37 23 40
7.236479 2.960378 27.410904 34 36 19
7.285557 2.958046 27.389311 24 15 17
7.331511 2.954490 27.356384 25 16 40
7.379417 2.951767 27.331175 15 29 26
7.421962 2.946955 27.286625 22 18 16
7.466034 2.942816 27.248301 37 15 18
7.509154 2.938365 27.207081 29 18 35
7.549362 2.932846 27.155979 41 43 32
7.594289 2.929226 27.122459 17 15 34
7.634837 2.923980 27.073891 17 37 30
7.678529 2.920004 27.037075 39 23 29
7.722912 2.916344 27.003189 16 20 29
7.764612 2.911729 26.960457 28 34 37
7.810931 2.908898 26.934244 19 28 21
7.855381 2.905415 26.901991 41 24 29
7.903657 2.903384 26.883188 16 24 31
7.952469 2.901577 26.866449 39 30 21
7.997891 2.898564 26.838560 31 43 27
8.045375 2.896335 26.817917 37 20 34
8.089533 2.892946 26.786533 28 24 16
8.134907 2.890033 26.759563 16 29 30
8.181545 2.887604 26.737074 30 27 30
8.228810 2.885427 26.716915 34 41 40
8.280258 2.884735 26.710510 27 42 29
8.330739 2.883717 26.701086 31 22 40
8.382599 2.883187 26.696175 28 18 33
8.433604 2.882371 26.688620 36 30 17
8.481297 2.880440 26.670744 44 41 21
8.529150 2.878588 26.653595 31 38 19
8.574316 2.875857 26.628309 24 44 23
8.622377 2.874126 26.612276 35 41 44
8.668865 2.871894 26.591610 39 22 28
8.711578 2.868446 26.559689 26 19 17
8.756393 2.865729 26.534525 18 15 29
8.790263 2.859483 26.476696 42 34 34
8.823120 2.852985 26.416527 23 16 36
8.854378 2.846050 26.352314 23 25 15
8.884314 2.838775 26.284952 43 33 39
5.087240 3.216071 29.237011 34 39 31
5.134393 3.208996 29.172688 44 29 40
5.178432 3.200155 29.092314 40 22 19
5.227834 3.194787 29.043522 26 20 22
5.272854 3.186890 28.971727 20 17 16
5.321248 3.181181 28.919827 39 43 30
5.369226 3.175349 28.866808 19 34 37
5.412955 3.167154 28.792313 35 34 16
5.460623 3.161413 28.740122 30 31 42
5.502113 3.152252 28.656837 22 36 23
5.547076 3.145249 28.593174 18 26 34
5.590577 3.137569 28.523354 21 18 32
5.628406 3.126892 28.426294 21 38 15
5.671321 3.119227 28.356606 26 42 24
5.706934 3.107736 28.252148 31 15 40
5.746996 3.098871 28.171551 34 37 24
5.787332 3.090323 28.093845 22 43 28
5.823421 3.079694 27.997217 23 37 23
5.866804 3.073088 27.937160 120 120 120
5.904887 3.063857 27.853243 120 120 120
5.946610 3.056669 27.787899 120 120 120
5.990867 3.050905 27.735497 20 15 25
6.034238 3.044799 27.679991 31 34 41
6.084207 3.042104 27.655487 19 42 32
6.134146 3.039442 27.631289 43 38 23
6.186658 3.038091 27.619011 36 29 30
6.241483 3.037890 27.617182 21 44 35
6.296144 3.037613 27.614668 35 20 15
6.352030 3.037927 27.617521 33 40 22
6.408800 3.038655 27.624140 37 42 42
6.466250 3.039690 27.633547 41 33 23
6.523014 3.040388 27.639889 27 24 15
6.578085 3.040291 27.639013 31 44 37
6.631785 3.039568 27.632437 22 18 32
6.682786 3.037630 27.614819 29 44 26
6.733795 3.035727 27.597521 16 40 22
6.783282 3.033175 27.574318 33 34 27
6.830765 3.029775 27.543407 22 41 22
6.880045 3.027220 27.520182 33 26 36
6.926682 3.023551 27.486832 23 42 34
6.975366 3.020828 27.462070 22 28 38
7.024304 3.018256 27.438686 43 33 38
7.071591 3.015020 27.409269 38 30 24
7.121695 3.013025 27.391136 27 31 29
7.169346 3.010031 27.363914 41 28 18
7.219083 3.007951 27.345011 34 15 44
7.268073 3.005594 27.323582 41 41 15
7.313940 3.001990 27.290821 20 15 41
7.361767 2.999238 27.265804 32 18 37
7.404267 2.994373 27.221569 40 38 33
7.448260 2.990177 27.183430 24 34 20
7.491356 2.985685 27.142593 27 42 17
7.531669 2.980157 27.092335 17 28 18
7.576701 2.976561 27.059645 30 20 21
7.617562 2.971390 27.012632 22 16 31
7.661584 2.967515 26.977409 21 38 22
7.706267 2.963949 26.944988 29 17 29
7.748195 2.959380 26.903456 44 19 42
7.794497 2.956533 26.877575 34 21 28
7.838955 2.953031 26.845737 34 38 24
7.887185 2.950988 26.827160 25 31 17
7.935945 2.949169 26.810625 40 35 40
7.981396 2.946153 26.783207 39 20 32
8.028909 2.943933 26.763029 15 42 34
8.073032 2.940508 26.731895 35 25 26
8.118220 2.937514 26.704670 23 35 37
8.164694 2.935021 26.682007 34 37 17
8.211984 2.932851 26.662285 36 20 43
8.263539 2.932224 26.656578 32 34 38
8.314178 2.931281 26.648006 26 22 38
8.366065 2.930787 26.643518 31 22 19
8.417136 2.930016 26.636505 35 35 23
8.465091 2.928176 26.619781 19 44 22
8.513182 2.926406 26.603695 22 39 32
8.558671 2.923770 26.579723 21 23 16
8.606951 2.922113 26.564663 16 41 24
8.653539 2.919906 26.544600 27 40 16
8.696497 2.916508 26.513710 16 32 25
8.741476 2.913825 26.489321 26 30 19
8.774072 2.907072 26.427927 16 43 40
8.804473 2.899677 26.360699 17 44 33
8.833213 2.891826 26.289326 38 41 39
8.862155 2.884133 26.219393 42 41 19
5.115865 3.255551 29.067415 42 23 34
5.160007 3.246746 28.988806 26 25 28
5.209351 3.241374 28.940838 32 38 19
5.254033 3.233251 28.868311 15 44 20
5.301857 3.227217 28.814438 32 25 37
5.349139 3.220987 28.758814 26 15 43
5.392238 3.212397 28.682119 19 40 31
5.439479 3.206430 28.628836 23 28 19
5.480450 3.196929 28.544008 27 31 30
5.524955 3.189665 28.479151 19 32 40
5.568049 3.181742 28.408411 30 20 25
5.605428 3.170747 28.310242 30 15 38
5.647995 3.162877 28.239977 34 25 26
5.683411 3.151198 28.135698 37 23 25
5.723454 3.142289 28.056149 27 18 26
5.763780 3.133705 27.979513 30 15 22
5.799661 3.122895 27.882988 37 21 19
5.842677 3.116094 27.822271 120 120 120
5.880478 3.106668 27.738106 120 120 120
5.922060 3.099396 27.673176 120 120 120
5.966201 3.093586 27.621300 18 39 24
6.009416 3.087407 27.566130 42 23 36
6.059184 3.084676 27.541746 22 26 22
6.108858 3.081946 27.517378 17 27 15
6.160998 3.080499 27.504454 16 25 39
6.215522 3.080259 27.502312 38 36 38
6.270112 3.080055 27.500490 37 44 42
6.326037 3.080505 27.504507 21 33 36
6.382970 3.081434 27.512800 29 44 36
6.440492 3.082629 27.523470 37 25 31
6.497311 3.083470 27.530979 29 22 37
6.552459 3.083510 27.531342 39 22 26
6.606086 3.082840 27.525360 26 38 34
6.657094 3.080969 27.508652 25 31 15
6.708030 3.079096 27.491924 44 32 36
6.757482 3.076577 27.469440 17 41 21
6.805142 3.073290 27.440090 31 26 34
6.854575 3.070849 27.418299 20 36 23
6.901244 3.067219 27.385887 18 30 21
6.949696 3.064433 27.361010 32 29 26
6.998284 3.061749 27.337048 28 27 44
7.045264 3.058409 27.307224 29 37 28
7.095080 3.056342 27.288769 22 35 21
7.142501 3.053283 27.261456 20 39 21
7.192067 3.051180 27.242680 38 36 28
7.240947 3.048820 27.221605 36 16 18
7.286725 3.045198 27.189272 40 41 24
7.334449 3.042438 27.164625 37 29 24
7.376977 3.037579 27.121239 30 37 19
7.420940 3.033377 27.083721 33 25 36
7.464134 3.028924 27.043962 39 31 28
7.504740 3.023492 26.995466 32 29 30
7.550007 3.020003 26.964312 32 44 31
7.591498 3.015063 26.920204 24 39 21
7.636153 3.011440 26.887861 35 28 24
7.681428 3.008112 26.858139 24 15 28
7.723895 3.003737 26.819078 30 34 38
7.770320 3.000951 26.794207 17 40 20
7.814875 2.997486 26.763271 16 35 40
7.863018 2.995435 26.744959 22 35 40
7.911601 2.993579 26.728380 31 18 29
7.957014 2.990556 26.701389 36 31 36
8.004486 2.988341 26.681620 28 23 42
8.048437 2.984851 26.650454 23 24 27
8.093294 2.981740 26.622677 17 24 16
8.139395 2.979125 26.599329 32 16 21
8.186406 2.976875 26.579239 37 38 39
8.237780 2.976230 26.573483 29 24 36
8.288214 2.975256 26.564787 16 15 21
8.339784 2.974700 26.559820 36 16 35
8.390679 2.973912 26.552782 20 38 16
8.438754 2.972140 26.536963 31 30 23
8.487090 2.970482 26.522158 33 15 33
8.533057 2.968020 26.500177 31 37 18
8.581954 2.966601 26.487513 36 34 19
8.628752 2.964479 26.468563 30 22 44
8.671211 2.960901 26.436619 39 42 24
8.715203 2.957887 26.409706 40 34 16
8.745911 2.950428 26.343105 23 21 22
8.774593 2.942378 26.271236 25 20 34
8.801264 2.933755 26.194237 38 43 27
5.146056 3.295789 28.910429 25 24 33
5.195192 3.290288 28.862179 17 38 33
5.239431 3.281841 28.788082 44 17 42
5.286716 3.275465 28.732151 38 27 30
5.333399 3.268858 28.674189 30 37 42
5.375918 3.259865 28.595308 32 38 36
5.422773 3.253664 28.540913 32 42 21
5.463400 3.243894 28.455210 26 22 18
5.507680 3.236472 28.390104 25 43 28
5.550647 3.228437 28.319626 17 27 20
5.587883 3.217266 28.221632 38 43 19
5.630322 3.209283 28.151608 36 24 26
5.665744 3.197499 28.048237 42 30 24
5.705887 3.188584 27.970036 44 31 30
5.746280 3.179980 27.894562 20 38 36
5.782080 3.169024 27.798460 41 44 39
5.824850 3.162061 27.737381 120 120 120
5.862421 3.152434 27.652927 120 120 120
5.903850 3.145041 27.588083 120 120 120
5.947811 3.139122 27.536161 36 24 39
5.990759 3.132782 27.480547 28 31 25
6.040239 3.129942 27.455631 29 20 36
6.089512 3.127047 27.430233 17 31 20
6.141214 3.125439 27.416136 32 27 26
6.195359 3.125093 27.413094 24 21 40
6.249713 3.124857 27.411024 26 18 30
6.305556 3.125363 27.415461 30 24 38
6.362464 3.126383 27.424414 39 44 30
6.419926 3.127656 27.435579 16 44 21
6.476694 3.128573 27.443621 30 28 37
6.531792 3.128673 27.444504 30 28 21
6.585312 3.128023 27.438801 40 34 31
6.636271 3.126177 27.422609 44 40 44
6.687062 3.124283 27.405993 43 33 22
6.736519 3.121801 27.384222 26 18 42
6.784573 3.118715 27.357149 26 37 21
6.834469 3.116518 27.337875 39 17 35
6.881442 3.113033 27.307308 22 34 26
6.929725 3.110192 27.282383 43 32 41
6.977986 3.107385 27.257759 15 35 17
7.024817 3.103989 27.227972 33 19 33
7.074531 3.101910 27.209734 44 32 16
7.121908 3.098845 27.182854 42 36 35
7.171411 3.096746 27.164436 37 43 36
7.220252 3.094394 27.143805 22 30 36
7.266007 3.090764 27.111967 44 22 19
7.313665 3.087992 27.087648 15 22 16
7.356260 3.083138 27.045073 37 24 35
7.400265 3.078942 27.008266 30 38 19
7.443595 3.074528 26.969547 22 35 30
7.484494 3.069181 26.922642 33 33 31
7.529978 3.065777 26.892778 31 36 31
7.572011 3.061026 26.851103 26 34 41
7.617208 3.057612 26.821154 37 32 42
7.662991 3.054479 26.793676 28 29 19
7.705935 3.050266 26.756718 23 15 41
7.752498 3.047534 26.732752 28 26 42
7.797100 3.044073 26.702396 41 44 31
7.845097 3.041976 26.684004 42 36 42
7.893420 3.040033 26.666958 24 16 21
7.938647 3.036932 26.639755 39 27 43
7.985973 3.034670 26.619909 44 23 38
8.029604 3.031043 26.588093 17 37 38
8.074083 3.027781 26.559483 35 15 31
8.119733 3.024999 26.535076 44 20 42
8.166246 3.022571 26.513784 21 17 29
8.217242 3.021825 26.507233 30 42 43
8.267186 3.020703 26.497391 23 15 21
8.318234 3.019996 26.491190 17 18 22
8.368826 3.019133 26.483625 41 21 21
8.416860 3.017365 26.468113 15 36 30
8.465390 3.015795 26.454344 20 31 25
8.512174 3.013627 26.435324 31 20 42
8.562411 3.012700 26.427195 33 20 19
8.610103 3.010895 26.411360 16 25 44
8.652117 3.007138 26.378407 30 24 28
8.694664 3.003611 26.347467 34 23 21
8.724085 2.995620 26.277365 39 30 34
8.752853 2.987501 26.206146 31 15 21
5.224718 3.330040 28.707243 16 37 37
5.271436 3.323297 28.649111 18 15 33
5.317545 3.316318 28.588949 42 41 29
5.359465 3.306904 28.507793 21 29 31
5.405914 3.300453 28.452177 38 43 19
5.446217 3.290423 28.365713 37 25 32
5.490341 3.282884 28.300726 39 44 15
5.533268 3.274791 28.230957 27 33 15
5.570458 3.263501 28.133625 41 29 15
5.612827 3.255439 28.064133 41 35 40
5.648277 3.243565 27.961765 23 19 37
5.688486 3.234629 27.884733 16 18 27
5.728878 3.225970 27.810089 32 24 33
5.764538 3.214839 27.714127 42 22 29
5.807025 3.207690 27.652498 120 120 120
5.844283 3.197815 27.567371 120 120 120
5.885490 3.190266 27.502291 120 120 120
5.929180 3.184189 27.449909 27 28 20
5.971732 3.177619 27.393267 18 43 24
6.020820 3.174614 27.367365 15 25 35
6.069568 3.171486 27.340397 17 40 29
6.120761 3.169680 27.324827 20 30 36
6.174472 3.169198 27.320671 16 29 39
6.228510 3.168891 27.318027 21 40 35
6.284227 3.169436 27.322727 20 38 28
6.341015 3.170508 27.331963 28 18 37
6.398335 3.171824 27.343311 38 36 39
6.454970 3.172782 27.351566 25 36 23
6.509923 3.172904 27.352617 15 26 43
6.563276 3.172250 27.346983 15 15 19
6.614115 3.170402 27.331055 44 43 43
6.664690 3.168459 27.314304 15 17 34
6.714119 3.166007 27.293167 29 25 44
6.762597 3.163150 27.268538 22 18 39
6.813031 3.161246 27.252125 33 16 20
6.860443 3.157982 27.223982 28 37 31
6.908700 3.155155 27.199608 36 41 31
6.956762 3.152283 27.174850 26 21 18
7.003545 3.148881 27.145525 43 39 29
7.053187 3.146806 27.127642 16 32 41
7.100520 3.143742 27.101221 41 35 43
7.149939 3.141640 27.083103 43 30 21
7.198709 3.139287 27.062817 40 23 40
7.244431 3.135649 27.031460 23 30 40
7.292023 3.132869 27.007494 44 33 21
7.334732 3.128047 26.965925 18 18 29
7.378826 3.123882 26.930021 39 24 21
7.422374 3.119548 26.892658 26 43 16
7.463656 3.114331 26.847683 34 20 38
7.509420 3.111046 26.819359 18 16 16
7.552123 3.106547 26.780577 21 19 18
7.597970 3.103396 26.753416 42 38 44
7.644404 3.100528 26.728685 39 21 37
7.688028 3.096567 26.694540 22 19 24
7.734890 3.093956 26.672033 31 15 31
7.779733 3.090579 26.642920 34 18 17
7.827711 3.088485 26.624866 24 26 30
7.875859 3.086485 26.607632 36 17 38
7.921033 3.083355 26.580647 39 36 34
7.968273 3.081065 26.560909 38 30 33
8.011720 3.077350 26.528875 33 40 39
8.055970 3.073989 26.499903 16 23 31
8.101265 3.071068 26.474724 15 39 30
8.147251 3.068445 26.452112 42 36 22
8.197754 3.067547 26.444366 21 37 22
8.247048 3.066210 26.432846 40 15 17
8.297513 3.065323 26.425200 37 25 26
8.347660 3.064331 26.416645 21 39 27
8.395448 3.062490 26.400780 15 24 35
8.443983 3.060944 26.387447 42 17 15
8.490839 3.058812 26.369066 41 23 42
8.541444 3.058048 26.362480 39 18 44
8.588951 3.056191 26.346476 39 37 25
8.629329 3.051836 26.308931 42 40 42
8.669694 3.047529 26.271799 29 22 44
5.251859 3.368040 28.542713 31 31 29
5.297331 3.360672 28.480274 40 39 23
5.338586 3.350815 28.396734 43 32 20
5.384562 3.344097 28.339802 17 22 27
5.424441 3.333771 28.252295 42 30 29
5.468281 3.326068 28.187014 37 19 28
5.511031 3.317865 28.117504 18 26 32
5.548020 3.306396 28.020302 29 30 41
5.590206 3.298221 27.951029 35 42 33
5.625526 3.286198 27.849138 31 44 25
5.665664 3.277198 27.772863 20 22 30
5.705913 3.268435 27.698605 31 24 38
5.741242 3.257051 27.602127 30 43 32
5.783288 3.249657 27.539469 120 120 120
5.820088 3.239483 27.453247 120 120 120
5.860995 3.231763 27.387825 120 120 120
5.904364 3.225532 27.335016 34 29 26
5.946465 3.218729 27.277361 20 22 43
5.995107 3.215557 27.250484 34 24 17
6.043302 3.212205 27.222080 42 40 36
6.093947 3.210204 27.205122 34 24 21
6.147210 3.209605 27.200043 43 30 40
6.200954 3.209265 27.197165 26 35 40
6.256556 3.209885 27.202419 19 23 35
6.313242 3.211045 27.212248 27 32 42
6.370390 3.212419 27.223890 15 24 26
6.426830 3.213415 27.232330 18 23 35
6.481563 3.213548 27.233458 22 30 15
6.534659 3.212874 27.227747 34 18 38
6.585262 3.210996 27.211826 37 29 27
6.635533 3.208987 27.194807 28 27 43
6.684813 3.206536 27.174038 21 44 41
6.733504 3.203845 27.151226 39 37 18
6.784249 3.202166 27.136997 29 28 39
6.831987 3.199105 27.111061 37 16 22
6.880296 3.196358 27.087780 39 30 43
6.928255 3.193493 27.063498 33 35 23
6.974938 3.190088 27.034645 30 19 18
7.024356 3.187977 27.016754 26 24 40
7.071474 3.184863 26.990360 31 26 33
7.120661 3.182720 26.972202 20 32 24
7.169247 3.180343 26.952057 17 26 16
7.214887 3.176704 26.921221 27 22 20
7.262412 3.173943 26.897821 27 16 21
7.305280 3.169202 26.857647 15 23 18
7.349486 3.165107 26.822943 37 44 31
7.393310 3.160908 26.787354 20 24 39
7.435114 3.155912 26.745016 30 28 27
7.481276 3.152824 26.718843 31 19 26
7.524900 3.148717 26.684042 26 15 31
7.571615 3.145953 26.660618 30 31 26
7.618925 3.143473 26.639599 28 35 35
7.663526 3.139917 26.609467 27 21 42
7.710862 3.137523 26.589180 35 22 19
7.756214 3.134360 26.562376 21 16 27
7.804358 3.132361 26.545435 37 37 27
7.852512 3.130393 26.528755 35 20 32
7.897882 3.127349 26.502958 16 18 26
7.945207 3.125115 26.484024 38 43 19
7.988731 3.121425 26.452751 30 18 39
8.032978 3.118064 26.424269 32 37 39
8.078103 3.115085 26.399029 24 41 25
8.123749 3.112345 26.375809 40 28 42
8.173798 3.111317 26.367090 19 21 16
8.222703 3.109869 26.354818 18 33 28
8.273028 3.108972 26.347221 38 40 43
8.323035 3.107969 26.338718 33 20 19
8.370702 3.106110 26.322964 36 37 37
8.419153 3.104563 26.309853 25 24 33
8.464632 3.101946 26.287678 23 44 27
8.513406 3.100561 26.275944 28 27 19
8.558237 3.097767 26.252262 38 33 43
8.594830 3.092043 26.203751 28 20 38
5.284199 3.409160 28.409670 22 15 27
5.325062 3.398976 28.324797 42 21 37
5.370753 3.392054 28.267118 15 21 23
5.410355 3.381472 28.178932 34 40 36
5.453998 3.373607 28.113392 16 31 42
5.496601 3.365266 28.043880 34 27 27
5.533427 3.353592 27.946602 31 35 19
5.575476 3.345286 27.877382 26 26 29
5.610639 3.333053 27.775438 17 21 17
5.650634 3.323903 27.699188 38 32 35
5.690688 3.314964 27.624701 26 15 30
5.725697 3.303287 27.527391 32 22 15
5.767398 3.295656 27.463799 120 120 120
5.803839 3.285192 27.376600 120 120 120
5.844506 3.277293 27.310774 120 120 120
5.887646 3.270914 27.257620 26 37 24
5.929424 3.263903 27.199194 15 33 25
5.977765 3.260599 27.171658 33 33 39
6.025607 3.257085 27.142372 18 17 43
6.075921 3.254958 27.124647 22 21 22
6.128919 3.254293 27.119110 37 30 32
6.182490 3.253942 27.116184 33 38 42
6.238024 3.254621 27.121845 31 24 24
6.294627 3.255842 27.132013 33 16 21
6.351638 3.257250 27.143751 32 40 31
6.407899 3.258254 27.152115 18 24 23
6.462426 3.258366 27.153051 25 36 19
6.515300 3.257650 27.147083 36 15 37
6.565672 3.255705 27.130877 39 28 37
6.615696 3.253621 27.113506 25 28 28
6.664806 3.251125 27.092707 25 39 31
6.713466 3.248451 27.070429 20 16 44
6.764249 3.246840 27.056997 28 43 31
6.812129 3.243871 27.032259 21 44 43
6.860568 3.241213 27.010111 41 42 32
6.908587 3.238400 26.986668 41 33 27
6.955229 3.234990 26.958250 43 15 39
7.004439 3.232818 26.940149 30 38 15
7.051337 3.229620 26.913500 33 24 44
7.100292 3.227406 26.895046 24 43 21
7.148696 3.224976 26.874798 30 28 17
7.194255 3.221308 26.844234 30 21 19
7.241748 3.218555 26.821289 17 16 26
7.284746 3.213859 26.782156 32 15 42
7.329042 3.209799 26.748327 21 22 22
7.373082 3.205688 26.714064 38 40 39
7.415284 3.200842 26.673683 27 42 34
7.461758 3.197896 26.649137 19 41 44
7.506071 3.194073 26.617271 28 28 34
7.553414 3.191583 26.596527 29 24 24
7.601388 3.189394 26.578279 20 39 21
7.646770 3.186154 26.551285 20 20 33
7.694532 3.183944 26.532869 26 26 28
7.740409 3.180990 26.508249 15 40 17
7.788816 3.179109 26.492573 31 18 40
7.837135 3.177217 26.476809 15 41 42
7.882833 3.174295 26.452459 41 38 34
7.930341 3.172137 26.434471 28 21 42
7.974135 3.168530 26.404419 21 28 36
8.018592 3.165234 26.376947 32 40 19
8.063808 3.162278 26.352314 34 16 25
8.109397 3.159505 26.329210 18 44 35
8.159203 3.158401 26.320011 35 40 35
8.208043 3.156939 26.307829 39 25 25
8.258612 3.156157 26.301311 36 32 15
8.308752 3.155222 26.293518 20 44 40
8.356395 3.153357 26.277971 29 19 26
8.404668 3.151750 26.264587 28 25 21
8.448148 3.148378 26.236485 24 18 38
8.494071 3.145952 26.216269 24 40 38
8.535370 3.141854 26.182116 17 15 37
5.350014 3.435272 28.157970 22 16 31
5.389186 3.424379 28.068678 41 17 23
5.432494 3.416311 28.002548 40 37 28
5.474803 3.407786 27.932669 35 44 15
5.511304 3.395854 27.834869 44 27 25
5.553072 3.387374 27.765358 20 28 25
5.587872 3.374854 27.662735 35 44 25
5.627523 3.365480 27.585899 40 39 19
5.667169 3.356284 27.510529 42 27 44
5.701633 3.344227 27.411697 36 23 37
5.742818 3.336304 27.346752 120 120 120
5.778739 3.325501 27.258202 120 120 120
5.819063 3.317410 27.191885 120 120 120
5.861892 3.310883 27.138388 33 21 42
5.903218 3.303636 27.078981 42 37 39
5.951127 3.300170 27.050575 35 27 26
5.998529 3.296489 27.020401 31 31 41
6.048461 3.294251 27.002060 42 43 16
6.101186 3.293560 26.996397 40 36 39
6.154618 3.293260 26.993938 24 25 15
6.210109 3.294058 27.000475 15 37 23
6.266681 3.295410 27.011555 18 35 20
6.323545 3.296891 27.023697 22 24 30
6.379643 3.297951 27.032387 37 34 21
6.434065 3.298134 27.033888 37 18 43
6.486798 3.297456 27.028326 20 39 23
6.537093 3.295559 27.012779 26 27 16
6.586979 3.293489 26.995815 37 25 27
6.636009 3.291029 26.975647 33 23 20
6.684675 3.288429 26.954334 30 33 18
6.735424 3.286887 26.941696 28 41 31
6.783648 3.284147 26.919239 17 15 30
6.832614 3.281807 26.900057 22 41 37
6.881097 3.279273 26.879286 22 26 41
6.927913 3.275990 26.852375 43 17 26
6.976870 3.273762 26.834114 20 37 21
7.023482 3.270476 26.807184 31 25 44
7.072122 3.268178 26.788342 36 18 28
7.120245 3.265676 26.767839 44 38 39
7.165670 3.261984 26.737576 33 26 19
7.213105 3.259255 26.715204 40 29 22
7.256261 3.254647 26.677431 40 29 31
7.300673 3.250665 26.644793 41 18 35
7.344983 3.246695 26.612257 41 36 34
7.387639 3.242057 26.574240 25 21 43
7.434421 3.239284 26.551504 24 26 39
7.479567 3.235841 26.523289 27 15 26
7.527718 3.233738 26.506048 37 41 16
7.576566 3.231962 26.491489 22 22 15
7.622984 3.229181 26.468695 23 19 34
7.671323 3.227246 26.452839 16 35 42
7.717891 3.224598 26.431133 38 19 16
7.766599 3.222874 26.417004 18 42 24
7.815104 3.221090 26.402380 17 18 37
7.861238 3.218359 26.379993 27 34 25
7.909016 3.216333 26.363388 29 18 24
7.953264 3.212908 26.335312 36 41 18
7.998186 3.209798 26.309822 38 17 23
8.043604 3.206927 26.286289 25 20 31
8.089097 3.204123 26.263302 40 26 18
8.138474 3.202883 26.253143 42 18 27
8.186090 3.200971 26.237467 42 29 33
8.235223 3.199673 26.226824 40 36 23
8.283621 3.198107 26.213991 32 20 36
8.329600 3.195633 26.193710 15 23 37
8.376930 3.193705 26.177906 29 27 29
8.417620 3.189285 26.141678 30 30 24
5.415822 3.461659 27.916607 38 21 18
5.457859 3.452931 27.846218 40 20 25
5.494056 3.440722 27.747757 28 27 36
5.535572 3.432055 27.677862 17 41 23
5.570021 3.419221 27.574364 17 35 30
5.609335 3.409596 27.496738 18 19 30
5.648608 3.400133 27.420427 42 39 29
5.682605 3.387707 27.320215 27 41 27
5.723386 3.379523 27.254217 120 120 120
5.758913 3.368421 27.164684 120 120 120
5.798978 3.360155 27.098026 120 120 120
5.841582 3.353501 27.044359 40 43 23
5.882592 3.346061 26.984365 20 18 19
5.930190 3.342471 26.955410 24 20 21
5.977334 3.338691 26.924929 44 15 34
6.027063 3.336410 26.906530 23 43 31
6.079699 3.335764 26.901323 43 15 33
6.133177 3.335587 26.899899 39 35 21
6.188743 3.336540 26.907578 15 42 29
6.245462 3.338092 26.920094 29 37 40
6.302350 3.339707 26.933119 31 21 28
6.358477 3.340895 26.942699 33 28 44
6.413050 3.341253 26.945587 19 42 21
6.465857 3.340693 26.941071 27 29 44
6.516337 3.338950 26.927013 43 42 31
6.566326 3.336985 26.911173 28 23 26
6.615440 3.334612 26.892035 27 40 23
6.664196 3.332098 26.871758 19 38 17
6.714882 3.330582 26.859529 41 40 35
6.763483 3.328063 26.839220 31 18 17
6.813109 3.326085 26.823263 44 22 20
6.862193 3.323875 26.805443 32 30 32
6.909270 3.320735 26.780117 39 38 24
6.958011 3.318436 26.761580 41 31 38
7.004397 3.315058 26.734339 44 35 40
7.052826 3.312691 26.715248 26 28 44
7.100755 3.310126 26.694567 25 39 24
7.146071 3.306391 26.664444 40 37 43
7.193442 3.303655 26.642376 42 17 30
7.236674 3.299072 26.605419 31 38 37
7.281138 3.295113 26.573496 19 33 32
7.325599 3.291211 26.542025 22 28 44
7.368511 3.286674 26.505436 44 18 21
7.415457 3.283988 26.483776 17 17 21
7.461164 3.280796 26.458029 41 18 35
7.509888 3.278965 26.443266 31 40 16
7.559402 3.277503 26.431475 30 17 33
7.606622 3.275073 26.411880 33 19 22
7.655426 3.273354 26.398020 20 23 16
7.702547 3.270944 26.378584 43 26 37
7.751502 3.269341 26.365652 37 23 44
7.800181 3.267643 26.351963 25 43 39
7.846704 3.265072 26.331223 20 23 16
7.894747 3.263162 26.315823 21 35 28
7.939521 3.259936 26.289804 25 39 32
7.985040 3.257056 26.266579 22 26 20
8.030852 3.254332 26.244616 43 43 18
8.076680 3.251651 26.222988 43 38 34
8.126088 3.250435 26.213186 18 27 33
8.172079 3.247877 26.192560 30 29 44
8.218548 3.245541 26.173719 43 23 24
8.263846 3.242775 26.151413 43 25 39
8.307279 3.239316 26.123520 43 30 31
5.477419 3.485630 27.663733 37 29 34
5.518653 3.476752 27.593267 23 24 41
5.552687 3.463557 27.488550 25 17 21
5.591581 3.453623 27.409710 32 22 30
5.630411 3.443843 27.332090 35 25 35
5.663919 3.431028 27.230381 21 43 19
5.704321 3.422593 27.163433 120 120 120
5.739485 3.411203 27.073042 120 120 120
5.779320 3.402777 27.006166 120 120 120
5.821729 3.396009 26.952450 35 39 39
5.862441 3.388383 26.891932 41 16 32
5.909736 3.384667 26.862438 38 37 19
5.956636 3.380793 26.831692 25 19 38
6.006194 3.378484 26.813368 44 32 38
6.058744 3.377884 26.808601 36 44 33
