ply
format ascii 1.0
element vertex 1257
property float x
property float y
property float z
property uchar red
property uchar green
property uchar blue
end_header
-4.817624 3.232077 30.491293 28 26 17
-4.764077 3.237130 30.538958 23 43 22
-4.711026 3.242654 30.591080 25 24 30
-4.661407 3.250718 30.667152 35 36 28
-4.608475 3.256656 30.723166 17 35 31
-4.561103 3.266736 30.818264 35 25 33
-4.510839 3.274993 30.896158 20 35 43
-4.461393 3.284081 30.981897 34 23 20
-4.415445 3.296037 31.094687 38 21 31
-4.364162 3.304294 31.172588 27 17 28
-4.318893 3.317411 31.296329 35 20 15
-4.271428 3.329202 31.407562 40 44 17
-4.221202 3.339160 31.501505 36 36 28
-4.168816 3.347685 31.581938 23 29 38
-4.108510 3.350016 31.603920 24 22 44
-4.050411 3.354247 31.643835 21 44 24
-3.991148 3.357633 31.675779 41 18 40
-3.932379 3.361550 31.712734 24 37 22
-9.610854 2.851572 26.403446 18 42 25
-9.549520 2.849028 26.379889 41 24 31
-9.490873 2.847262 26.363535 22 36 16
-9.438199 2.847278 26.363684 33 37 18
-9.390719 2.848870 26.378424 28 42 27
-9.348286 2.852020 26.407589 22 31 39
-9.308126 2.855902 26.443539 39 32 37
-9.265373 2.859029 26.472494 32 37 16
-9.226801 2.863490 26.513796 25 24 32
-9.184779 2.866925 26.545603 22 21 39
-9.141338 2.869955 26.573658 27 37 40
-9.098597 2.873241 26.604086 31 19 16
-9.050469 2.874855 26.619026 40 21 21
-9.005906 2.877627 26.644691 22 30 43
-8.959399 2.879807 26.664879 30 15 28
-8.913900 2.882339 26.688322 25 28 26
-8.871839 2.886020 26.722406 19 30 44
-8.826822 2.888778 26.747946 18 39 17
-8.788079 2.893636 26.792925 16 34 35
-8.746875 2.897738 26.830906 35 28 19
-8.706867 2.902289 26.873045 38 44 30
-8.670635 2.908163 26.927439 30 37 34
-8.628687 2.912182 26.964647 37 29 40
-8.593148 2.918428 27.022478 34 26 40
-8.553264 2.923267 27.067291 17 23 28
-8.513590 2.928241 27.113344 27 25 28
-8.478555 2.934884 27.174856 17 37 20
-8.437160 2.939398 27.216646 38 39 37
-8.400933 2.945782 27.275755 31 17 16
-8.359361 2.950363 27.318174 37 28 38
-8.316985 2.954718 27.358503 29 28 36
-8.278700 2.960595 27.412912 44 39 39
-8.234619 2.964463 27.448730 39 22 25
-8.195360 2.970131 27.501209 25 40 26
-8.152368 2.974513 27.541784 30 35 40
-8.108148 2.978503 27.578733 30 35 40
-8.066037 2.983329 27.623415 30 35 40
-8.018295 2.986124 27.649294 30 35 40
-7.973210 2.989954 27.684755 30 35 40
-7.924779 2.992574 27.709019 24 39 38
-7.875779 2.995015 27.731617 17 19 34
-7.829601 2.998570 27.764542 17 27 39
-7.780437 3.001026 27.787275 37 34 16
-7.733829 3.004509 27.819529 15 29 31
-7.684494 3.006976 27.842369 28 44 27
-7.634931 3.009389 27.864712 19 26 41
-7.587599 3.012723 27.895584 35 36 34
-7.537459 3.014984 27.916515 38 34 29
-7.490327 3.018490 27.948982 39 24 37
-7.441935 3.021538 27.977200 27 15 42
-7.392269 3.024110 28.001019 23 29 40
-7.342220 3.026564 28.023739 28 32 41
-7.288401 3.027490 28.032312 43 16 41
-7.234291 3.028308 28.039886 29 24 15
-7.178940 3.028615 28.042734 26 37 30
-7.122498 3.028464 28.041332 34 31 39
-7.066073 3.028317 28.039970 23 32 22
-7.009341 3.028035 28.037365 35 37 17
-6.952727 3.027800 28.035189 21 30 18
-6.896694 3.027817 28.035341 28 35 15
-6.840548 3.027784 28.035034 27 38 18
-6.784130 3.027628 28.033596 29 17 35
-6.727692 3.027461 28.032049 28 21 29
-6.669122 3.026324 28.021523 16 38 30
-6.609731 3.024792 28.007334 44 25 28
-6.549771 3.022971 27.990475 19 43 16
-6.489432 3.020942 27.971689 30 35 40
-6.430685 3.019626 27.959501 30 35 40
-6.373292 3.018928 27.953033 30 35 40
-6.317164 3.018822 27.952055 30 35 40
-6.263659 3.019979 27.962765 30 35 40
-6.211801 3.021957 27.981087 30 35 40
-6.160008 3.024004 28.000036 30 35 40
-6.114862 3.029381 28.049826 30 35 40
-6.068982 3.034491 28.097139 30 35 40
-6.026744 3.041535 28.162357 30 35 40
-5.989792 3.051403 28.253735 30 35 40
-5.948247 3.059098 28.324984 39 20 40
-5.914820 3.071157 28.436636 23 43 15
-5.876305 3.080781 28.525753 42 27 34
-5.837563 3.090475 28.615507 32 20 16
-5.803037 3.102614 28.727907 40 36 26
-5.759887 3.110339 28.799433 18 26 38
-5.722655 3.121448 28.902296 36 37 31
-5.679341 3.129433 28.976231 34 29 35
-5.635484 3.137280 29.048889 17 24 30
-5.596866 3.148237 29.150343 21 29 32
-5.551786 3.155752 29.219927 21 19 28
-5.513412 3.167280 29.326662 19 15 19
-5.470532 3.176438 29.411463 21 39 29
-5.426763 3.185274 29.493279 26 42 38
-5.385896 3.196026 29.592836 38 32 40
-5.337513 3.202508 29.652849 28 29 31
-5.294808 3.212580 29.746111 38 23 27
-5.248834 3.220876 29.822922 32 34 43
-5.201540 3.228542 29.893908 15 32 40
-5.155875 3.237410 29.976017 23 32 36
-5.103684 3.242340 30.021671 24 23 36
-5.054365 3.249234 30.085505 23 29 44
-5.001505 3.253991 30.129549 39 20 24
-4.948216 3.258581 30.172049 21 37 26
-4.898087 3.265391 30.235104 29 32 33
-4.844785 3.270230 30.279905 39 28 15
-4.794669 3.277368 30.346004 19 37 40
-4.741195 3.282366 30.392275 21 40 42
-4.688164 3.287803 30.442621 41 40 26
-4.638537 3.295803 30.516691 31 24 36
-4.585706 3.301708 30.571373 41 42 36
-4.538333 3.311757 30.664415 43 21 29
-4.488172 3.320017 30.740902 17 27 31
-4.438783 3.329088 30.824884 25 32 36
-4.392680 3.340912 30.934366 31 20 38
-4.341303 3.349005 31.009306 19 37 38
-4.296072 3.362144 31.130959 26 40 33
-4.248796 3.374044 31.241146 15 15 44
-4.199130 3.384373 31.336790 37 19 32
-4.147829 3.393679 31.422951 22 25 16
-4.088753 3.396810 31.451944 19 32 40
-4.031528 3.401602 31.496315 26 42 20
-3.972433 3.404943 31.527246 28 34 41
-3.913583 3.408605 31.561155 30 18 41
-9.574851 2.893499 26.304537 38 29 37
-9.513372 2.890804 26.280033 25 29 17
-9.456376 2.889448 26.267712 30 34 24
-9.405787 2.890046 26.273148 17 18 16
-9.359748 2.892057 26.291426 33 18 41
-9.318743 2.895655 26.324133 18 31 32
-9.280388 2.900121 26.364738 28 28 33
-9.238893 2.903652 26.396837 17 16 22
-9.201183 2.908420 26.440182 31 24 40
-9.159287 2.911912 26.471928 40 25 22
-9.115426 2.914816 26.498331 33 15 30
-9.072159 2.917946 26.526781 18 33 24
-9.023518 2.919373 26.539759 34 38 24
-8.978538 2.922009 26.563723 44 35 29
-8.932113 2.924204 26.583670 17 16 30
-8.886755 2.926776 26.607052 35 39 34
-8.844506 2.930409 26.640078 23 37 31
-8.799279 2.933093 26.664482 38 30 15
-8.760098 2.937838 26.707615 29 22 37
-8.718565 2.941847 26.744064 15 28 19
-8.678226 2.946311 26.784647 37 29 35
-8.641522 2.952073 26.837025 35 19 40
-8.599324 2.956018 26.872887 18 30 38
-8.563584 2.962246 26.929510 33 39 37
-8.523716 2.967116 26.973785 39 15 24
-8.484277 2.972199 27.019989 27 25 31
-8.449601 2.979026 27.082054 36 15 23
-8.408660 2.983718 27.124708 18 30 35
-8.372960 2.990343 27.184935 16 31 15
-8.331791 2.995088 27.228075 37 36 16
-8.289792 2.999596 27.269053 30 37 21
-8.251972 3.005685 27.324411 37 41 17
-8.208263 3.009696 27.360876 21 27 32
-8.169316 3.015519 27.413813 35 20 35
-8.126471 3.019972 27.454292 20 19 43
-8.082366 3.024014 27.491039 44 26 23
-8.040459 3.028940 27.535820 30 35 40
-7.992947 3.031807 27.561886 21 30 28
-7.948265 3.035796 27.598143 40 29 28
-7.900271 3.038566 27.623325 37 17 35
-7.851777 3.041181 27.647100 27 15 19
-7.806172 3.044961 27.681461 36 42 39
-7.757458 3.047573 27.705206 29 21 31
-7.711425 3.051283 27.738939 17 40 30
-7.662581 3.053927 27.762976 21 31 29
-7.613437 3.056489 27.786266 35 33 22
-7.566497 3.059980 27.818003 26 31 44
-7.516574 3.062308 27.839163 27 25 44
-7.469739 3.065938 27.872160 44 39 28
-7.421672 3.069113 27.901024 15 21 26
-7.372299 3.071791 27.925377 28 24 25
-7.322508 3.074335 27.948503 44 27 15
-7.268860 3.075287 27.957155 38 15 37
-7.214845 3.076097 27.964514 42 43 25
-7.159536 3.076363 27.966938 32 27 35
-7.103133 3.076160 27.965092 30 15 34
-7.046792 3.075980 27.963459 21 23 16
-6.990212 3.075693 27.960848 21 27 28
-6.933810 3.075480 27.958912 21 43 36
-6.878034 3.075544 27.959488 43 26 27
-6.822142 3.075556 27.959599 40 36 42
-6.765954 3.075434 27.958488 35 42 36
-6.709686 3.075273 27.957026 32 29 34
-6.651204 3.074086 27.946236 21 33 27
-6.591831 3.072463 27.931486 42 19 36
-6.531893 3.070548 27.914072 39 16 42
-6.471692 3.068475 27.895226 30 35 40
-6.413184 3.067175 27.883408 30 35 40
-6.355804 3.066397 27.876333 30 35 40
-6.299431 3.066095 27.873589 30 35 40
-6.245765 3.067117 27.882877 30 35 40
-6.194161 3.069179 27.901625 30 35 40
-6.142902 3.071451 27.922281 30 35 40
-6.098032 3.076988 27.972622 30 35 40
-6.052073 3.082074 28.018858 30 35 40
-6.009627 3.089061 28.082369 30 35 40
-5.972590 3.098985 28.172594 30 35 40
-5.931107 3.106770 28.243368 22 20 32
-5.897617 3.118932 28.353930 34 32 42
-5.858996 3.128590 28.441730 19 20 43
-5.820199 3.138342 28.530386 43 24 17
-5.785732 3.150646 28.642239 25 40 42
-5.742807 3.158544 28.714035 20 33 28
-5.705706 3.169837 28.816698 36 24 30
-5.662462 3.177913 28.890114 34 44 23
-5.618600 3.185804 28.961855 16 25 40
-5.579873 3.196802 29.061840 21 23 26
-5.534721 3.204312 29.130112 42 43 32
-5.496211 3.215868 29.235167 31 44 34
-5.453291 3.225064 29.318768 38 17 26
-5.409523 3.233954 29.399584 42 25 19
-5.368602 3.244759 29.497812 16 36 18
-5.320264 3.251273 29.557024 27 15 27
-5.277604 3.261441 29.649462 41 36 44
-5.231755 3.269847 29.725883 25 17 32
-5.184647 3.277650 29.796820 16 25 37
-5.139189 3.286691 29.879007 23 34 21
-5.087243 3.291746 29.924959 19 25 24
-5.038205 3.298825 29.989317 44 38 36
-4.985620 3.303724 30.033857 28 15 36
-4.932605 3.308454 30.076859 27 23 24
-4.882758 3.315453 30.140482 23 26 35
-4.829705 3.320422 30.185658 35 38 29
-4.779778 3.327694 30.251762 30 28 18
-4.726464 3.332763 30.297844 32 30 23
-4.673526 3.338233 30.347574 30 22 41
-4.623939 3.346272 30.420654 36 41 36
-4.571166 3.352189 30.474442 34 17 41
-4.523734 3.362235 30.565771 37 39 44
-4.473574 3.370501 30.640919 27 20 34
-4.424126 3.379541 30.723099 16 17 17
-4.377859 3.391299 30.829992 33 23 16
-4.326408 3.399321 30.902916 36 28 40
-4.280837 3.412261 31.020555 37 21 44
-4.232978 3.423733 31.124842 25 29 22
-4.183156 3.433934 31.217583 15 36 15
-4.132709 3.443925 31.308405 24 16 35
-4.075054 3.448122 31.346567 26 31 42
-4.018881 3.453726 31.397509 26 33 40
-3.959953 3.457102 31.428196 36 19 17
-3.900981 3.460548 31.459526 38 40 41
-9.589995 2.934643 26.202171 20 28 33
-9.525014 2.930773 26.167620 41 31 17
-9.463447 2.927917 26.142118 19 20 27
-9.408389 2.927054 26.134415 34 32 32
-9.360278 2.928355 26.146029 37 32 18
-9.316019 2.930882 26.168592 40 39 42
-9.276752 2.935017 26.205513 41 25 33
-9.240540 2.940172 26.251534 35 35 27
-9.200512 2.944164 26.287178 32 22 29
-9.163461 2.949160 26.331783 19 39 34
-9.121083 2.952489 26.361511 21 18 42
-9.076197 2.955041 26.384295 24 35 30
-9.032257 2.957932 26.410109 22 15 33
-8.983406 2.959240 26.421782 24 42 35
-8.938104 2.961738 26.444094 26 19 22
-8.891623 2.963874 26.463163 28 15 25
-8.846184 2.966385 26.485580 26 40 43
-8.803507 2.969858 26.516588 33 34 42
-8.757937 2.972391 26.539202 24 35 43
-8.718122 2.976920 26.579641 35 30 21
-8.676137 2.980759 26.613918 32 39 22
-8.635405 2.985078 26.652485 18 18 40
-8.598199 2.990678 26.702480 34 36 42
-8.555823 2.994538 26.736946 38 23 29
-8.519978 3.000747 26.792383 41 30 43
-8.480241 3.005655 26.836205 21 25 21
-8.441158 3.010859 26.882669 15 20 29
-8.406947 3.017878 26.945343 35 39 41
-8.366553 3.022755 26.988880 31 15 30
-8.331412 3.029604 27.050037 36 15 38
-8.290648 3.034485 27.093620 18 15 40
-8.249016 3.039111 27.134922 41 26 25
-8.211630 3.045373 27.190826 17 32 18
-8.168297 3.049497 27.227655 15 37 31
-8.129610 3.055424 27.280571 31 29 23
-8.086874 3.059898 27.320520 21 29 18
-8.042867 3.063949 27.356689 34 19 43
-8.001158 3.068937 27.401226 35 28 27
-7.953948 3.071870 27.427406 42 37 27
-7.909792 3.076030 27.464556 29 18 27
-7.862402 3.078983 27.490917 42 35 18
-7.814620 3.081822 27.516268 23 25 32
-7.769774 3.085868 27.552391 33 44 35
-7.721653 3.088661 27.577333 32 39 21
-7.676400 3.092651 27.612951 20 16 42
-7.628280 3.095534 27.638695 37 22 21
-7.579775 3.098302 27.663414 39 43 29
-7.533437 3.102003 27.696459 39 16 28
-7.483879 3.104424 27.718069 24 16 20
-7.437340 3.108142 27.751270 32 20 17
-7.389459 3.111351 27.779921 23 38 38
-7.340240 3.114041 27.803938 35 35 37
-7.290721 3.116644 27.827181 19 40 39
-7.237404 3.117651 27.836170 17 44 20
-7.183697 3.118504 27.843788 29 17 37
-7.128597 3.118761 27.846081 39 18 38
-7.072445 3.118558 27.844271 30 22 42
-7.016522 3.118454 27.843340 16 27 25
-6.960400 3.118259 27.841600 24 26 37
-6.904534 3.118177 27.840864 40 24 41
-6.849235 3.118351 27.842419 33 17 23
-6.793759 3.118447 27.843273 35 23 16
-6.737904 3.118369 27.842577 36 42 29
-6.681838 3.118191 27.840992 44 23 42
-6.623646 3.117010 27.830446 18 43 29
-6.564603 3.115405 27.816113 44 30 16
-6.505028 3.113518 27.799265 26 41 28
-6.445277 3.111513 27.781364 30 35 40
-6.387183 3.110281 27.770363 30 35 40
-6.329987 3.109467 27.763100 30 35 40
-6.273510 3.108996 27.758896 30 35 40
-6.219739 3.109870 27.766693 30 35 40
-6.168336 3.111953 27.785297 30 35 40
-6.117500 3.114364 27.806820 30 35 40
-6.073013 3.120080 27.857859 30 35 40
-6.027385 3.125311 27.904558 30 35 40
-5.985114 3.132396 27.967821 30 35 40
-5.948060 3.142372 28.056889 30 35 40
-5.906494 3.150130 28.126162 15 43 22
-5.872607 3.162173 28.233688 30 42 16
-5.833534 3.171630 28.318125 19 32 40
-5.794383 3.181230 28.403839 24 20 17
-5.759849 3.193580 28.514103 39 33 40
-5.717258 3.201665 28.586292 39 38 29
-5.680336 3.213119 28.688564 39 31 19
-5.637177 3.221244 28.761106 24 32 43
-5.593306 3.229125 28.831476 40 40 23
-5.554459 3.240101 28.929476 26 36 29
-5.509261 3.247565 28.996113 30 38 39
-5.470610 3.259087 29.098989 15 18 41
-5.427702 3.268294 29.181192 42 43 18
-5.383971 3.277200 29.260712 22 42 30
-5.342982 3.287989 29.357042 28 15 17
-5.294686 3.294471 29.414921 35 33 26
-5.252046 3.304658 29.505875 36 35 30
-5.206296 3.313097 29.581224 23 24 25
-5.159419 3.321005 29.651834 22 22 23
-5.114319 3.330254 29.734415 34 36 29
-5.062839 3.335518 29.781408 28 36 44
-5.014366 3.342911 29.847416 15 29 43
-4.962287 3.348049 29.893297 17 28 27
-4.909791 3.353028 29.937752 15 16 16
-4.860524 3.360362 30.003235 30 29 24
-4.807942 3.365559 30.049635 19 40 27
-4.758557 3.373154 30.117447 27 29 39
-4.705742 3.378481 30.165010 19 40 24
-4.653201 3.384146 30.215593 43 31 22
-4.603924 3.392365 30.288977 28 31 44
-4.551336 3.398331 30.342241 38 40 42
-4.503987 3.408423 30.432344 31 36 35
-4.453952 3.416731 30.506523 41 22 34
-4.404523 3.425740 30.586967 41 16 31
-4.358130 3.437398 30.691055 16 34 40
-4.306609 3.445287 30.761492 33 28 39
-4.260630 3.457902 30.874128 16 16 44
-4.212068 3.468761 30.971085 18 31 29
-4.162035 3.478716 31.059963 34 32 24
-4.112580 3.489462 31.155910 16 33 21
-4.056608 3.494924 31.204676 38 18 16
-4.001620 3.501417 31.262655 32 28 30
-3.942828 3.504736 31.292284 25 34 33
-3.883624 3.507790 31.319550 43 29 38
-3.827655 3.513913 31.374224 35 35 23
-9.555758 2.976384 26.108627 41 21 31
-9.489247 2.971907 26.069361 36 34 26
-9.427670 2.968935 26.043287 15 44 24
-9.373860 2.968389 26.038500 23 35 39
-9.327412 2.970182 26.054224 28 34 34
-9.284359 2.973081 26.079660 31 24 39
-9.246343 2.977636 26.119612 34 27 43
-9.211852 2.983384 26.170034 21 18 38
-9.173150 2.987826 26.209000 36 15 28
-9.136395 2.992957 26.254007 37 37 15
-9.092978 2.995952 26.280283 38 44 26
-9.046726 2.998043 26.298622 41 17 34
-9.002264 3.000755 26.322411 24 39 38
-8.953688 3.002119 26.334375 34 26 21
-8.908381 3.004602 26.356157 32 15 21
-8.861739 3.006662 26.374224 38 24 28
-8.816014 3.009059 26.395252 23 17 17
-8.772872 3.012372 26.424313 22 40 37
-8.726987 3.014777 26.445415 19 31 28
-8.686639 3.019137 26.483656 25 40 44
-8.644270 3.022843 26.516165 29 42 22
-8.603214 3.027057 26.553131 38 43 34
-8.565633 3.032553 26.601345 36 28 30
-8.523157 3.036375 26.634867 22 19 18
-8.487255 3.042601 26.689482 29 32 29
-8.447626 3.047561 26.732992 29 19 36
-8.408777 3.052868 26.779545 24 17 42
-8.374836 3.060036 26.842422 31 39 29
-8.334756 3.065039 26.886309 19 15 42
-8.299873 3.072031 26.947639 24 40 30
-8.259292 3.076991 26.991150 32 31 18
-8.217795 3.081673 27.032219 18 33 43
-8.180567 3.088028 27.087969 28 42 32
-8.137414 3.092217 27.124714 25 19 41
-8.098801 3.098199 27.177185 35 40 39
-8.056063 3.102673 27.216431 39 30 44
-8.012086 3.106727 27.251993 30 18 26
-7.970474 3.111760 27.296144 29 21 40
-7.923474 3.114745 27.322323 16 42 21
-7.879707 3.119051 27.360094 21 38 24
-7.832787 3.122160 27.387367 20 38 39
-7.785557 3.125188 27.413933 24 44 27
-7.741289 3.129457 27.451380 41 22 30
-7.693603 3.132396 27.477154 38 29 30
-7.648981 3.136632 27.514318 19 43 18
-7.601479 3.139741 27.541590 26 30 43
-7.553552 3.142719 27.567709 27 38 25
-7.507789 3.146647 27.602167 42 33 38
-7.458619 3.149195 27.624514 44 44 40
-7.412219 3.152959 27.657532 15 40 33
-7.364186 3.156080 27.684910 27 18 24
-7.314785 3.158657 27.707518 21 23 37
-7.265316 3.161245 27.730215 41 39 43
-7.212269 3.162302 27.739494 41 27 15
-7.158857 3.163216 27.747509 16 31 20
-7.103979 3.163490 27.749916 34 42 16
-7.048129 3.163334 27.748541 35 23 30
-6.992677 3.163354 27.748720 29 29 18
-6.937033 3.163287 27.748133 44 18 30
-6.881676 3.163351 27.748692 27 23 16
-6.826767 3.163624 27.751085 20 40 34
-6.771578 3.163770 27.752371 29 26 33
-6.715910 3.163693 27.751694 33 16 26
-6.659911 3.163458 27.749628 44 31 32
-6.601985 3.162295 27.739431 39 40 31
-6.543381 3.160786 27.726189 42 30 21
-6.484311 3.159023 27.710730 15 32 24
-6.425043 3.157133 27.694151 34 30 41
-6.367301 3.155966 27.683916 30 35 40
-6.310333 3.155166 27.676897 30 35 40
-6.253927 3.154636 27.672245 30 35 40
-6.200149 3.155433 27.679237 30 35 40
-6.148742 3.157462 27.697037 30 35 40
-6.097958 3.159851 27.717993 30 35 40
-6.053739 3.165717 27.769445 30 35 40
-6.008692 3.171254 27.818018 30 35 40
-5.966912 3.178635 27.882765 30 35 40
-5.929903 3.188721 27.971239 120 120 120
-5.888115 3.196405 28.038643 17 19 32
-5.853705 3.208281 28.142815 28 20 28
-5.814097 3.217510 28.223770 39 26 17
-5.774531 3.226944 28.306522 18 36 25
-5.739856 3.239324 28.415127 26 31 42
-5.697535 3.247595 28.487675 34 36 18
-5.660769 3.259230 28.589741 17 27 26
-5.617678 3.267425 28.661621 37 42 15
-5.573834 3.275346 28.731104 39 44 27
-5.534953 3.286378 28.827881 42 27 43
-5.489785 3.293871 28.893604 38 27 39
-5.451116 3.305464 28.995298 33 43 35
-5.408283 3.314754 29.076788 24 21 24
-5.364637 3.323742 29.155634 22 37 20
-5.323634 3.334584 29.250734 15 20 37
-5.275376 3.341071 29.307644 40 17 16
-5.232761 3.351319 29.397535 32 23 39
-5.187060 3.359800 29.471930 18 23 16
-5.140371 3.367829 29.542360 43 35 18
-5.095605 3.377320 29.625610 23 18 17
-5.044567 3.382827 29.673923 39 42 21
-4.996640 3.390577 29.741907 17 34 44
-4.945008 3.395969 29.789206 36 17 16
-4.892982 3.401219 29.835255 31 20 23
-4.844282 3.408939 29.902973 18 23 34
-4.792159 3.414413 29.950993 41 21 33
-4.743371 3.422432 30.021336 27 18 38
-4.691105 3.428115 30.071188 37 23 24
-4.639037 3.434092 30.123617 25 22 27
-4.590157 3.442617 30.198399 34 35 44
-4.537774 3.448708 30.251825 26 26 36
-4.490599 3.458975 30.341883 23 38 39
-4.440758 3.467441 30.416151 34 34 32
-4.391425 3.476545 30.496006 38 16 41
-4.345007 3.488245 30.598642 25 28 43
-4.293447 3.496093 30.667479 37 36 17
-4.247210 3.508565 30.776886 24 15 37
-4.198221 3.519097 30.869268 25 17 22
-4.148058 3.528945 30.955658 17 41 44
-4.099203 3.540221 31.054567 35 18 26
-4.044265 3.546509 31.109728 20 30 37
-3.989941 3.553541 31.171415 38 33 38
-3.931161 3.556764 31.199688 24 16 23
-3.871711 3.559477 31.223478 44 25 29
-3.815618 3.565413 31.275557 21 25 29
-9.524262 3.018619 26.022573 21 30 29
-9.457027 3.013778 25.980844 34 26 38
-9.395593 3.010743 25.954678 37 44 23
-9.342610 3.010397 25.951694 38 35 38
-9.297189 3.012497 25.969803 38 26 40
-9.254973 3.015665 25.997114 37 32 32
-9.217657 3.020475 26.038578 19 32 37
-9.183843 3.026494 26.090464 25 28 39
-9.145508 3.031083 26.130024 42 18 15
-9.108385 3.036128 26.173519 29 32 34
-9.063962 3.038785 26.196423 36 28 43
-9.016677 3.040507 26.211269 17 34 29
-8.971890 3.043097 26.233597 28 15 26
-8.923721 3.044563 26.246237 35 26 36
-8.878476 3.047051 26.267681 23 35 29
-8.831618 3.049011 26.284578 32 38 25
-8.785526 3.051261 26.303970 43 35 29
-8.741923 3.054407 26.331095 30 23 27
-8.695785 3.056700 26.350864 17 42 40
-8.655024 3.060923 26.387268 31 20 26
-8.612390 3.064532 26.418375 22 44 44
-8.571205 3.068703 26.454336 30 39 30
-8.533523 3.074188 26.501623 16 17 19
-8.491176 3.078051 26.534925 15 44 26
-8.455464 3.084383 26.589508 37 28 30
-8.416100 3.089454 26.633228 25 29 36
-8.377566 3.094897 26.680147 39 36 26
-8.343921 3.102227 26.743336 38 37 27
-8.304100 3.107341 26.787418 17 19 16
-8.269392 3.114446 26.848675 29 35 39
-8.228911 3.119457 26.891867 32 43 36
-8.187452 3.124159 26.932409 24 35 18
-8.150261 3.130564 26.987619 33 39 18
-8.107193 3.134781 27.023975 34 24 37
-8.068553 3.140779 27.075680 15 31 30
-8.025770 3.145234 27.114088 24 43 40
-7.981782 3.149275 27.148920 39 30 26
-7.940197 3.154325 27.192455 44 23 30
-7.893354 3.157342 27.218462 44 35 24
-7.849883 3.161758 27.256538 38 31 17
-7.803351 3.164996 27.284445 26 32 25
-7.756573 3.168178 27.311878 23 20 32
-7.712724 3.172610 27.350084 18 34 19
-7.665359 3.175649 27.376282 34 29 21
-7.621185 3.180063 27.414333 18 33 19
-7.574161 3.183343 27.442612 18 39 42
-7.526666 3.186472 27.469585 30 36 34
-7.481303 3.190556 27.504789 22 38 44
-7.432383 3.193172 27.527344 18 33 36
-7.386043 3.196944 27.559862 16 17 22
-7.337864 3.199971 27.585955 18 26 30
-7.288342 3.202453 27.607357 19 18 29
-7.239011 3.205058 27.629812 23 29 34
-7.186315 3.206202 27.639671 40 35 28
-7.133347 3.207241 27.648630 34 18 29
-7.078798 3.207580 27.651554 23 15 18
-7.023383 3.207529 27.651114 37 28 22
-6.968579 3.207758 27.653090 16 22 36
-6.913554 3.207889 27.654217 23 17 16
-6.858872 3.208182 27.656742 40 35 19
-6.804452 3.208604 27.660376 44 31 35
-6.749638 3.208844 27.662449 41 25 38
-6.694269 3.208823 27.662268 29 23 32
-6.638400 3.208560 27.660002 38 15 29
-6.580889 3.207492 27.650793 44 38 23
-6.522876 3.206159 27.639305 29 29 18
-6.464456 3.204602 27.625879 44 19 41
-6.405793 3.202896 27.611176 24 22 34
-6.348441 3.201823 27.601919 26 25 28
-6.291802 3.201092 27.595621 30 35 40
-6.235597 3.200572 27.591139 30 35 40
-6.181895 3.201339 27.597746 30 35 40
-6.130450 3.203298 27.614641 30 35 40
-6.079592 3.205603 27.634510 30 35 40
-6.035631 3.211620 27.686380 30 35 40
-5.991288 3.217543 27.737444 30 35 40
-5.950122 3.225300 27.804310 120 120 120
-5.913225 3.235538 27.892572 120 120 120
-5.871191 3.243134 27.958052 25 41 16
-5.836150 3.254776 28.058413 41 17 43
-5.795858 3.263687 28.135235 21 41 17
-5.755716 3.272858 28.214293 44 24 19
-5.720780 3.285201 28.320694 29 20 18
-5.678691 3.293641 28.393454 24 33 43
-5.642024 3.305428 28.495070 34 24 23
-5.598953 3.313666 28.566086 35 30 21
-5.555093 3.321602 28.634499 22 17 42
-5.516139 3.332668 28.729893 44 36 19
-5.470970 3.340171 28.794580 25 41 20
-5.432252 3.351815 28.894957 28 32 31
-5.389469 3.361174 28.975641 41 35 44
-5.345871 3.370223 29.053648 43 16 27
-5.304812 3.381089 29.147316 18 25 28
-5.256549 3.387554 29.203053 25 44 39
-5.213878 3.397808 29.291451 41 16 23
-5.168141 3.406274 29.364435 28 22 26
-5.121557 3.414372 29.434238 23 27 25
-5.077098 3.424089 29.518009 25 38 34
-5.026508 3.429852 29.567694 17 42 21
-4.979163 3.437994 29.637877 37 33 25
-4.928010 3.443669 29.686806 41 33 43
-4.876502 3.449233 29.734770 20 24 20
-4.828391 3.457366 29.804880 16 36 17
-4.776731 3.463130 29.854570 32 25 20
-4.728613 3.471640 29.927933 31 30 44
-4.677017 3.477782 29.980877 29 38 31
-4.625543 3.484175 30.035995 35 33 29
-4.577167 3.493101 30.112944 29 16 18
-4.525031 3.499358 30.166876 23 15 36
-4.478086 3.509851 30.257336 25 26 38
-4.428472 3.518512 30.332003 30 26 44
-4.379255 3.527733 30.411495 35 31 36
-4.332873 3.539530 30.513191 36 25 28
-4.281318 3.547378 30.580845 29 35 34
-4.234858 3.559735 30.687374 27 39 28
-4.185477 3.569965 30.775564 37 26 36
-4.135131 3.579666 30.859188 41 26 41
-4.086683 3.591327 30.959717 34 38 43
-4.032539 3.598265 31.019529 32 30 37
-3.978696 3.605693 31.083563 40 42 17
-3.919910 3.608806 31.110395 28 15 22
-3.860250 3.611201 31.131044 36 24 19
-3.804008 3.616925 31.180391 26 40 41
-9.483684 3.057581 25.911705 41 44 27
-9.415783 3.052369 25.867537 38 38 31
-9.354474 3.049248 25.841087 16 25 39
-9.302221 3.049061 25.839502 28 30 18
-9.257673 3.051412 25.859423 35 24 32
-9.216354 3.054859 25.888634 31 34 16
-9.179504 3.059835 25.930801 16 29 33
-9.145268 3.065743 25.980875 37 33 35
-9.106007 3.070025 26.017164 32 21 33
-9.067961 3.074768 26.057358 36 38 38
-9.023262 3.077297 26.078791 20 31 30
-8.975935 3.078954 26.092834 17 33 36
-8.931012 3.081460 26.114071 19 40 36
-8.882946 3.082905 26.126310 35 31 18
-8.837540 3.085295 26.146568 29 39 37
-8.790489 3.087136 26.162169 43 21 39
-8.744146 3.089249 26.180077 23 41 25
-8.700200 3.092240 26.205421 18 43 33
-8.653925 3.094434 26.224014 19 33 26
-8.612962 3.098566 26.259031 27 32 36
-8.570249 3.102115 26.289106 44 37 40
-8.529165 3.106301 26.324583 21 42 37
-8.491718 3.111872 26.371796 41 18 34
-8.449780 3.115856 26.405563 15 37 18
-8.414610 3.122402 26.461037 15 19 37
-8.375765 3.127659 26.505585 44 19 43
-8.337764 3.133300 26.553389 16 34 23
-8.304663 3.140866 26.617510 20 42 19
-8.265259 3.146131 26.662127 25 16 41
-8.230894 3.153394 26.723680 44 34 33
-8.190643 3.158483 26.766808 18 34 25
-8.149318 3.163222 26.806969 42 25 31
-8.112247 3.169686 26.861746 15 44 28
-8.069324 3.173934 26.897745 43 22 36
-8.030679 3.179933 26.948587 16 37 25
-7.987874 3.184355 26.986059 19 43 31
-7.943867 3.188355 27.019957 31 40 43
-7.902283 3.193389 27.062614 38 29 23
-7.855579 3.196408 27.088203 40 26 42
-7.812352 3.200894 27.126223 42 23 37
-7.766183 3.204229 27.154486 21 31 35
-7.719831 3.207536 27.182505 44 26 26
-7.676367 3.212097 27.221159 39 42 43
-7.629320 3.215213 27.247570 44 28 19
-7.585486 3.219739 27.285921 20 38 35
-7.538829 3.223122 27.314596 16 24 19
-7.491618 3.226317 27.341671 44 28 40
-7.446350 3.230402 27.376287 43 41 35
-7.397444 3.232957 27.397940 37 15 44
-7.351163 3.236706 27.429712 42 25 34
-7.303157 3.239746 27.455477 25 44 38
-7.253955 3.242298 27.477102 41 38 28
-7.205085 3.245038 27.500324 39 22 44
-7.152911 3.246321 27.511198 16 38 24
-7.100563 3.247544 27.521561 27 33 20
-7.046463 3.247979 27.525248 16 40 41
-6.991580 3.248057 27.525906 22 28 23
-6.937581 3.248550 27.530085 44 30 25
-6.883305 3.248920 27.533220 36 30 25
-6.829484 3.249513 27.538242 17 34 37
-6.775705 3.250135 27.543516 18 30 17
-6.721435 3.250530 27.546865 40 30 42
-6.666631 3.250671 27.548063 34 32 40
-6.611130 3.250472 27.546373 43 37 41
-6.554238 3.249580 27.538815 31 24 15
-6.496898 3.248449 27.529230 34 16 34
-6.439173 3.247104 27.517834 31 27 43
-6.381229 3.245625 27.505299 16 36 17
-6.324376 3.244680 27.497288 36 24 40
-6.268185 3.244061 27.492039 30 35 40
-6.212261 3.243570 27.487879 30 35 40
-6.158722 3.244327 27.494293 30 35 40
-6.107409 3.246280 27.510851 30 35 40
-6.056632 3.248557 27.530146 30 35 40
-6.013043 3.254766 27.582766 24 27 37
-5.969404 3.261063 27.636129 120 120 120
-5.928866 3.269188 27.704983 120 120 120
-5.892224 3.279634 27.793509 120 120 120
-5.850142 3.287222 27.857817 25 29 31
-5.814560 3.298645 27.954617 31 37 31
-5.773505 3.307153 28.026724 28 43 43
-5.732667 3.315955 28.101311 25 28 31
-5.697440 3.328208 28.205151 40 25 26
-5.655628 3.336821 28.278141 27 18 34
-5.619052 3.348728 28.379051 36 22 18
-5.575977 3.356966 28.448862 34 29 44
-5.532034 3.364845 28.515638 20 36 18
-5.492885 3.375836 28.608776 34 34 15
-5.447624 3.383261 28.671707 33 33 18
-5.408698 3.394821 28.769672 39 38 23
-5.365874 3.404157 28.848787 31 26 20
-5.322235 3.413172 28.925190 43 27 33
-5.280987 3.423936 29.016411 29 27 40
-5.232656 3.430297 29.070311 35 22 28
-5.189798 3.440428 29.156168 24 32 15
-5.143919 3.448764 29.226812 26 40 37
-5.097366 3.456835 29.295208 39 42 42
-5.053126 3.466679 29.378637 44 28 20
-5.002985 3.472660 29.429323 18 38 21
-4.956218 3.481153 29.501299 36 36 35
-4.905595 3.487110 29.551779 40 42 42
-4.854652 3.492982 29.601540 36 42 42
-4.807130 3.501490 29.673641 20 23 21
-4.755922 3.507492 29.724512 16 25 43
-4.708498 3.516473 29.800621 28 26 21
-4.657655 3.523098 29.856762 37 24 38
-4.606873 3.529942 29.914761 27 38 35
-4.559073 3.539280 29.993900 25 19 24
-4.507244 3.545698 30.048290 16 25 27
-4.460556 3.556389 30.138893 37 23 27
-4.411175 3.565196 30.213526 32 20 19
-4.362088 3.574489 30.292278 34 29 38
-4.315770 3.586344 30.392750 18 30 32
-4.264286 3.594184 30.459185 20 39 21
-4.217612 3.606364 30.562407 25 25 43
-4.167790 3.616171 30.645514 29 44 38
-4.117248 3.625636 30.725729 38 42 35
-4.069296 3.637704 30.827997 35 15 37
-4.016112 3.645394 30.893167 36 38 42
-3.962897 3.653296 30.960135 44 36 28
-3.904178 3.656293 30.985537 25 44 40
-3.844365 3.658348 31.002945 35 32 20
-3.788056 3.663858 31.049643 22 26 41
-9.458341 3.101096 25.842463 35 37 20
-9.390469 3.095759 25.797993 38 40 28
-9.329262 3.092573 25.771442 43 21 15
-9.277134 3.092378 25.769815 38 39 19
-9.232643 3.094741 25.789507 19 35 37
-9.191669 3.098316 25.819296 36 26 42
-9.154656 3.103273 25.860611 42 29 34
-9.119000 3.108750 25.906250 29 17 41
-9.077987 3.112453 25.937107 27 24 26
-9.038813 3.116832 25.973600 42 38 39
-8.994478 3.119472 25.995602 20 29 15
-8.947947 3.121377 26.011473 29 34 30
-8.903181 3.123923 26.032692 40 17 43
-8.855004 3.125296 26.044130 26 37 29
-8.809399 3.127597 26.063311 40 19 26
-8.762243 3.129372 26.078104 20 28 27
-8.715824 3.131434 26.095282 27 34 33
-8.671793 3.134383 26.119860 35 33 43
-8.625558 3.136566 26.138054 36 19 37
-8.584697 3.140743 26.172857 21 33 43
-8.542121 3.144339 26.202824 24 41 34
-8.501327 3.148640 26.238665 30 16 34
-8.464336 3.154411 26.286757 39 41 35
-8.422902 3.158588 26.321568 38 21 24
-8.388347 3.165414 26.378448 41 38 35
-8.350009 3.170889 26.424078 28 27 40
-8.312457 3.176735 26.472794 35 19 42
-8.279817 3.184545 26.537876 32 17 33
-8.240714 3.189954 26.582947 16 17 23
-8.206598 3.197376 26.644798 21 19 17
-8.166517 3.202556 26.687963 28 16 18
-8.125279 3.207347 26.727890 30 24 22
-8.088279 3.213885 26.782379 24 42 36
-8.045427 3.218171 26.818089 15 31 17
-8.006756 3.224197 26.868309 43 28 15
-7.963928 3.228619 26.905161 24 21 37
-7.919884 3.232606 26.938381 37 43 18
-7.878247 3.237636 26.980299 34 38 24
-7.831578 3.240653 27.005442 18 29 17
-7.788400 3.245167 27.043055 30 38 44
-7.742354 3.248540 27.071169 23 25 23
-7.696160 3.251898 27.099154 32 28 39
-7.652794 3.256508 27.137566 30 30 40
-7.605855 3.259652 27.163767 34 42 41
-7.562048 3.264193 27.201612 34 18 43
-7.515444 3.267584 27.229868 22 35 21
-7.468203 3.270746 27.256216 21 33 22
-7.422700 3.274720 27.289337 22 26 25
-7.373575 3.277144 27.309536 26 34 22
-7.327286 3.280874 27.340618 38 28 22
-7.279580 3.284021 27.366840 19 16 23
-7.230866 3.286757 27.389645 37 31 35
-7.182489 3.289690 27.414082 30 41 18
-7.130729 3.291106 27.425882 33 38 18
-7.078873 3.292499 27.437490 38 43 39
-7.025122 3.293026 27.441881 19 26 19
-6.970631 3.293211 27.443428 22 43 16
-6.917210 3.293910 27.449247 15 16 37
-6.863456 3.294459 27.453825 44 43 32
-6.810259 3.295286 27.460720 31 43 28
-6.756944 3.296070 27.467251 21 43 29
-6.703098 3.296605 27.471712 37 16 19
-6.648801 3.296926 27.474386 34 43 32
-6.593672 3.296836 27.473635 33 23 38
-6.537296 3.296116 27.467630 25 26 25
-6.480417 3.295127 27.459394 15 42 21
-6.423136 3.293916 27.449301 43 31 44
-6.365684 3.292595 27.438292 34 15 27
-6.309170 3.291741 27.431173 30 35 40
-6.253330 3.291226 27.426886 30 35 40
-6.197653 3.290789 27.423244 30 35 40
-6.144299 3.291589 27.429905 30 35 40
-6.093146 3.293592 27.446604 30 35 40
-6.042469 3.295892 27.465769 30 35 40
-5.999146 3.302282 27.519018 30 35 40
-5.955924 3.308847 27.573723 120 120 120
-5.915768 3.317253 27.643776 120 120 120
-5.879397 3.327960 27.733004 120 120 120
-5.837420 3.335669 27.797239 33 17 36
-5.801579 3.347065 27.892206 25 34 34
-5.760023 3.355353 27.961279 26 25 27
-5.718679 3.363929 28.032740 33 20 25
-5.683235 3.376179 28.134827 15 44 23
-5.641584 3.384950 28.207920 35 37 28
-5.605031 3.396988 28.308237 24 22 18
-5.561917 3.405255 28.377127 26 41 44
-5.517874 3.413118 28.442648 29 41 17
-5.478521 3.424075 28.533962 15 37 36
-5.433138 3.431455 28.595461 35 22 23
-5.393987 3.442971 28.691422 24 32 18
-5.351069 3.452303 28.769190 37 18 33
-5.307337 3.461307 28.844223 30 33 21
-5.265877 3.472007 28.933388 44 34 17
-5.217452 3.478301 28.985844 21 28 25
-5.174368 3.488338 29.069485 20 38 16
-5.128314 3.496578 29.138147 27 36 37
-5.081690 3.504613 29.205112 15 20 40
-5.037484 3.514523 29.287695 40 23 20
-4.987573 3.520640 29.338663 28 37 22
-4.941106 3.529362 29.411346 33 36 42
-4.890793 3.535513 29.462608 20 17 18
-4.840186 3.541599 29.513329 18 40 23
-4.792961 3.550342 29.586182 33 28 21
-4.741982 3.556486 29.637384 17 22 34
-4.694952 3.565787 29.714888 16 16 44
-4.644592 3.572763 29.773027 22 36 18
-4.594283 3.579960 29.833004 38 16 41
-4.546865 3.589630 29.913584 31 21 20
-4.495250 3.596200 29.968336 20 32 34
-4.448741 3.607087 30.059059 30 28 32
-4.399500 3.616028 30.133564 19 17 28
-4.350492 3.625410 30.211750 26 18 34
-4.304258 3.637401 30.311674 38 44 17
-4.252876 3.645322 30.377687 25 29 20
-4.206115 3.657491 30.479094 32 33 23
-4.156058 3.667110 30.559252 34 27 26
-4.105388 3.676467 30.637226 25 30 27
-4.057662 3.688783 30.739862 25 42 18
-4.004976 3.696901 30.807505 15 34 21
-3.952098 3.705092 30.875763 19 40 43
-3.893453 3.708051 30.900423 39 33 27
-3.833620 3.709954 30.916286 24 36 31
-3.777320 3.715397 30.961639 42 26 36
-9.420606 3.140202 25.739361 39 38 25
-9.353721 3.135038 25.697037 42 22 41
-9.293154 3.131947 25.671696 42 21 38
-9.241132 3.131717 25.669811 15 16 22
-9.196738 3.134084 25.689213 18 42 18
-9.156289 3.137829 25.719913 44 16 25
-9.119170 3.142765 25.760368 28 26 23
-9.081855 3.147688 25.800724 15 15 36
-9.038725 3.150641 25.824928 36 38 35
-8.998186 3.154536 25.856855 32 17 20
-8.954311 3.157301 25.879513 37 20 36
-8.908755 3.159500 25.897545 39 19 18
-8.864179 3.162075 25.918652 23 20 44
-8.815909 3.163356 25.929144 40 17 44
-8.769991 3.165500 25.946718 19 31 37
-8.722617 3.167141 25.960169 16 43 35
-8.675943 3.169057 25.975876 40 24 23
-8.631540 3.171831 25.998615 44 36 34
-8.585138 3.173900 26.015570 15 41 18
-8.544153 3.178008 26.049246 29 30 29
-8.501625 3.181590 26.078604 42 44 30
-8.461128 3.185980 26.114592 33 29 18
-8.424622 3.191938 26.163424 35 39 44
-8.383793 3.196321 26.199354 33 18 32
-8.349958 3.203443 26.257729 40 23 39
-8.312213 3.209145 26.304470 44 26 28
-8.275186 3.215200 26.354095 16 42 19
-8.243060 3.223248 26.420065 31 25 42
-8.204300 3.228789 26.465483 43 43 35
-8.170439 3.236343 26.527401 19 34 26
-8.130519 3.241579 26.570322 35 23 34
-8.089368 3.246391 26.609762 44 37 26
-8.052460 3.252980 26.663774 37 29 26
-8.009744 3.257296 26.699148 25 30 20
-7.971124 3.263346 26.748739 35 34 33
-7.928346 3.267764 26.784952 23 32 31
-7.884372 3.271746 26.817591 16 34 39
-7.842807 3.276789 26.858927 29 40 39
-7.796302 3.279823 26.883799 40 21 17
-7.753343 3.284402 26.921329 32 17 37
-7.707648 3.287878 26.949818 26 23 29
-7.661766 3.291322 26.978050 33 27 38
-7.618516 3.295954 27.016014 37 33 43
-7.571615 3.299061 27.041483 18 25 22
-7.527781 3.303559 27.078350 44 15 40
-7.481260 3.306934 27.106016 29 15 16
-7.434100 3.310074 27.131752 16 20 37
-7.388537 3.313976 27.163740 21 17 43
-7.339404 3.316323 27.182978 35 17 19
-7.293311 3.320089 27.213846 23 40 25
-7.245998 3.323353 27.240595 17 42 26
-7.197873 3.326290 27.264669 37 33 44
-7.150181 3.329474 27.290768 24 43 17
-7.099038 3.331087 27.303993 30 25 33
-7.047979 3.332765 27.317749 23 23 15
-6.994827 3.333472 27.323542 24 15 29
-6.941017 3.333874 27.326838 40 38 22
-6.888596 3.334955 27.335699 29 27 16
-6.835700 3.335822 27.342800 34 32 28
-6.783612 3.337100 27.353275 36 28 16
-6.731170 3.338222 27.362478 38 21 21
-6.678105 3.339052 27.369282 43 20 19
-6.624628 3.339689 27.374496 42 22 26
-6.569989 3.339745 27.374956 32 24 42
-6.514312 3.339269 27.371058 23 31 23
-6.458075 3.338496 27.364725 30 22 36
-6.401397 3.337481 27.356398 27 41 18
-6.344593 3.336381 27.347383 31 44 39
-6.288513 3.335646 27.341360 23 24 38
-6.233113 3.335262 27.338215 30 35 40
-6.177765 3.334899 27.335241 30 35 40
-6.124630 3.335736 27.342096 30 35 40
-6.073658 3.337776 27.358822 30 35 40
-6.023083 3.340073 27.377651 30 35 40
-5.979917 3.346559 27.430813 40 22 40
-5.937008 3.353310 27.486147 120 120 120
-5.897053 3.361871 27.556322 120 120 120
-5.860637 3.372631 27.644516 120 120 120
-5.818516 3.380281 27.707218 34 36 25
-5.782097 3.391422 27.798544 35 29 35
-5.739856 3.399332 27.863380 27 24 16
-5.697866 3.407547 27.930716 44 39 30
-5.661989 3.419617 28.029648 32 30 26
-5.620394 3.428440 28.101971 15 25 32
-5.583685 3.440452 28.200430 39 18 31
-5.540421 3.448629 28.267452 38 40 19
-5.496193 3.456369 28.330891 20 17 40
-5.456533 3.467172 28.419443 42 31 23
-5.411010 3.474438 28.478998 44 39 38
-5.371563 3.485801 28.572142 23 40 37
-5.328493 3.495033 28.647812 28 39 20
-5.284633 3.503941 28.720831 18 16 36
-5.242935 3.514495 28.807337 25 29 24
-5.194451 3.520683 28.858059 37 32 20
-5.151165 3.530573 28.939127 19 36 30
-5.104945 3.538655 29.005367 24 44 20
-5.058301 3.546625 29.070694 33 35 40
-5.014243 3.556614 29.152576 41 23 21
-4.964704 3.562905 29.204142 26 34 23
-4.918782 3.571973 29.278467 26 35 44
-4.869043 3.578454 29.331587 20 36 40
-4.819032 3.584890 29.384342 31 15 38
-4.772331 3.593977 29.458832 24 25 29
-4.721693 3.600291 29.510582 37 40 15
-4.675224 3.609983 29.590023 36 15 31
-4.625533 3.617404 29.650852 23 29 15
-4.575833 3.625011 29.713202 34 43 17
-4.528879 3.635022 29.795259 34 28 16
-4.477492 3.641694 29.849949 34 27 37
-4.431091 3.652656 29.939806 44 33 27
-4.381936 3.661618 30.013260 28 34 32
-4.332924 3.670949 30.089748 37 21 28
-4.286655 3.682901 30.187714 41 18 40
-4.235324 3.690782 30.252314 30 20 36
-4.188347 3.702741 30.350338 33 15 33
-4.137947 3.711982 30.426081 18 26 42
-4.087080 3.721073 30.500597 30 21 41
-4.039540 3.733514 30.602575 30 44 41
-3.987406 3.742027 30.672356 39 36 23
-3.934926 3.750476 30.741610 21 24 28
-3.876432 3.753371 30.765333 23 24 32
-3.816685 3.755126 30.779720 18 35 31
-3.760526 3.760526 30.823982 34 28 33
-9.391837 3.181934 25.660757 43 15 23
-9.325900 3.176955 25.620604 41 15 39
-9.265841 3.173935 25.596247 43 33 37
-9.213811 3.173646 25.593920 37 43 44
-9.169611 3.176066 25.613438 22 16 19
-9.129858 3.180063 25.645670 20 38 42
-9.093008 3.185121 25.686462 42 37 41
-9.054718 3.189730 25.723631 39 38 27
-9.010114 3.192155 25.743183 21 25 34
-8.968629 3.195718 25.771921 30 26 37
-8.925085 3.198585 25.795044 43 31 19
-8.880222 3.201010 25.814598 38 32 23
-8.835827 3.203633 25.835751 33 15 16
-8.787542 3.204868 25.845713 24 39 41
-8.741389 3.206900 25.862099 26 22 30
-8.693824 3.208435 25.874477 23 38 20
-8.646863 3.210213 25.888811 34 31 32
-8.602005 3.212797 25.909655 38 15 23
-8.555296 3.214717 25.925138 23 18 24
-8.514013 3.218712 25.957357 38 17 26
-8.471403 3.222251 25.985899 35 37 32
-8.431043 3.226696 26.021738 20 34 31
-8.394812 3.232785 26.070845 17 32 25
-8.354393 3.237327 26.107477 29 22 39
-8.321050 3.244686 26.166824 44 18 15
-8.283721 3.250574 26.214308 42 30 28
-8.247065 3.256803 26.264538 22 18 39
-8.215315 3.265061 26.331137 16 33 34
-8.176815 3.270726 26.376823 36 22 26
-8.143151 3.278412 26.438803 37 23 42
-8.103349 3.283710 26.481533 31 41 20
-8.062259 3.288553 26.520590 27 24 42
-8.025447 3.295217 26.574329 24 18 22
-7.982865 3.299584 26.609549 16 25 38
-7.944338 3.305698 26.658852 40 36 44
-7.901641 3.310147 26.694733 35 19 20
-7.857776 3.314164 26.727131 32 15 18
-7.816367 3.319279 26.768379 36 15 17
-7.770067 3.322373 26.793333 31 20 34
-7.727421 3.327084 26.831322 21 31 36
-7.682152 3.330723 26.860670 34 22 38
-7.636607 3.334293 26.889460 36 29 29
-7.593429 3.338954 26.927052 17 25 29
-7.546431 3.341991 26.951540 21 42 38
-7.502512 3.346444 26.987452 40 18 30
-7.456044 3.349817 27.014652 39 22 44
-7.409027 3.352990 27.040243 40 15 39
-7.363625 3.356947 27.072151 22 18 41
-7.314714 3.359350 27.091534 39 31 37
-7.268923 3.363233 27.122847 21 35 20
-7.221870 3.366586 27.149889 37 22 16
-7.174107 3.369656 27.174648 37 22 30
-7.126930 3.373051 27.202024 31 32 27
-7.076288 3.374845 27.216494 44 39 35
-7.025917 3.376797 27.232237 37 39 36
-6.973301 3.377693 27.239456 20 24 30
-6.920123 3.378328 27.244577 41 23 22
-6.868606 3.379790 27.256372 27 40 25
-6.816466 3.380967 27.265863 39 25 37
-6.765384 3.382692 27.279774 42 36 18
-6.713758 3.384171 27.291698 29 23 28
-6.661399 3.385301 27.300817 43 25 22
-6.608609 3.386229 27.308302 30 24 39
-6.554331 3.386404 27.309713 16 38 36
-6.499157 3.386115 27.307383 29 25 31
-6.443383 3.385506 27.302469 40 17 34
-6.387127 3.384632 27.295416 20 31 16
-6.330758 3.383681 27.287750 37 34 28
-6.274953 3.383018 27.282404 23 36 37
-6.219808 3.382702 27.279858 30 35 40
-6.164646 3.382372 27.277197 30 35 40
-6.111602 3.383208 27.283937 30 35 40
-6.060675 3.385242 27.300339 30 35 40
-6.010109 3.387516 27.318676 30 35 40
-5.966844 3.393985 27.370844 16 33 28
-5.923926 3.400772 27.425583 120 120 120
-5.883824 3.409319 27.494507 120 120 120
-5.847005 3.419946 27.580214 120 120 120
-5.804516 3.427429 27.640553 36 39 25
-5.767452 3.438289 27.728136 34 27 41
-5.724695 3.445933 27.789783 22 25 25
-5.682254 3.453919 27.854187 33 30 42
-5.645945 3.465828 27.950224 31 26 37
-5.604256 3.474639 28.021278 19 17 36
-5.567289 3.486585 28.117622 18 24 35
-5.523838 3.494673 28.182846 16 34 31
-5.479440 3.502323 28.244537 23 27 17
-5.439526 3.513027 28.330862 32 16 26
-5.393913 3.520238 28.389017 29 15 44
-5.354257 3.531532 28.480093 34 17 25
-5.311078 3.540719 28.554184 36 15 20
-5.267134 3.549590 28.625727 41 29 21
-5.225288 3.560086 28.710375 42 18 42
-5.176790 3.566233 28.759945 31 34 38
-5.133399 3.576076 28.839319 40 37 25
-5.087080 3.584079 28.903862 37 43 34
-5.040458 3.592051 28.968151 16 24 33
-4.996554 3.602167 29.049734 27 16 15
-4.947326 3.608638 29.101915 43 19 19
-4.901870 3.618047 29.177797 40 26 36
-4.852622 3.624850 29.232660 41 39 22
-4.803117 3.631625 29.287298 24 23 22
-4.756869 3.641060 29.363386 29 21 38
-4.706525 3.647557 29.415779 32 27 43
-4.660498 3.657606 29.496824 28 27 40
-4.611323 3.665410 29.559761 30 28 17
-4.562071 3.673355 29.623835 39 22 29
-4.515420 3.683632 29.706711 17 27 29
-4.464158 3.690371 29.761055 40 15 32
-4.417757 3.701364 29.849710 26 18 41
-4.368607 3.710323 29.921963 15 26 29
-4.319522 3.719588 29.996681 29 22 19
-4.273113 3.731451 30.092344 42 32 15
-4.221736 3.739252 30.155258 44 18 37
-4.174508 3.751007 30.250055 38 32 33
-4.123813 3.759947 30.322155 26 42 32
-4.072773 3.768835 30.393831 38 41 36
-4.025317 3.781358 30.494825 35 35 16
-3.973557 3.790162 30.565823 44 30 19
-3.921360 3.798818 30.635626 35 22 29
-3.862995 3.801677 30.658688 29 27 17
-3.803362 3.803362 30.672272 35 17 26
-3.747387 3.808819 30.716284 24 17 17
-9.364199 3.223741 25.585243 25 31 17
-9.300338 3.219348 25.550379 29 34 25
-9.241449 3.216637 25.528864 21 20 29
-9.189414 3.216295 25.526150 30 41 39
-9.145177 3.218694 25.545187 21 28 29
-9.105641 3.222783 25.577642 22 15 20
-9.068665 3.227830 25.617697 35 15 22
-9.029554 3.232170 25.652142 16 32 29
-8.983979 3.234233 25.668512 29 32 15
-8.941867 3.237572 25.695019 21 31 30
-8.898585 3.240525 25.718452 16 23 24
-8.854216 3.243114 25.739000 24 24 24
-8.809925 3.245762 25.760014 15 29 40
-8.761605 3.246948 25.769426 31 22 40
-8.715187 3.248857 25.784578 29 16 16
-8.667387 3.250270 25.795795 29 29 23
-8.620094 3.251892 25.808664 30 41 33
-8.574722 3.254262 25.827475 40 30 31
-8.527666 3.256018 25.841413 34 44 38
-8.486027 3.259876 25.872034 26 19 41
-8.443307 3.263364 25.899714 22 29 25
-8.403020 3.267841 25.935246 38 40 26
-8.366936 3.274018 25.984272 28 18 21
-8.326802 3.278678 26.021257 41 15 30
-8.293745 3.286201 26.080959 24 38 28
-8.256645 3.292207 26.128624 40 20 25
-8.220178 3.298543 26.178909 35 41 40
-8.188564 3.306920 26.245398 30 43 28
-8.150167 3.312649 26.290861 35 20 15
-8.116516 3.320393 26.352325 37 34 18
-8.076701 3.325701 26.394449 22 20 19
-8.035610 3.330549 26.432926 26 35 35
-7.998828 3.337259 26.486185 18 33 33
-7.956382 3.341680 26.521273 18 32 20
-7.917990 3.347875 26.570436 44 17 20
-7.875434 3.352381 26.606197 41 21 37
-7.831762 3.356470 26.638647 37 33 41
-7.790566 3.361683 26.680021 35 24 35
-7.744501 3.364852 26.705177 41 29 37
-7.702157 3.369694 26.743601 20 24 33
-7.657271 3.373483 26.773674 16 21 33
-7.612009 3.377159 26.802847 36 24 39
-7.568878 3.381839 26.839993 42 34 43
-7.521769 3.384796 26.863462 18 27 25
-7.477766 3.389203 26.898438 44 33 31
-7.431355 3.392575 26.925198 38 43 31
-7.384505 3.395794 26.950747 36 15 39
-7.339361 3.399851 26.982944 41 41 33
-7.290770 3.402359 27.002851 35 20 22
-7.245336 3.406389 27.034836 43 40 29
-7.198520 3.409825 27.062107 19 28 36
-7.151048 3.413000 27.087303 19 27 36
-7.104331 3.416587 27.115767 39 34 44
-7.054140 3.418545 27.131308 16 42 36
-7.004405 3.420756 27.148855 40 18 41
-6.952293 3.421832 27.157394 18 43 27
-6.899721 3.422696 27.164257 43 25 33
-6.849046 3.424523 27.178753 26 17 27
-6.797618 3.425999 27.190472 24 34 33
-6.747521 3.428176 27.207745 19 36 16
-6.696741 3.430038 27.222523 41 25 29
-6.645107 3.431489 27.234043 37 21 30
-6.592977 3.432707 27.243708 26 26 33
-6.538999 3.432974 27.245829 19 36 44
-6.484259 3.432843 27.244787 37 29 43
-6.428909 3.432383 27.241138 39 40 43
-6.373034 3.431634 27.235188 16 33 17
-6.317054 3.430814 27.228682 43 26 30
-6.261490 3.430208 27.223869 41 34 33
-6.206600 3.429963 27.221928 40 43 20
-6.151650 3.429681 27.219690 34 39 19
-6.098744 3.430544 27.226536 30 35 40
-6.047923 3.432605 27.242895 43 36 16
-5.997414 3.434883 27.260973 30 35 40
-5.954044 3.441328 27.312126 21 37 36
-5.911035 3.448104 27.365904 120 120 120
-5.870690 3.456575 27.433132 120 120 120
-5.833399 3.467020 27.516033 120 120 120
-5.790519 3.474311 27.573898 22 33 34
-5.752857 3.484904 27.657967 24 21 22
-5.709697 3.492339 27.716976 28 20 43
-5.666909 3.500150 27.778965 21 42 37
-5.630179 3.511894 27.872173 15 41 36
-5.588325 3.520645 27.941624 31 31 44
-5.551043 3.532482 28.035570 28 33 15
-5.507388 3.540464 28.098921 18 23 25
-5.462831 3.548024 28.158920 30 23 25
-5.422682 3.558635 28.243135 29 32 25
-5.377012 3.565808 28.300064 18 21 20
-5.337170 3.577040 28.389204 18 30 19
-5.293862 3.586165 28.461626 16 20 28
-5.249833 3.594994 28.531700 37 16 20
-5.207898 3.605468 28.614824 32 23 16
-5.159458 3.611621 28.663658 21 40 44
-5.116073 3.621490 28.741983 31 22 16
-5.069762 3.629489 28.805468 29 25 15
-5.023237 3.637517 28.869179 37 25 28
-4.979535 3.647799 28.950785 40 25 23
-4.930616 3.654457 29.003626 20 38 37
-4.885661 3.664246 29.081316 21 40 44
-4.836968 3.671433 29.138359 38 42 26
-4.788013 3.678596 29.195204 15 23 26
-4.742215 3.688390 29.272934 15 34 35
-4.692115 3.695041 29.325722 20 16 32
-4.646438 3.705387 29.407837 42 39 40
-4.597679 3.713510 29.472300 33 16 43
-4.548757 3.721711 29.537386 18 21 17
-4.502304 3.732173 29.620422 24 44 35
-4.451101 3.738925 29.674009 25 33 15
-4.404602 3.749864 29.760826 17 32 25
-4.355360 3.758735 29.831232 29 24 43
-4.306130 3.767864 29.903681 15 42 23
-4.259527 3.779580 29.996666 33 22 26
-4.208093 3.787284 30.057808 30 20 20
-4.160633 3.798838 30.149511 21 21 32
-4.109732 3.807546 30.218616 21 30 20
-4.058555 3.816253 30.287722 38 20 40
-4.011025 3.828706 30.386557 20 38 43
-3.959410 3.837582 30.457003 33 37 19
-3.907355 3.846303 30.526211 17 33 33
-3.849158 3.849158 30.548874 42 22 18
-3.789747 3.850872 30.562479 33 28 41
-3.734021 3.856447 30.606726 25 30 28
-9.329772 3.262871 25.491180 40 36 24
-9.269795 3.259708 25.466469 43 35 19
-9.213141 3.257685 25.450665 44 26 33
-9.161123 3.257288 25.447565 40 30 22
-9.116417 3.259501 25.464851 18 26 25
-9.076315 3.263394 25.495268 16 27 17
-9.038445 3.268138 25.532330 41 26 36
-8.998354 3.272129 25.563505 35 29 43
-8.952159 3.273932 25.577597 17 15 30
-8.909590 3.277091 25.602270 24 35 34
-8.866440 3.280070 25.625549 20 26 41
-8.822319 3.282723 25.646276 15 17 38
-8.777905 3.285298 25.666389 40 17 21
