ply
format ascii 1.0
element vertex 1291
property float x
property float y
property float z
property uchar red
property uchar green
property uchar blue
end_header
8.057307 1.295930 28.172401 18 15 18
8.095435 1.293021 28.109150 40 36 28
8.138933 1.291003 28.065287 43 17 35
8.175870 1.287980 27.999556 21 26 15
8.217994 1.285809 27.952360 31 16 36
8.258803 1.283463 27.901361 28 31 42
8.292676 1.280078 27.827772 40 31 28
8.332226 1.277608 27.774088 16 31 31
8.362303 1.273728 27.689745 15 24 26
8.397536 1.270680 27.623474 27 40 26
8.431998 1.267555 27.555550 38 16 22
8.461345 1.263707 27.471899 35 36 15
8.499948 1.261283 27.419188 35 42 17
8.524536 1.256823 27.322229 20 28 33
8.552683 1.252941 27.237844 19 40 35
8.577874 1.248678 27.145172 40 24 38
8.595320 1.243348 27.029308 20 26 37
8.624718 1.239803 26.952244 20 25 19
8.639161 1.234166 26.829693 21 38 21
8.662765 1.229899 26.736929 19 41 38
8.682941 1.225200 26.634789 30 25 28
8.689205 1.218608 26.491480 30 23 39
8.708026 1.213846 26.387957 20 38 34
8.708315 1.206574 26.229864 28 37 25
8.719476 1.200886 26.106215 44 17 33
5.845040 1.594102 33.210453 32 33 30
5.869290 1.582730 32.973537 17 43 25
5.908605 1.575628 32.825581 22 41 44
5.943795 1.567594 32.658215 35 35 17
5.992232 1.563191 32.566479 40 26 21
6.045351 1.560091 32.501888 40 40 22
6.091689 1.555325 32.402599 42 30 26
6.144881 1.552391 32.341476 27 30 23
6.189004 1.547251 32.234394 29 35 24
6.236727 1.543108 32.148079 32 16 42
6.281457 1.538316 32.048252 27 42 26
6.318216 1.531689 31.910181 40 20 35
6.361954 1.526869 31.809769 40 24 35
6.392391 1.518984 31.645500 42 28 35
6.429323 1.512782 31.516287 37 43 41
6.463308 1.506013 31.375280 34 24 29
6.486471 1.496878 31.184958 37 41 44
6.520702 1.490446 31.050961 120 120 120
6.542528 1.481327 30.860979 120 120 120
6.573841 1.474507 30.718885 120 120 120
6.607728 1.468384 30.591331 36 20 16
6.635482 1.461024 30.437990 16 37 44
6.676881 1.456774 30.349459 23 38 17
6.711755 1.451190 30.233130 16 36 15
6.754946 1.447488 30.156010 31 17 31
6.799877 1.444222 30.087952 23 29 25
6.837623 1.439500 29.989576 16 33 38
6.882396 1.436326 29.923460 26 26 37
6.921299 1.431993 29.833183 33 31 37
6.966748 1.429077 29.772429 21 38 26
7.012367 1.426244 29.713419 33 15 33
7.051675 1.422186 29.628885 30 23 42
7.096853 1.419371 29.570221 38 26 42
7.133169 1.414843 29.475904 38 44 34
7.173148 1.411111 29.398148 39 32 32
7.213082 1.407431 29.321470 31 44 26
7.248952 1.403023 29.229647 18 19 30
7.293448 1.400342 29.173792 40 21 17
7.332340 1.396636 29.096588 30 16 23
7.377046 1.394087 29.043488 24 32 28
7.422109 1.391646 28.992615 31 44 26
7.461361 1.388160 28.920002 18 30 24
7.506178 1.385756 28.869915 27 23 24
7.544013 1.382109 28.793941 30 28 20
7.586593 1.379381 28.737095 18 21 42
7.628399 1.376553 28.678190 37 29 20
7.664171 1.372687 28.597652 15 30 44
7.706291 1.370007 28.541819 25 32 27
7.740913 1.366044 28.459240 36 23 25
7.780417 1.362993 28.395681 40 41 22
7.820707 1.360123 28.335896 41 27 38
7.857022 1.356608 28.262671 18 30 24
7.901181 1.354488 28.218502 43 41 22
7.939925 1.351477 28.155762 40 27 25
7.983605 1.349342 28.111284 30 23 40
8.027405 1.347257 28.067850 41 29 44
8.066036 1.344339 28.007069 18 41 23
8.109979 1.342341 27.965445 32 15 18
8.146862 1.339210 27.900211 21 37 22
8.188404 1.336882 27.851713 26 30 41
8.228186 1.334300 27.797924 27 34 26
8.260814 1.330601 27.720854 26 39 31
8.299293 1.327887 27.664310 27 31 27
8.328114 1.323674 27.576536 39 32 38
8.362344 1.320370 27.507711 24 37 37
8.396145 1.317042 27.438381 29 21 42
8.424993 1.312986 27.353872 32 28 23
8.463466 1.310472 27.301504 20 30 33
8.488495 1.305922 27.206715 23 20 37
8.517237 1.301998 27.124960 39 18 42
8.543329 1.297721 27.035851 31 26 18
8.562072 1.292388 26.924753 29 18 31
8.592435 1.288865 26.851360 32 27 35
8.607345 1.283083 26.730886 42 39 25
8.630500 1.278593 26.637346 28 29 41
8.649812 1.273592 26.533165 35 31 16
8.655495 1.266658 26.388704 38 39 19
8.673927 1.261662 26.284626 33 34 20
8.673831 1.254048 26.125996 18 40 42
8.684634 1.248091 26.001898 19 40 34
8.696096 1.242299 25.881237 41 33 42
5.791630 1.664261 33.285229 42 32 20
5.820959 1.653682 33.073631 28 42 28
5.844149 1.641615 32.832298 25 30 15
5.884444 1.634568 32.691353 15 29 41
5.920608 1.626541 32.530815 39 17 28
5.969118 1.622043 32.440861 42 15 21
6.022411 1.618928 32.378551 25 26 23
6.069447 1.614215 32.284290 32 30 24
6.123264 1.611385 32.227707 21 36 42
6.168858 1.606474 32.129471 43 44 34
6.218077 1.602597 32.051941 44 25 15
6.264294 1.598034 31.960684 37 27 27
6.302476 1.591534 31.830688 16 28 23
6.346766 1.586691 31.733828 35 28 21
6.378062 1.578728 31.574564 36 29 42
6.415734 1.572484 31.449678 42 38 27
6.450131 1.565566 31.311317 43 38 25
6.473424 1.556112 31.122231 32 36 24
6.507318 1.549361 30.987226 120 120 120
6.528585 1.539761 30.795214 120 120 120
6.559362 1.532561 30.651222 120 120 120
6.592612 1.526068 30.521351 31 31 25
6.619660 1.518271 30.365414 39 29 17
6.660537 1.513758 30.275167 30 35 40
6.694694 1.507814 30.156279 38 27 30
6.737346 1.503872 30.077438 42 22 19
6.781647 1.500364 30.007288 37 20 32
6.818394 1.495262 29.905237 17 32 28
6.862272 1.491798 29.835966 29 42 21
6.900390 1.487153 29.743059 29 44 33
6.945470 1.484075 29.681496 15 27 29
6.990996 1.481143 29.622864 15 16 22
7.030202 1.476933 29.538666 42 41 40
7.075362 1.474034 29.480677 44 33 25
7.111784 1.469377 29.387537 40 33 40
7.151832 1.465539 29.310787 16 40 39
7.191881 1.461764 29.235289 34 18 23
7.227920 1.457242 29.144838 40 38 32
7.272476 1.454495 29.089903 28 31 39
7.311511 1.450697 29.013933 31 25 41
7.356274 1.448085 28.961708 22 27 36
7.401366 1.445579 28.911587 30 21 39
7.440682 1.441993 28.839853 38 23 26
7.485472 1.439514 28.790276 35 28 25
7.523372 1.435758 28.715160 40 29 37
7.565970 1.432949 28.658976 23 30 34
7.607848 1.430047 28.600933 30 22 30
7.643848 1.426091 28.521822 41 40 42
7.686127 1.423357 28.467138 25 28 19
7.721098 1.419320 28.386391 22 24 20
7.760825 1.416209 28.324179 40 32 28
7.801383 1.413294 28.265879 21 24 24
7.838181 1.409745 28.194895 34 42 42
7.882690 1.407623 28.152464 41 28 40
7.921929 1.404597 28.091946 30 29 22
7.965868 1.402442 28.048830 40 31 35
8.009926 1.400337 28.006735 23 21 21
8.049218 1.397434 27.948673 42 24 43
8.093726 1.395470 27.909401 34 28 20
8.130481 1.392206 27.844112 31 22 23
8.171127 1.389647 27.792950 38 43 20
8.209628 1.386762 27.735231 40 28 44
8.241144 1.382742 27.654844 41 25 29
8.278966 1.379828 27.596554 16 23 43
8.306801 1.375298 27.505962 39 33 43
8.340163 1.371737 27.434748 27 27 41
8.373136 1.368159 27.363190 33 37 21
8.400883 1.363780 27.275595 39 32 24
8.438540 1.361055 27.221098 17 23 19
8.463527 1.356334 27.126688 15 40 43
8.492939 1.352379 27.047577 42 19 25
8.520210 1.348134 26.962688 21 27 24
8.540311 1.342816 26.856323 18 17 17
8.571663 1.339322 26.786448 22 31 44
8.586970 1.333380 26.667608 23 37 27
8.609523 1.328630 26.572603 20 25 32
8.627902 1.323298 26.465958 43 28 44
8.633139 1.316027 26.320545 34 41 28
8.651485 1.310831 26.216621 38 26 18
8.651363 1.302916 26.058321 29 30 23
8.662173 1.296733 25.934650 32 30 24
8.673648 1.290721 25.814428 39 40 32
8.675051 1.283292 25.665831 37 24 40
5.734412 1.733659 33.339603 38 16 22
5.760920 1.721654 33.108734 41 35 27
5.787803 1.710033 32.885242 43 33 30
5.810471 1.697441 32.643093 29 30 37
5.851853 1.690535 32.510292 28 37 20
5.889080 1.682594 32.357582 31 28 19
5.937653 1.678032 32.269855 27 19 25
5.991065 1.674921 32.210026 29 17 25
6.038905 1.670335 32.121834 20 40 31
6.093456 1.667683 32.070824 18 31 37
6.140470 1.663044 31.981615 17 15 29
6.191028 1.659451 31.912518 24 28 40
6.238326 1.655066 31.828196 43 44 42
6.277133 1.648540 31.702694 37 44 19
6.321152 1.643500 31.605761 38 39 16
6.352787 1.635371 31.449440 16 33 21
6.391166 1.629121 31.329245 32 42 44
6.426359 1.622188 31.195915 16 36 38
6.450497 1.612624 31.012005 29 23 27
6.484785 1.605756 30.879930 120 120 120
6.505920 1.595792 30.688301 120 120 120
6.535905 1.588164 30.541613 30 35 40
6.568090 1.581207 30.407824 30 35 40
6.594344 1.572963 30.249283 30 35 40
6.634784 1.568222 30.158110 30 35 40
6.668247 1.561932 30.037148 30 35 40
6.710169 1.557718 29.956110 30 35 40
6.753749 1.553960 29.883844 30 35 40
6.789755 1.548541 29.779629 30 32 17
6.833129 1.544881 29.709257 20 40 27
6.870844 1.540017 29.615705 42 20 22
6.915679 1.536818 29.554184 19 43 26
6.961137 1.533810 29.496344 16 17 40
7.000375 1.529494 29.413342 16 35 39
7.045564 1.526539 29.356516 32 23 18
7.082179 1.521790 29.265202 38 44 43
7.122334 1.517874 29.189892 30 42 18
7.162487 1.514022 29.115799 19 29 21
7.198700 1.509405 29.027018 38 33 25
7.243259 1.506598 28.973038 21 20 25
7.282347 1.502707 28.898203 34 36 26
7.327070 1.500030 28.846731 41 28 26
7.372065 1.497451 28.797131 31 23 43
7.411306 1.493752 28.725994 26 16 15
7.455918 1.491184 28.676609 32 33 36
7.493742 1.487308 28.602070 36 27 27
7.536238 1.484410 28.546354 27 21 41
7.578116 1.481436 28.489159 16 36 32
7.614282 1.477398 28.411499 24 29 27
7.656695 1.474623 28.358131 31 15 22
7.692023 1.470534 28.279495 17 19 25
7.731942 1.467376 28.218767 35 19 27
7.772824 1.464445 28.162407 23 27 30
7.810242 1.460909 28.094397 30 18 40
7.855242 1.458831 28.054436 15 34 20
7.895151 1.455843 27.996988 29 29 38
7.939459 1.453704 27.955843 32 38 35
7.983815 1.451603 27.915438 44 15 34
8.023715 1.448726 27.860123 44 18 38
8.068642 1.446791 27.822903 32 32 29
8.105387 1.443425 27.758173 33 39 29
8.145508 1.440702 27.705809 31 35 33
8.183171 1.437584 27.645847 35 42 43
8.213958 1.433308 27.563616 29 20 38
8.251259 1.430218 27.504198 44 15 37
8.278249 1.425394 27.411419 21 32 34
8.310809 1.421586 27.338188 25 16 15
8.342918 1.417751 27.264439 40 18 42
8.369496 1.413032 27.173689 36 21 41
8.406207 1.410073 27.116796 29 20 31
8.430847 1.405141 27.021946 17 43 44
8.460587 1.401116 26.944544 43 41 44
8.488668 1.396869 26.862873 32 21 41
8.509700 1.391523 26.760063 44 42 38
8.541711 1.388028 26.692848 17 35 44
8.557711 1.381991 26.576742 32 31 35
8.580511 1.377119 26.483059 32 29 34
8.598877 1.371600 26.376923 16 40 29
8.604176 1.364077 26.232244 40 36 30
8.622400 1.358681 26.128485 43 37 19
8.621976 1.350430 25.969809 17 43 21
8.632374 1.343962 25.845430 41 31 17
8.643309 1.337655 25.724134 33 26 18
8.644108 1.329863 25.574284 18 22 15
8.663446 1.324998 25.480722 29 40 43
5.690170 1.807466 33.471588 15 26 20
5.712513 1.793463 33.212284 43 44 30
5.738071 1.780781 32.977421 21 24 37
5.764418 1.768628 32.752377 19 18 35
5.787097 1.755636 32.511780 24 21 15
5.828910 1.748673 32.382835 40 25 30
5.866579 1.740633 32.233952 22 42 17
5.915106 1.735955 32.147316 33 34 26
5.968494 1.732789 32.088676 29 23 31
6.016747 1.728215 32.003975 25 28 31
6.071701 1.725641 31.956320 18 35 22
6.119477 1.721103 31.872274 41 28 44
6.170844 1.717658 31.808474 41 35 32
6.218574 1.713281 31.727421 27 19 41
6.256927 1.706435 31.600643 25 39 41
6.299791 1.700943 31.498953 18 30 24
6.330991 1.692443 31.341541 28 43 18
6.369756 1.686112 31.224295 21 19 19
6.405880 1.679211 31.096504 26 35 34
6.431316 1.669669 30.919790 40 28 19
6.466668 1.662857 30.793655 120 120 120
6.488208 1.652657 30.604755 30 35 40
6.517491 1.644601 30.455566 30 35 40
6.548601 1.637150 30.317598 30 35 40
6.574354 1.628510 30.157589 30 35 40
6.614689 1.623606 30.066769 30 35 40
6.647810 1.617035 29.945091 30 35 40
6.689123 1.612556 29.862156 30 35 40
6.732180 1.608574 29.788406 30 35 40
6.768012 1.602950 29.684265 30 35 40
6.811493 1.599220 29.615189 41 34 39
6.849344 1.594244 29.523035 29 27 15
6.894140 1.590955 29.462135 37 44 35
6.939552 1.587864 29.404881 18 22 27
6.978865 1.583440 29.322964 26 18 15
7.024081 1.580418 29.267006 19 16 20
7.060824 1.575556 29.176958 29 36 44
7.101039 1.571541 29.102617 23 27 25
7.141225 1.567586 29.029371 42 17 26
7.177485 1.562840 28.941473 23 32 35
7.221988 1.559949 28.887951 22 25 16
7.261008 1.555930 28.813522 41 36 36
7.305603 1.553160 28.762215 26 42 28
7.350409 1.550477 28.712536 26 22 37
7.389440 1.546627 28.641239 34 35 28
7.433832 1.543950 28.591663 27 35 19
7.471480 1.539923 28.517097 28 36 31
7.513805 1.536915 28.461384 30 29 40
7.555612 1.533846 28.404558 35 38 36
7.591815 1.529694 28.327669 15 44 15
7.634273 1.526855 28.275085 41 24 26
7.669816 1.522684 28.197853 30 38 43
7.709857 1.519461 28.138163 22 16 17
7.750964 1.516493 28.083204 18 37 43
7.788882 1.512948 28.017563 41 34 17
7.834284 1.510898 27.979586 19 21 31
7.874744 1.507930 27.924623 30 33 36
7.919369 1.505795 27.885101 35 31 22
7.963949 1.503683 27.845974 17 17 17
8.004139 1.500776 27.792149 15 28 24
8.049164 1.498810 27.755737 28 26 40
8.086081 1.495371 27.692057 42 43 39
8.126312 1.492588 27.640518 42 30 35
8.164000 1.489378 27.581081 30 26 22
8.194768 1.484958 27.499220 39 21 33
8.231945 1.481750 27.439816 34 31 41
8.258643 1.476711 27.346498 31 31 24
8.290881 1.472722 27.272636 36 20 18
8.322553 1.468686 27.197886 35 23 37
8.348544 1.463706 27.105661 15 24 34
8.384728 1.460566 27.047510 28 39 21
8.408936 1.455393 26.951719 37 39 43
8.438452 1.451199 26.874050 21 40 17
8.466511 1.446809 26.792755 37 29 20
8.487568 1.441285 26.690464 20 32 27
8.519623 1.437686 26.623823 25 19 21
8.536305 1.431554 26.510265 22 23 33
8.560194 1.426699 26.420351 16 43 20
8.579521 1.421148 26.317549 18 39 34
8.585276 1.413430 26.174622 42 30 28
8.603269 1.407808 26.070511 26 37 15
8.602253 1.399162 25.910400 24 24 23
8.611973 1.392355 25.784349 16 28 24
8.622086 1.385692 25.660969 31 26 36
8.622071 1.377491 25.509085 36 38 40
8.640875 1.372374 25.414337 21 25 35
8.648299 1.365521 25.287424 29 41 35
5.667914 1.867078 33.340672 42 35 37
5.689413 1.852367 33.077984 24 23 36
5.715413 1.839443 32.847198 43 38 23
5.742795 1.827253 32.629517 21 38 21
5.766438 1.814160 32.395721 44 26 39
5.808845 1.807196 32.271358 20 30 23
5.847067 1.799097 32.126740 32 28 30
5.895614 1.794317 32.041378 33 19 42
5.948907 1.791069 31.983374 20 23 36
5.997503 1.786490 31.901613 28 33 17
6.052791 1.783981 31.856796 43 24 19
6.100641 1.779354 31.774170 33 41 31
6.151780 1.775772 31.710207 19 16 22
6.198838 1.771097 31.626726 29 16 31
6.235982 1.763712 31.494860 21 26 37
6.277541 1.757711 31.387705 29 29 28
6.307989 1.748749 31.227669 42 29 24
6.346746 1.742244 31.111502 38 29 41
6.383533 1.735329 30.988026 40 38 25
6.410155 1.725811 30.818054 36 44 38
6.446677 1.719114 30.698460 30 35 40
6.468839 1.708750 30.513391 30 35 40
6.497618 1.700311 30.362701 30 35 40
6.527891 1.692416 30.221720 30 35 40
6.553378 1.683437 30.061367 30 35 40
6.593746 1.678408 29.971571 30 35 40
6.626803 1.671626 29.850464 30 35 40
6.667709 1.666927 29.766560 30 35 40
6.710545 1.662790 29.692678 30 35 40
6.746737 1.657093 29.590954 30 35 40
6.790802 1.653413 29.525227 30 35 40
6.829265 1.648443 29.436485 17 20 17
6.874236 1.645116 29.377077 36 15 17
6.919709 1.641965 29.320801 23 41 21
6.959271 1.637476 29.240635 27 21 42
7.004606 1.634408 29.185858 32 43 32
7.041552 1.629450 29.097324 27 34 28
7.081877 1.625349 29.024088 40 41 41
7.122100 1.621291 28.951628 17 39 19
7.158413 1.616416 28.864567 33 36 25
7.202847 1.613438 28.811388 23 43 22
7.241767 1.609282 28.737171 43 44 41
7.286204 1.606407 28.685844 27 29 34
7.330806 1.603614 28.635960 20 32 22
7.369598 1.599603 28.564335 32 20 32
7.413730 1.596803 28.514345 23 29 28
7.451131 1.592608 28.439432 38 24 37
7.493252 1.589478 28.383532 23 26 24
7.534931 1.586301 28.326807 31 39 17
7.571083 1.582017 28.250309 20 28 33
7.613523 1.579101 28.198235 21 33 22
7.649141 1.574823 28.121843 21 29 16
7.689190 1.571513 28.062737 15 17 44
7.730392 1.568485 28.008665 24 39 38
7.768643 1.564907 27.944759 32 37 27
7.814342 1.562868 27.908363 37 32 27
7.855195 1.559897 27.855301 29 39 15
7.900045 1.557755 27.817060 17 40 30
7.944740 1.555613 27.778812 30 35 40
7.984940 1.552627 27.725487 37 15 35
8.029767 1.550576 27.688850 18 35 27
8.066883 1.547073 27.626310 19 20 28
8.107597 1.544304 27.576860 29 25 28
8.145835 1.541104 27.519712 29 22 29
8.177082 1.536633 27.439871 43 28 43
8.214420 1.533358 27.381401 20 22 32
8.241208 1.528171 27.288769 36 31 40
8.273419 1.524051 27.215193 39 40 18
8.304846 1.519841 27.140020 24 42 18
8.330425 1.514623 27.046833 40 43 44
8.366144 1.511303 26.987562 26 42 23
8.389763 1.505855 26.890266 33 27 38
8.418804 1.501443 26.811478 28 20 30
8.446468 1.496842 26.729328 44 29 43
8.467001 1.491044 26.625790 23 27 18
8.498663 1.487266 26.558323 20 38 16
8.515893 1.481025 26.446873 21 20 33
8.541127 1.476244 26.361502 20 27 44
8.561915 1.470758 26.263544 38 38 16
8.568553 1.462924 26.123636 32 41 24
8.586593 1.457119 26.019979 23 32 39
8.585169 1.448101 25.858942 36 43 24
8.594187 1.440942 25.731100 40 41 40
8.603338 1.433890 25.605171 42 15 38
8.602372 1.425245 25.450804 41 26 16
8.620543 1.419854 25.354538 30 38 27
8.627094 1.412624 25.225420 24 26 28
5.600197 1.933401 33.334503 17 19 35
5.638343 1.923670 33.166725 33 16 42
5.658902 1.908234 32.900593 21 16 26
5.685634 1.895211 32.676060 41 28 37
5.714588 1.883216 32.469250 35 16 30
5.739790 1.870269 32.246010 17 17 38
5.783194 1.863474 32.128857 22 25 30
5.822421 1.855497 31.991323 32 43 32
5.871127 1.850681 31.908298 33 20 21
5.924432 1.847404 31.851786 33 38 16
5.973948 1.843026 31.776318 29 41 31
6.030167 1.840788 31.737720 15 27 29
6.077949 1.836047 31.655987 23 24 29
6.127709 1.831996 31.586130 19 31 33
6.172960 1.826692 31.494696 26 20 22
6.208868 1.818759 31.357920 36 33 40
6.249891 1.812468 31.249454 16 21 30
6.279973 1.803161 31.088976 21 16 15
6.318453 1.796423 30.972811 38 44 18
6.355366 1.789375 30.851294 39 18 18
6.382648 1.779777 30.685808 36 42 28
6.419944 1.773127 30.571161 30 35 40
6.442592 1.762596 30.389585 30 35 40
6.471087 1.753846 30.238726 30 35 40
6.500843 1.745597 30.096495 30 35 40
6.526125 1.736308 29.936352 30 35 40
6.566381 1.731137 29.847185 30 35 40
6.599430 1.724175 29.727161 30 35 40
6.640186 1.719334 29.643688 30 35 40
6.683082 1.715127 29.571159 30 35 40
6.719817 1.709427 29.472883 30 35 40
6.764473 1.705824 29.410751 30 35 40
6.803666 1.700916 29.326145 32 20 33
6.848951 1.697603 29.269020 17 23 43
6.894644 1.694446 29.214592 16 43 44
6.934666 1.689961 29.137251 36 35 19
6.980243 1.686892 29.084345 38 26 35
7.017564 1.681896 28.998199 16 30 43
7.058107 1.677747 28.926670 16 24 30
7.098433 1.673614 28.855417 19 33 30
7.134874 1.668640 28.769653 16 35 16
7.179244 1.665585 28.716974 18 40 22
7.218082 1.661305 28.643183 42 25 37
7.262401 1.658344 28.592131 26 37 27
7.306779 1.655442 28.542105 34 41 23
7.345299 1.651269 28.470150 26 44 20
7.389130 1.648344 28.419729 34 35 21
7.426231 1.643975 28.344393 34 32 28
7.468084 1.640715 28.288197 39 34 21
7.509551 1.637421 28.231396 41 21 31
7.545551 1.632992 28.155043 37 26 19
7.587888 1.629991 28.103291 29 17 27
7.623444 1.625587 28.027369 21 26 25
7.663344 1.622168 27.968410 31 28 16
7.704486 1.619059 27.914804 19 39 22
7.742864 1.615418 27.852030 24 24 22
7.788705 1.613375 27.816805 27 34 28
7.829811 1.610387 27.765287 30 35 40
7.874850 1.608244 27.728346 30 35 40
7.919599 1.606073 27.690907 30 35 40
7.959632 1.602981 27.637609 30 35 40
8.004043 1.600809 27.600147 30 35 40
8.041229 1.597230 27.538456 40 44 44
8.082410 1.594489 27.491192 35 31 38
8.121274 1.591331 27.436737 32 29 21
8.153039 1.586833 27.359190 21 37 17
8.190546 1.583506 27.301821 27 30 18
8.217437 1.578183 27.210056 29 15 15
8.249601 1.573937 27.136847 43 15 25
8.280747 1.569553 27.061266 41 34 35
8.305821 1.564083 26.966951 35 27 31
8.340949 1.560565 26.906286 38 17 39
8.364015 1.554849 26.807741 32 38 29
8.392789 1.550260 26.728628 21 26 36
8.420281 1.545495 26.646460 29 27 32
8.440375 1.539440 26.542061 33 17 32
8.471553 1.535469 26.473604 16 34 37
8.489211 1.529112 26.364008 26 24 27
8.515593 1.524396 26.282696 33 17 30
8.537746 1.518986 26.189405 36 38 33
8.545503 1.511095 26.053362 15 21 30
8.563981 1.505184 25.951456 19 35 42
8.562466 1.495853 25.790562 17 38 36
8.570881 1.488357 25.661322 31 28 23
8.579011 1.480901 25.532770 34 21 41
8.577030 1.471798 25.375830 15 18 36
8.594443 1.466111 25.277775 39 35 41
8.600055 1.458489 25.146360 28 30 42
8.618505 1.453120 25.053795 16 26 26
5.554347 2.007595 33.459923 44 24 31
5.581454 1.993376 33.222939 43 42 29
5.617884 1.982783 33.046379 39 22 27
5.638057 1.966764 32.779404 40 19 16
5.665933 1.953770 32.562832 43 26 25
5.696690 1.942053 32.367558 23 18 25
5.723474 1.929261 32.154350 27 37 18
5.767728 1.922576 32.042934 16 26 37
5.807797 1.914658 31.910973 37 15 42
5.856695 1.909792 31.829865 38 43 39
5.910055 1.906469 31.774488 28 34 33
5.960425 1.902263 31.704386 20 21 34
6.017537 1.900275 31.671249 23 36 39
6.064920 1.895288 31.588125 19 21 34
6.112738 1.890538 31.508959 20 27 18
6.155807 1.884431 31.407179 28 37 20
6.190741 1.875982 31.266371 34 41 24
6.231958 1.869588 31.159792 28 39 26
6.261993 1.859998 30.999966 18 19 16
6.299981 1.852935 30.882257 15 32 28
6.336480 1.845577 30.759611 29 31 17
6.363706 1.835685 30.594742 42 44 23
6.401164 1.828904 30.481735 30 35 40
6.424060 1.818130 30.302168 30 35 40
6.452648 1.809154 30.152559 30 35 40
6.482448 1.800680 30.011335 30 35 40
6.507761 1.791127 29.852114 30 35 40
6.547911 1.785794 29.763233 30 35 40
6.581119 1.778681 29.644678 30 35 40
6.622056 1.773765 29.562748 30 35 40
6.665305 1.769550 29.492498 30 35 40
6.702665 1.763859 29.397652 30 35 40
6.747825 1.760302 29.338367 30 35 40
6.787675 1.755433 29.257219 39 19 24
6.833309 1.752131 29.202175 28 15 42
6.879272 1.748967 29.149456 42 37 40
6.919744 1.744473 29.074554 17 29 30
6.965576 1.741394 29.023232 18 19 32
7.003237 1.736340 28.938995 25 20 43
7.043985 1.732127 28.868790 30 44 27
7.084411 1.727905 28.798420 44 30 15
7.120974 1.722816 28.713606 25 21 29
7.165313 1.719675 28.661253 29 28 23
7.204112 1.715265 28.587746 42 33 18
7.248363 1.712212 28.536861 42 23 18
7.292622 1.709208 28.486803 35 21 38
7.330964 1.704875 28.414591 38 16 30
7.374588 1.701828 28.363800 27 23 44
7.411457 1.697280 28.288004 21 16 42
7.453116 1.693890 28.231499 42 34 18
7.494394 1.690465 28.174412 26 27 38
7.530198 1.685865 28.097755 34 26 30
7.572395 1.682754 28.045908 18 44 23
7.607762 1.678183 27.969713 27 39 22
7.647432 1.674620 27.910337 35 24 26
7.688368 1.671384 27.856407 20 20 26
7.726603 1.667612 27.793535 35 27 40
7.772361 1.665506 27.758430 30 35 40
7.813434 1.662433 27.707212 30 35 40
7.858514 1.660249 27.670824 30 35 40
7.903229 1.658020 27.633667 30 35 40
7.942918 1.654775 27.579576 30 35 40
7.986848 1.652451 27.540854 30 35 40
8.023976 1.648762 27.479370 30 35 40
8.065558 1.646032 27.433870 23 39 34
8.105001 1.642906 27.381762 25 41 21
8.137262 1.638375 27.306250 20 35 37
8.174978 1.634996 27.249928 16 30 24
8.202088 1.629554 27.159231 29 33 34
8.234349 1.625201 27.086676 34 36 24
8.265406 1.620668 27.011131 30 39 44
8.290247 1.614983 26.916388 43 25 44
8.325014 1.611293 26.854883 33 16 43
8.347784 1.605343 26.755718 21 27 34
8.376471 1.600600 26.676661 39 21 44
8.403870 1.595671 26.594524 35 36 22
8.423572 1.589353 26.489222 18 43 42
8.454272 1.585176 26.419601 28 29 21
8.472019 1.578637 26.310619 32 37 33
8.498971 1.573884 26.231392 44 28 34
8.521976 1.568462 26.141029 18 20 29
8.530649 1.560485 26.008078 38 24 22
8.549711 1.554493 25.908215 24 22 35
8.548433 1.544898 25.748293 40 33 16
8.556585 1.537111 25.618519 39 42 35
8.564102 1.529304 25.488400 33 35 19
8.561490 1.519791 25.329851 37 29 23
8.578368 1.513830 25.230494 30 41 35
8.583378 1.505856 25.097597 44 35 16
8.601536 1.500268 25.004465 36 29 36
8.623971 1.495486 24.924770 30 15 44
5.524521 2.063375 33.280247 21 29 37
5.551028 2.048594 33.041836 43 24 32
5.586305 2.037358 32.860615 43 40 21
5.607244 2.021216 32.600258 17 19 22
5.637319 2.008700 32.398384 19 22 22
5.671008 1.997742 32.221638 15 34 42
5.700639 1.985616 32.026062 17 22 31
5.746471 1.979340 31.924841 18 34 35
5.788179 1.971797 31.803181 15 25 44
5.837934 1.967130 31.727903 36 43 21
5.891360 1.963787 31.673979 43 44 21
5.941560 1.959451 31.604042 17 38 16
5.997972 1.957233 31.568275 17 30 31
6.043777 1.951636 31.478006 35 24 23
6.089642 1.946174 31.389910 39 43 27
6.130893 1.939364 31.280066 37 33 35
6.164757 1.930378 31.135136 35 43 23
6.205933 1.923839 31.029663 35 39 15
6.235669 1.913918 30.869650 26 17 27
6.273008 1.906502 30.750040 26 25 17
6.308933 1.898805 30.625889 38 41 15
6.335832 1.888565 30.460730 30 35 40
6.373197 1.881611 30.348557 30 35 40
6.396317 1.870621 30.171305 30 35 40
6.425183 1.861502 30.024220 30 35 40
6.455342 1.852922 29.885843 30 35 40
6.480984 1.843216 29.729286 30 35 40
6.521182 1.837788 29.641737 30 35 40
6.554754 1.830607 29.525921 30 35 40
6.595967 1.825669 29.446281 30 35 40
6.639670 1.821502 29.379072 30 35 40
6.677913 1.815924 29.289093 30 35 40
6.723793 1.812501 29.233883 30 35 40
6.764501 1.807755 29.157333 30 35 40
6.810526 1.804498 29.104811 18 15 30
6.856738 1.801346 29.053974 39 30 33
6.897675 1.796873 28.981829 34 38 20
6.943723 1.793795 28.932180 33 20 19
6.981721 1.788705 28.850088 20 44 20
7.022654 1.784445 28.781370 37 20 27
7.063179 1.780151 28.712109 36 20 20
7.099860 1.774965 28.628469 23 22 43
7.144156 1.771751 28.576624 40 24 17
7.183001 1.767246 28.503971 27 32 26
7.227270 1.764137 28.453817 41 18 37
7.271525 1.761072 28.404394 41 29 28
7.309868 1.756635 28.332821 32 21 34
7.353407 1.753505 28.282335 42 34 20
7.390250 1.748838 28.207062 20 19 32
7.431875 1.745365 28.151043 38 32 20
7.473118 1.741854 28.094427 39 24 33
7.508952 1.737146 28.018476 27 36 26
7.551123 1.733962 27.967123 37 39 17
7.586450 1.729264 27.891359 25 28 39
7.625971 1.725585 27.832012 21 32 39
7.666747 1.722240 27.778069 28 32 17
7.704928 1.718365 27.715567 21 39 43
7.750644 1.716214 27.680870 30 35 40
7.791499 1.713025 27.629431 30 35 40
7.836225 1.710725 27.592342 30 35 40
7.880482 1.708356 27.554134 30 35 40
7.919606 1.704915 27.498631 30 35 40
7.963010 1.702437 27.458656 30 35 40
8.000260 1.698685 27.398149 30 35 40
8.042494 1.696036 27.355423 26 33 41
8.082870 1.693034 27.306993 21 40 26
8.116003 1.688564 27.234909 21 27 30
8.154172 1.685196 27.180574 41 19 18
8.181701 1.679687 27.091724 37 43 17
8.214179 1.675260 27.020325 39 16 26
8.245064 1.670568 26.944653 29 37 40
8.269369 1.664613 26.848600 34 17 44
8.303375 1.660675 26.785082 43 15 28
8.325197 1.654366 26.683325 29 31 37
8.353261 1.649370 26.602741 25 38 35
8.380009 1.644179 26.519016 31 40 24
8.398647 1.637472 26.410839 35 19 17
8.428414 1.633005 26.338793 24 25 28
8.445635 1.626178 26.228680 29 25 41
8.472463 1.621274 26.149578 29 33 35
8.496037 1.615811 26.061462 16 24 36
8.506075 1.607856 25.933157 41 37 27
8.526615 1.601970 25.838228 25 22 32
8.526528 1.592303 25.682314 26 32 23
8.534831 1.584310 25.553385 42 41 20
8.542028 1.576208 25.422703 29 24 37
8.539256 1.566372 25.264072 42 18 43
8.555914 1.560196 25.164454 37 41 22
8.560626 1.551926 25.031071 33 31 31
8.578673 1.546156 24.938004 19 37 39
8.600717 1.541169 24.857565 27 43 44
5.500888 2.120824 33.137878 39 34 44
5.527316 2.105644 32.900692 36 24 31
5.562344 2.094059 32.719669 40 32 37
5.584493 2.077951 32.467983 29 25 25
5.616517 2.065845 32.278835 16 21 35
5.652610 2.055495 32.117104 21 20 16
5.684656 2.043921 31.936270 23 18 44
5.731819 2.037980 31.843437 18 32 42
5.775119 2.030811 31.731424 25 39 43
5.826209 2.026508 31.664181 23 38 37
5.879943 2.023206 31.612597 16 32 30
5.929106 2.018419 31.537798 36 30 19
5.983507 2.015497 31.492144 39 25 35
6.027311 2.009104 31.392244 19 39 21
6.072215 2.003205 31.300077 39 16 29
6.112922 1.996056 31.188375 18 36 36
6.146145 1.986633 31.041136 39 26 21
6.187026 1.979848 30.935129 39 22 43
6.216306 1.969523 30.773792 40 28 39
6.253136 1.961768 30.652630 39 41 21
6.288594 1.953738 30.527157 23 20 24
6.314999 1.943077 30.360573 26 19 40
6.352005 1.935849 30.247643 30 35 40
6.375129 1.924567 30.071365 30 35 40
6.404287 1.915301 29.926575 30 35 40
6.434892 1.906635 29.791164 30 35 40
6.460928 1.896786 29.637283 30 35 40
6.501256 1.891274 29.551163 30 35 40
6.535166 1.884012 29.437687 30 35 40
6.576562 1.879018 29.359653 30 35 40
6.620555 1.874847 29.294491 30 35 40
6.659430 1.869314 29.208027 30 35 40
6.705836 1.865972 29.155809 30 35 40
6.747126 1.861276 29.082438 22 30 27
6.793373 1.858017 29.031509 36 40 20
6.839667 1.854825 28.981642 44 25 35
6.880811 1.850302 28.910969 38 22 21
6.926934 1.847182 28.862225 28 40 17
6.965081 1.842005 28.781326 16 34 16
7.006071 1.837658 28.713406 21 15 42
7.046641 1.833272 28.644882 33 40 33
7.083412 1.827977 28.562145 39 16 17
7.127695 1.824690 28.510780 22 23 21
7.166688 1.820111 28.439240 44 35 35
7.211098 1.816969 28.390148 38 43 21
7.255533 1.813883 28.341927 19 20 36
7.294106 1.809391 28.271729 44 24 31
7.337741 1.806213 28.222082 37 44 29
7.374824 1.801484 28.148182 15 29 16
7.416620 1.797969 28.093258 25 26 29
7.458048 1.794418 28.037775 38 37 22
7.494150 1.789648 27.963247 37 44 44
7.536452 1.786418 27.912786 39 29 22
7.572003 1.781648 27.838245 43 18 31
7.611644 1.777902 27.779724 44 37 23
7.652525 1.774499 27.726540 38 29 39
7.690973 1.770584 27.665371 30 35 40
7.736897 1.768434 27.631775 30 35 40
7.777642 1.765139 27.580292 30 35 40
7.821866 1.762674 27.541780 30 35 40
7.865505 1.760113 27.501764 30 35 40
7.904083 1.756463 27.444733 30 35 40
7.947155 1.753855 27.403984 30 35 40
7.984552 1.750039 27.344355 30 35 40
8.027311 1.747442 27.303780 30 35 40
8.068439 1.744527 27.258240 24 15 32
8.102312 1.740094 27.188967 36 20 24
8.140886 1.736722 27.136288 25 23 19
8.168729 1.731121 27.048771 34 31 16
8.201337 1.726597 26.978081 40 30 37
8.231935 1.721712 26.901749 34 42 38
8.255527 1.715434 26.803659 21 30 43
8.288653 1.711206 26.737591 29 36 33
8.309255 1.704463 26.632229 27 37 44
8.336422 1.699143 26.549114 15 40 25
8.362235 1.693617 26.462770 38 33 35
8.379586 1.686458 26.350901 32 39 26
8.408403 1.681681 26.276258 16 15 42
8.424663 1.674467 26.163549 37 31 18
8.450639 1.669262 26.082220 17 24 35
8.474148 1.663636 25.994320 18 16 24
8.485329 1.655674 25.869905 34 36 40
8.507570 1.649953 25.780514 23 33 24
8.509086 1.640306 25.629776 28 32 37
8.517896 1.632172 25.502682 23 20 44
8.525218 1.623851 25.372673 40 20 36
8.522891 1.613802 25.215652 41 16 36
8.539776 1.607487 25.116987 30 23 25
8.544686 1.599006 24.984463 30 44 34
8.562893 1.593096 24.892132 44 42 33
8.584779 1.587936 24.811501 22 19 21
5.434665 2.187121 33.138203 25 19 35
5.474829 2.176739 32.980896 21 43 16
5.501469 2.161291 32.746838 34 22 29
5.537336 2.149789 32.572563 17 34 21
5.561679 2.134133 32.335342 20 41 44
5.595936 2.122596 32.160549 18 15 32
5.634514 2.112943 32.014282 34 33 26
5.669294 2.102098 31.849966 39 25 19
5.718027 2.096610 31.766815 22 16 30
5.762911 2.089847 31.664349 21 36 25
5.815130 2.085862 31.603968 28 33 22
5.868725 2.082451 31.552284 16 26 42
5.916139 2.076943 31.468826 41 38 43
5.967860 2.073046 31.409790 39 38 27
6.009493 2.065763 31.299442 41 37 25
6.053985 2.059603 31.206106 24 15 30
6.094894 2.052362 31.096399 23 15 15
6.127807 2.042602 30.948521 29 20 20
6.168351 2.035556 30.841755 18 15 21
6.197215 2.024833 30.679281 24 18 41
6.233676 2.016778 30.557236 27 20 44
6.268764 2.008439 30.430895 37 30 27
6.294683 1.997351 30.262899 34 21 22
6.331254 1.989823 30.148827 30 35 40
6.354413 1.978261 29.973648 30 35 40
6.383974 1.968889 29.831654 30 35 40
6.415204 1.960201 29.700020 30 35 40
6.441822 1.950277 29.549644 30 35 40
6.482426 1.944728 29.465574 30 35 40
6.516792 1.937425 29.354919 30 35 40
6.558437 1.932397 29.278736 30 35 40
6.602705 1.928223 29.215508 30 35 40
6.642205 1.922743 29.132477 30 35 40
6.689105 1.919482 29.083063 30 35 40
6.730911 1.914828 29.012547 34 17 21
6.777326 1.911554 28.962933 19 19 24
6.823638 1.908306 28.913721 42 40 26
6.864900 1.903712 28.844116 42 26 36
6.911006 1.900527 28.795858 32 39 31
6.949205 1.895238 28.715723 32 39 34
6.990207 1.890794 28.648390 27 15 15
7.030782 1.886307 28.580416 36 21 25
7.067572 1.880886 28.498276 29 17 26
7.111815 1.877519 28.447262 39 22 18
7.150915 1.872859 28.376648 18 15 30
7.195446 1.869683 28.328529 21 44 31
7.240065 1.866579 28.281506 34 30 15
7.278903 1.862045 28.212803 37 41 40
7.322691 1.858837 28.164196 29 31 32
7.360085 1.854067 28.091928 16 21 44
7.402119 1.850530 28.038328 43 39 44
7.443783 1.846954 27.984148 28 43 28
7.480201 1.842139 27.911200 21 40 36
7.522660 1.838872 27.861704 22 44 16
7.558380 1.834019 27.788162 32 15 33
7.598089 1.830197 27.730253 22 22 38
7.638919 1.826698 27.677242 24 42 42
7.677356 1.822682 27.616388 43 33 43
7.723211 1.820471 27.582897 30 35 40
7.763506 1.816991 27.530165 30 35 40
7.806958 1.814293 27.489290 30 35 40
7.849851 1.811504 27.447031 30 35 40
7.887929 1.807650 27.388643 30 35 40
7.930877 1.804958 27.347853 30 35 40
7.968603 1.801123 27.289736 30 35 40
8.011927 1.798596 27.251451 36 16 25
8.053824 1.795785 27.208864 22 17 35
8.088526 1.791419 27.142706 31 19 26
8.127603 1.788073 27.092010 18 26 38
8.155935 1.782423 27.006409 41 30 27
8.188853 1.777843 26.937016 32 20 40
8.219357 1.772803 26.860645 22 18 37
8.242458 1.766241 26.761229 35 39 15
8.274849 1.761742 26.693060 35 32 15
8.294313 1.754566 26.584335 30 38 17
8.320547 1.748905 26.498558 17 25 24
8.345352 1.743017 26.409342 43 17 30
8.361445 1.735394 26.293854 29 30 21
8.389380 1.730310 26.216812 38 36 23
8.404590 1.722680 26.101210 39 21 33
8.429443 1.717109 26.016800 22 19 29
8.452608 1.711264 25.928246 35 27 18
8.464756 1.703274 25.807182 33 16 23
8.488674 1.697735 25.723253 41 31 17
8.491931 1.688155 25.578106 33 30 34
8.501469 1.679931 25.453501 23 15 31
8.509212 1.671452 25.325035 44 42 41
8.507645 1.661256 25.170547 32 31 36
8.524967 1.654846 25.073431 44 26 21
8.530309 1.646200 24.942423 19 34 24
8.548786 1.640174 24.851122 30 20 27
8.570579 1.634850 24.770458 43 44 38
8.582827 1.627778 24.663296 20 34 18
5.401407 2.239608 32.935410 38 30 25
5.439290 2.228143 32.766808 18 30 25
5.465966 2.212415 32.535515 40 37 42
5.503467 2.201387 32.373337 31 23 21
5.530950 2.186655 32.156685 23 29 35
5.567906 2.175963 31.999462 25 30 29
5.609391 2.167265 31.871542 37 43 37
5.647637 2.157524 31.728296 30 24 33
5.698475 2.152757 31.658195 18 25 26
5.745031 2.146495 31.566103 27 41 21
5.797773 2.142655 31.509636 41 22 41
5.850481 2.138885 31.454197 15 31 25
5.895857 2.132544 31.360941 25 29 28
5.944980 2.127677 31.289370 20 39 18
5.984602 2.119546 31.169800 21 40 42
6.028786 2.113183 31.076218 32 21 37
6.070024 2.105927 30.969509 22 35 25
6.102754 2.095895 30.821989 30 25 37
6.142995 2.088618 30.714977 24 32 32
6.171595 2.077566 30.552448 22 38 16
6.207812 2.069271 30.430450 34 39 42
6.242719 2.060703 30.304461 26 41 37
6.268449 2.049301 30.136776 16 21 24
6.304792 2.041552 30.022818 30 35 40
6.328222 2.029807 29.850103 30 35 40
6.358256 2.020380 29.711477 30 35 40
6.390152 2.011715 29.584038 30 35 40
6.417528 2.001798 29.438200 30 35 40
6.458545 1.996278 29.357023 30 35 40
6.493584 1.989026 29.250380 30 35 40
6.535610 1.984024 29.176830 30 35 40
6.580298 1.979913 29.116364 30 35 40
6.620624 1.974572 29.037825 30 35 40
6.668141 1.971450 28.991917 30 35 40
6.710618 1.966905 28.925076 38 31 23
6.757278 1.963654 28.877258 35 19 43
6.803636 1.960370 28.828964 16 33 20
6.845068 1.955734 28.760790 17 16 21
6.891166 1.952497 28.713192 43 34 21
6.929433 1.947113 28.634020 39 18 40
6.970456 1.942586 28.567442 28 35 16
7.011001 1.938000 28.500004 24 33 42
7.047740 1.932445 28.418308 24 18 43
7.091824 1.928976 28.367296 15 35 25
7.130864 1.924202 28.297081 30 21 36
7.175358 1.920962 28.249439 25 24 23
7.219999 1.917812 28.203119 30 34 33
7.258932 1.913207 28.135395 23 34 20
7.302767 1.909955 28.087566 31 26 29
7.340320 1.905121 28.016489 36 20 16
7.382454 1.901541 27.963840 42 35 38
7.424222 1.897921 27.910610 44 35 19
7.460869 1.893056 27.839064 22 34 28
7.503471 1.889763 27.790634 30 30 30
7.539136 1.884784 27.717413 21 30 31
7.578625 1.880827 27.659216 31 43 42
7.618947 1.877132 27.604881 23 44 16
7.656654 1.872851 27.541920 42 37 17
7.701783 1.870433 27.506367 30 35 40
7.741049 1.866636 27.450529 30 35 40
7.783489 1.863652 27.406651 30 35 40
7.825619 1.860637 27.362305 30 35 40
7.863290 1.856610 27.303089 30 35 40
7.906304 1.853892 27.263119 30 35 40
7.944641 1.850122 27.207674 30 35 40
7.988679 1.847722 27.172377 26 41 19
8.031511 1.845077 27.133484 36 25 27
8.067270 1.840854 27.071377 30 35 40
8.106977 1.837581 27.023256 18 31 39
8.136130 1.831976 26.940826 15 44 35
8.169679 1.827428 26.873945 23 16 21
8.200440 1.822320 26.798824 37 44 25
8.223526 1.815584 26.699759 32 23 44
8.255487 1.810881 26.630604 42 25 38
8.274201 1.803352 26.519876 42 17 42
8.299734 1.797395 26.432274 33 16 35
8.323724 1.791181 26.340899 39 19 38
8.338827 1.783145 26.222725 16 31 32
8.366007 1.777777 26.143772 44 23 30
8.380422 1.769779 26.026155 40 32 30
8.404488 1.763905 25.939777 36 39 30
8.427500 1.757883 25.851227 21 30 28
8.440524 1.749865 25.733305 17 32 21
8.465805 1.744469 25.653955 22 34 24
8.470483 1.734918 25.513502 42 40 41
8.480603 1.726590 25.391026 27 21 19
8.488665 1.717944 25.263884 40 18 42
8.487680 1.707581 25.111481 36 25 28
8.505302 1.701060 25.015594 31 28 36
8.510898 1.692225 24.885668 37 39 18
8.529503 1.686065 24.795067 41 26 40
8.551079 1.680559 24.714100 22 23 16
8.562783 1.673188 24.605700 25 26 39
5.378614 2.295750 32.796425 32 40 43
5.413957 2.282994 32.614201 17 40 40
5.440630 2.266929 32.384701 20 26 21
5.479968 2.256458 32.235107 44 38 34
5.510085 2.242476 32.035378 43 30 44
5.548844 2.232294 31.889910 18 18 17
5.592119 2.224138 31.773405 25 20 33
5.632734 2.215120 31.644575 40 22 39
5.685108 2.210875 31.583935 25 19 25
5.732569 2.204834 31.497631 30 32 31
5.785102 2.200854 31.440769 32 33 43
5.836680 2.196600 31.379999 16 21 32
5.880520 2.189555 31.279360 32 36 27
5.928086 2.184032 31.200455 32 33 30
5.966723 2.175368 31.076681 17 28 40
6.011063 2.168940 30.984863 26 33 28
6.052881 2.161743 30.882046 16 44 21
6.085746 2.151526 30.736090 32 41 43
6.125837 2.144043 30.629185 22 23 36
6.154424 2.132721 30.467443 28 37 21
6.190668 2.124249 30.346411 19 20 42
6.225647 2.115511 30.221586 23 19 21
6.251475 2.103862 30.055166 27 33 30
6.287818 2.095939 29.941990 120 120 120
6.311550 2.084002 29.771461 30 35 40
6.341917 2.074459 29.635124 30 35 40
6.374247 2.065728 29.510401 30 35 40
6.402213 2.055756 29.367949 30 35 40
6.443594 2.050234 29.289062 30 35 40
6.479180 2.042985 29.185495 30 35 40
6.521528 2.037977 29.113964 30 35 40
6.566524 2.033879 29.055414 30 35 40
6.607403 2.028589 28.979839 30 35 40
6.655299 2.025526 28.936083 34 44 26
6.698189 2.021005 28.871504 23 22 39
6.745010 2.017738 28.824831 44 36 28
6.791391 2.014396 28.777081 38 20 30
6.832898 2.009676 28.709654 17 30 32
6.878960 2.006363 28.662333 23 40 30
6.917218 2.000848 28.583546 39 23 25
6.958242 1.996217 28.517384 26 17 29
6.998733 1.991509 28.450134 36 32 33
7.035359 1.985787 28.368383 28 18 26
7.079272 1.982196 28.317089 36 31 36
7.118148 1.977263 28.246618 15 42 27
7.162509 1.973920 28.198853 15 35 17
7.207057 1.970680 28.152565 29 33 23
7.245933 1.965951 28.085011 16 25 38
7.289738 1.962622 28.037455 37 29 22
7.327303 1.957676 27.966805 35 16 17
7.369413 1.954011 27.914444 27 39 17
7.411171 1.950308 27.861546 30 27 17
7.447909 1.945349 27.790707 28 38 31
7.490588 1.942004 27.742918 24 18 26
7.526052 1.936852 27.669308 27 23 35
7.565210 1.932718 27.610254 41 38 15
7.604917 1.928783 27.554049 28 23 30
7.641634 1.924152 27.487892 25 21 39
7.685832 1.921458 27.449400 19 44 27
7.724032 1.917313 27.390184 30 35 40
7.765659 1.914071 27.343870 30 35 40
7.807359 1.910892 27.298458 30 35 40
7.844910 1.906749 27.239271 30 35 40
7.888193 1.904047 27.200665 30 35 40
7.927095 1.900331 27.147585 30 35 40
7.971606 1.898002 27.114307 30 35 40
8.015014 1.895442 27.077749 30 35 40
8.051497 1.891291 27.018448 30 35 40
8.091651 1.888052 26.972170 30 35 40
8.121523 1.882472 26.892460 30 35 40
8.155680 1.877953 26.827896 30 35 40
8.186906 1.872822 26.754595 44 24 32
8.210400 1.866000 26.657143 35 30 32
8.242421 1.861192 26.588455 29 29 26
8.261062 1.853443 26.477764 40 44 16
8.286401 1.847287 26.389812 29 27 18
8.310067 1.840838 26.297680 22 29 15
8.324856 1.832515 26.178791 16 40 18
8.351786 1.826953 26.099333 32 28 41
8.365927 1.818680 25.981140 16 38 26
8.389706 1.812591 25.894154 16 40 29
8.412627 1.806392 25.805605 28 43 28
8.425953 1.798222 25.688881 43 19 44
8.451700 1.792785 25.611212 42 22 19
8.456929 1.783087 25.472677 43 31 24
8.467340 1.774592 25.351316 27 19 40
8.475598 1.765750 25.224995 24 43 31
8.474918 1.755161 25.073723 36 44 20
8.492688 1.748494 24.978493 30 25 38
8.498388 1.739436 24.849089 38 26 34
8.517007 1.733112 24.758741 39 28 31
8.538424 1.727427 24.677526 38 24 22
8.549810 1.719789 24.568419 29 32 40
5.309990 2.359995 32.777714 36 17 20
5.344457 2.346347 32.588150 38 23 32
5.378596 2.332885 32.401180 18 27 40
5.406107 2.316903 32.179211 24 28 16
5.447554 2.307199 32.044437 31 34 37
5.480968 2.294359 31.866093 16 31 34
5.522175 2.285038 31.736639 33 19 26
5.567884 2.277771 31.635704 42 41 31
5.611783 2.269935 31.526873 19 27 43
5.666309 2.266523 31.479492 28 24 24
5.714460 2.260666 31.398134 19 18 40
5.765490 2.256061 31.334183 29 28 26
5.814553 2.250795 31.261038 33 41 37
5.856529 2.242926 31.151751 36 23 23
5.903056 2.236948 31.068718 22 36 40
5.941096 2.227911 30.943207 24 28 36
5.985534 2.221435 30.853266 40 26 30
6.027779 2.214286 30.753975 42 37 15
6.060777 2.203919 30.609987 39 23 15
6.100737 2.196265 30.503683 25 41 38
6.129379 2.184729 30.343462 20 20 23
6.165676 2.176121 30.223900 25 36 36
6.200779 2.167263 30.100868 29 32 15
6.226813 2.155435 29.936600 38 39 23
6.263220 2.147390 29.824858 120 120 120
6.287509 2.135380 29.658062 120 120 120
6.318519 2.125857 29.525791 30 35 40
6.351578 2.117193 29.405455 30 35 40
6.380342 2.107269 29.267624 30 35 40
6.422102 2.101779 29.191372 30 35 40
6.458177 2.094544 29.090889 30 35 40
6.500684 2.089506 29.020910 30 35 40
6.545826 2.085396 28.963833 30 35 40
6.587220 2.080175 28.891315 18 41 23
6.635538 2.077212 28.850164 36 20 28
6.678899 2.072762 28.788359 22 20 16
6.725867 2.069498 28.743023 23 26 19
6.772278 2.066119 28.696093 26 36 35
6.813901 2.061348 28.629835 37 31 29
6.859953 2.057986 28.583136 27 42 26
6.898285 2.052382 28.505310 40 38 23
6.939393 2.047690 28.440136 27 30 36
6.979897 2.042897 28.373564 20 29 30
7.016453 2.037035 28.292149 36 32 21
7.060157 2.033325 28.240627 29 15 35
7.098842 2.028241 28.170008 44 36 40
7.143018 2.024792 28.122118 41 26 24
7.187440 2.021468 28.075939 20 38 29
7.226265 2.016632 28.008780 20 33 35
7.270042 2.013242 27.961699 15 42 29
7.307645 2.008208 27.891775 27 38 33
7.349815 2.004495 27.840210 38 19 27
7.391508 2.000709 27.787622 20 25 25
7.428012 1.995585 27.716461 43 40 15
7.470331 1.992088 27.667892 41 43 21
7.505113 1.986648 27.592329 29 26 27
7.543634 1.982269 27.531511 33 16 43
7.582491 1.978041 27.472794 18 41 16
7.618018 1.973012 27.402943 34 21 29
7.661204 1.970024 27.361444 35 32 41
7.698192 1.965496 27.298553 23 16 22
7.738796 1.961948 27.249281 42 21 43
7.779891 1.958574 27.202415 30 35 40
7.817256 1.954314 27.143251 23 36 36
7.860827 1.951654 27.106300 30 35 40
7.900482 1.948064 27.056446 30 35 40
7.945659 1.945876 27.026051 30 35 40
7.989898 1.943489 26.992897 30 35 40
8.027402 1.939506 26.937590 30 35 40
8.068192 1.936366 26.893972 30 35 40
8.099082 1.930907 26.818153 30 35 40
8.134085 1.926494 26.756857 30 35 40
8.165959 1.921402 26.686142 30 35 40
8.190050 1.914557 26.591070 35 23 20
8.222182 1.909668 26.523167 17 31 43
8.240745 1.901710 26.412645 34 21 16
8.265742 1.895329 26.324018 23 27 24
8.288967 1.888625 26.230907 29 18 31
8.303456 1.880028 26.111498 16 21 25
8.330219 1.874299 26.031935 29 15 26
8.344345 1.865816 25.914114 30 18 44
8.368075 1.859572 25.827391 37 35 15
8.391186 1.853268 25.739836 30 25 27
8.405017 1.845004 25.625051 16 21 16
8.431266 1.839549 25.549290 44 19 32
8.437381 1.829794 25.413799 24 22 19
8.448549 1.821244 25.295055 25 37 18
8.457497 1.812321 25.171122 34 41 30
8.457510 1.801600 25.022219 28 41 25
8.475551 1.794823 24.928091 18 42 21
8.481395 1.785557 24.799400 28 43 42
8.499995 1.779069 24.709288 16 19 43
8.521053 1.773167 24.627321 30 23 39
8.531846 1.765209 24.516798 30 27 17
8.555849 1.760060 24.445284 17 37 33
5.282988 2.413217 32.611034 33 41 28
5.317200 2.399224 32.421951 43 36 21
5.352291 2.385961 32.242718 22 24 18
5.381117 2.370254 32.030460 32 32 21
5.423838 2.360965 31.904928 31 21 31
5.459491 2.348851 31.741224 39 24 36
5.502497 2.340142 31.623547 25 43 24
5.550089 2.333560 31.534597 43 43 36
5.596806 2.326762 31.442728 31 38 17
5.653404 2.324177 31.407801 21 36 27
5.701813 2.318320 31.328644 34 26 32
5.750548 2.312720 31.252977 25 15 29
5.796680 2.306206 31.164948 37 22 16
5.837410 2.297704 31.050051 26 24 42
5.884147 2.291720 30.969193 32 21 18
5.922448 2.282610 30.846081 17 42 26
5.966926 2.276044 30.757353 30 33 17
6.009255 2.268800 30.659462 19 44 32
6.042344 2.258250 30.516888 16 30 32
6.082273 2.250441 30.411364 31 33 42
6.111012 2.238688 30.252535 43 24 24
6.147347 2.229920 30.134056 44 20 22
6.182531 2.220909 30.012285 34 36 16
6.208708 2.208867 29.849558 23 43 31
6.245149 2.200671 29.738804 120 120 120
6.269902 2.188551 29.575008 120 120 120
6.301501 2.179024 29.446266 120 120 120
6.335186 2.170388 29.329567 32 38 32
6.364510 2.160430 29.195000 17 35 28
6.406452 2.154898 29.120237 30 35 40
6.442667 2.147556 29.021021 33 21 31
6.485050 2.142382 28.951115 39 27 33
6.530059 2.138161 28.894066 34 21 20
6.571658 2.132907 28.823063 15 26 40
6.620240 2.129990 28.783653 21 18 40
6.663900 2.125554 28.723705 39 38 21
6.710950 2.122266 28.679272 41 26 26
6.757378 2.118839 28.632956 33 27 42
6.799109 2.114009 28.567686 36 37 42
6.845175 2.110596 28.521564 42 24 41
6.883617 2.104908 28.444700 34 44 22
6.924829 2.100153 28.380447 32 34 19
6.965384 2.095278 28.314569 18 30 31
7.001920 2.089283 28.233549 36 18 18
7.045480 2.085462 28.181919 44 31 33
7.084040 2.080234 28.111269 18 22 15
7.128120 2.076696 28.063465 27 16 42
7.172459 2.073289 28.017418 22 19 24
7.211265 2.068347 27.950640 31 38 40
7.255028 2.064893 27.903954 16 36 31
7.292655 2.059758 27.834562 43 34 21
7.334937 2.056005 27.783852 22 30 24
7.376553 2.052124 27.731403 29 17 27
7.412639 2.046774 27.659101 16 19 39
7.454372 2.043050 27.608786 44 24 26
7.488320 2.037264 27.530588 41 42 20
7.526161 2.032613 27.467741 31 38 42
7.564340 2.028120 27.407028 18 28 16
7.599097 2.022781 27.334883 28 16 42
7.641774 2.019612 27.292049 42 34 35
7.678101 2.014821 27.227308 37 36 33
7.718053 2.011042 27.176243 24 38 27
7.758747 2.007508 27.128487 41 33 26
7.796021 2.003144 27.069517 30 35 40
7.839797 2.000500 27.033783 30 35 40
7.880053 1.997000 26.986483 30 35 40
7.925789 1.994926 26.958466 30 35 40
7.970727 1.992682 26.928133 30 35 40
8.009116 1.988841 26.876228 30 35 40
8.050467 1.985782 26.834888 30 35 40
8.082199 1.980406 26.762249 30 35 40
8.117885 1.976064 26.703569 30 35 40
8.150253 1.970976 26.634813 30 35 40
8.174798 1.964075 26.541553 30 35 40
8.207006 1.959092 26.474213 39 29 29
8.225478 1.950915 26.363710 31 27 22
8.250135 1.944299 26.274315 25 21 15
8.272995 1.937347 26.180363 37 30 34
8.287329 1.928498 26.060783 41 26 33
8.314097 1.922635 25.981552 25 21 23
8.328440 1.913989 25.864719 24 35 34
8.352381 1.907643 25.778954 28 35 23
8.375841 1.901264 25.692762 24 18 28
8.390179 1.892906 25.579815 44 35 25
8.416803 1.887404 25.505463 35 26 31
8.423775 1.877588 25.372816 41 30 24
8.435847 1.869020 25.257027 33 23 35
8.445629 1.860049 25.135801 25 39 21
8.446376 1.849206 24.989277 22 17 17
8.464650 1.842306 24.896029 39 34 36
8.470581 1.832816 24.767780 33 21 16
8.489150 1.826154 24.677763 39 33 15
8.509857 1.820027 24.594963 37 16 29
8.520081 1.811741 24.482990 32 41 35
8.543487 1.806337 24.409962 33 33 25
5.257638 2.466546 32.454556 20 27 27
5.292449 2.452598 32.271030 42 41 32
5.329260 2.439902 32.103977 44 19 36
5.359547 2.424557 31.902065 16 21 20
5.403165 2.415532 31.783321 23 24 36
5.440497 2.403941 31.630798 42 38 31
5.485001 2.395748 31.522995 36 42 22
5.534013 2.389687 31.443256 26 44 36
5.582587 2.383577 31.362850 36 28 44
5.640349 2.381481 31.335274 39 17 25
5.688410 2.375380 31.255001 33 20 32
5.734869 2.368750 31.167768 30 15 23
