ply
format ascii 1.0
element vertex 1257
property float x
property float y
property float z
property uchar red
property uchar green
property uchar blue
end_header
-6.954812 2.802686 25.950792 15 43 37
-6.909441 2.805337 25.975344 40 33 17
-6.863053 2.807613 25.996414 17 33 30
-6.817618 2.810316 26.021444 25 33 34
-6.769120 2.811788 26.035078 30 35 40
-6.721131 2.813497 26.050896 24 20 19
-6.670868 2.814273 26.058079 22 37 33
-6.620591 2.815054 26.065319 21 30 40
-6.572685 2.816865 26.082085 34 22 36
-6.524255 2.818478 26.097021 27 16 33
-6.477691 2.820930 26.119720 36 41 23
-6.429983 2.822919 26.138142 18 38 41
-6.381851 2.824754 26.155127 23 42 34
-6.334226 2.826845 26.174488 24 27 38
-6.284447 2.828001 26.185194 37 43 27
-6.234362 2.829038 26.194798 42 24 26
-6.182439 2.829252 26.196774 44 38 17
-6.130109 2.829281 26.197048 26 16 36
-6.078594 2.829690 26.200836 30 29 39
-6.026925 2.830035 26.204023 37 19 36
-5.978732 2.832031 26.222509 22 44 15
-5.930823 2.834198 26.242579 27 32 37
-5.885350 2.837579 26.273882 25 17 40
-5.841957 2.842033 26.315121 34 30 44
-5.796261 2.845437 26.346642 19 29 15
-5.760032 2.853594 26.422165 16 32 44
-5.723012 2.861506 26.495426 120 120 120
-5.689596 2.871385 26.586897 120 120 120
-5.661870 2.884349 26.706934 120 120 120
-5.626803 2.893785 26.794302 40 33 21
-5.600097 2.907743 26.923544 20 34 42
-5.565684 2.917931 27.017881 32 43 15
-5.531511 2.928447 27.115252 30 35 40
-5.505375 2.943468 27.254330 20 38 26
-5.470782 2.954222 27.353909 43 40 31
-5.442651 2.968719 27.488136 26 39 42
-5.405680 2.978640 27.579998 18 35 33
-5.366746 2.987673 27.663639 27 26 25
-5.333502 3.000095 27.778658 26 35 37
-5.292212 3.008205 27.853748 35 33 42
-5.256736 3.019827 27.961361 40 39 42
-5.215833 3.028548 28.042112 38 33 19
-5.173259 3.036478 28.115536 40 34 21
-5.133854 3.046463 28.207987 38 27 17
-5.087469 3.052482 28.263718 15 16 15
-5.044545 3.060735 28.340141 40 26 19
-4.997587 3.066701 28.395380 19 16 19
-4.949038 3.071816 28.442745 39 32 32
-4.902133 3.078084 28.500774 39 30 24
-4.850629 3.081576 28.533112 21 22 18
-4.803042 3.087670 28.589533 23 38 17
-4.753928 3.092917 28.638123 42 21 35
-4.704942 3.098376 28.688669 44 43 24
-4.657563 3.105042 28.750389 17 40 30
-4.606277 3.109237 28.789228 35 39 39
-4.559349 3.116517 28.856640 28 25 28
-4.510438 3.122611 28.913061 21 24 15
-4.462077 3.129249 28.974525 33 25 39
-4.416444 3.138000 29.055552 38 19 27
-4.366713 3.144033 29.111418 28 44 32
-4.320775 3.152998 29.194426 18 23 28
-4.270948 3.159331 29.253067 37 32 17
-4.221616 3.166212 29.316774 24 43 24
-4.176579 3.176553 29.412531 34 25 44
-4.127827 3.184324 29.484480 17 27 43
-4.083844 3.196051 29.593069 24 26 38
-4.037522 3.206267 29.687658 20 26 22
-3.988361 3.214500 29.763887 22 26 33
-3.936771 3.220995 29.824024 28 17 29
-3.878384 3.222042 29.833723 26 36 34
-3.822208 3.224988 29.861002 27 39 32
-3.765973 3.227977 29.888674 30 27 25
-8.878454 2.668388 24.258072 40 44 20
-8.827232 2.667570 24.250637 34 20 17
-8.773462 2.665969 24.236082 38 26 15
-8.719368 2.664251 24.220467 35 29 21
-8.670037 2.663978 24.217979 22 32 28
-8.626243 2.665412 24.231020 31 31 25
-8.585129 2.667696 24.251778 19 33 30
-8.543011 2.669691 24.269918 33 43 27
-8.498160 2.670850 24.280457 31 15 25
-8.454604 2.672432 24.294838 25 41 34
-8.408592 2.673252 24.302290 26 15 33
-8.363627 2.674415 24.312868 22 23 34
-8.322452 2.676812 24.334654 29 22 38
-8.280549 2.679001 24.354557 42 32 15
-8.243148 2.682681 24.388012 28 36 34
-8.202843 2.685455 24.413223 36 40 18
-8.164481 2.688901 24.444555 26 26 36
-8.130855 2.693958 24.490526 28 28 34
-8.093580 2.697860 24.526001 24 33 35
-8.064694 2.704623 24.587481 19 34 31
-8.033138 2.710568 24.641529 18 28 41
-8.001737 2.716639 24.696718 38 20 32
-7.973079 2.723723 24.761116 43 21 33
-7.935977 2.727992 24.799929 22 43 25
-7.903050 2.733759 24.852358 31 33 22
-7.865133 2.737863 24.889662 32 38 26
-7.825269 2.741336 24.921238 38 18 35
-7.787922 2.745742 24.961288 34 32 30
-7.745172 2.748287 24.984426 42 32 39
-7.705465 2.751952 25.017744 15 38 38
-7.662055 2.754334 25.039396 20 23 30
-7.619448 2.757037 25.063974 43 29 31
-7.581357 2.761422 25.103832 23 38 36
-7.540574 2.764877 25.135246 21 20 40
-7.507386 2.771183 25.192570 41 32 19
-7.471789 2.776678 25.242531 27 26 39
-7.437583 2.782769 25.297901 20 36 18
-7.407606 2.790537 25.368515 36 44 42
-7.370789 2.795817 25.416515 19 35 31
-7.339250 2.803186 25.483507 30 35 40
-7.302110 2.808504 25.531855 30 35 40
-7.263576 2.813357 25.575974 30 35 40
-7.228599 2.819666 25.633331 30 35 40
-7.187330 2.823594 25.669035 30 35 40
-7.150085 2.829170 25.719728 30 35 40
-7.109285 2.833411 25.758278 30 35 40
-7.066921 2.837085 25.791683 24 22 40
-7.026001 2.841398 25.830887 38 25 22
-6.980041 2.843720 25.852003 26 17 23
-6.936806 2.847196 25.883604 17 32 44
-6.891804 2.849994 25.909037 42 17 35
-6.845856 2.852440 25.931274 40 17 28
-6.800820 2.855306 25.957327 21 42 40
-6.752586 2.856863 25.971485 41 40 20
-6.704879 2.858669 25.987902 43 38 39
-6.654874 2.859516 25.995602 27 27 15
-6.604772 2.860334 26.003040 30 36 40
-6.556899 2.862139 26.019442 43 36 17
-6.508399 2.863696 26.033598 41 39 38
-6.462090 2.866250 26.056816 37 15 35
-6.414938 2.868468 26.076984 41 20 39
-6.367444 2.870569 26.096081 16 43 33
-6.320348 2.872886 26.117142 34 39 42
-6.270846 2.874138 26.128525 27 40 41
-6.220988 2.875247 26.138607 16 24 31
-6.169169 2.875460 26.140547 20 20 26
-6.116869 2.875451 26.140465 17 32 41
-6.065413 2.875842 26.144020 35 35 19
-6.013820 2.876175 26.147041 20 36 33
-5.965628 2.878154 26.165035 35 26 40
-5.917742 2.880317 26.184700 41 22 37
-5.872216 2.883678 26.215250 40 38 31
-5.828612 2.888051 26.255007 27 29 42
-5.782731 2.891365 26.285139 28 40 37
-5.746206 2.899462 26.358742 38 31 16
-5.709037 2.907380 26.430727 120 120 120
-5.675459 2.917292 26.520838 120 120 120
-5.647438 2.930274 26.638857 120 120 120
-5.612189 2.939718 26.724709 30 35 40
-5.585077 2.953646 26.851330 30 35 40
-5.550288 2.963746 26.943144 30 35 40
-5.515803 2.974208 27.038252 30 35 40
-5.489428 2.989292 27.175385 30 35 40
-5.454874 3.000181 27.274372 30 35 40
-5.426602 3.014779 27.407082 30 35 40
-5.389429 3.024679 27.497086 42 40 43
-5.350340 3.033698 27.579071 30 30 42
-5.317000 3.046198 27.692709 36 35 18
-5.275799 3.054410 27.767365 42 24 36
-5.240551 3.066280 27.875273 44 32 23
-5.199969 3.075251 27.956825 43 22 32
-5.157822 3.083481 28.031641 26 29 40
-5.118893 3.093836 28.125784 28 39 42
-5.072901 3.100106 28.182783 42 27 24
-5.030507 3.108740 28.261274 17 44 38
-4.984062 3.115039 28.318533 25 17 31
-4.935924 3.120412 28.367380 15 28 34
-4.889318 3.126889 28.426266 22 34 31
-4.837925 3.130422 28.458384 21 16 20
-4.790263 3.136482 28.513470 28 33 44
-4.741037 3.141651 28.560463 27 17 38
-4.691825 3.146956 28.608690 30 19 18
-4.644114 3.153410 28.667368 28 21 21
-4.592622 3.157428 28.703890 35 37 42
-4.545266 3.164426 28.767509 32 30 16
-4.496000 3.170256 28.820511 25 35 39
-4.447352 3.176680 28.878908 20 17 16
-4.401439 3.185252 28.956837 22 43 22
-4.351699 3.191246 29.011328 23 31 38
-4.305762 3.200229 29.092987 40 31 35
-4.256066 3.206625 29.151136 30 30 23
-4.206930 3.213627 29.214794 23 25 32
-4.161955 3.224049 29.309540 40 37 32
-4.113254 3.231842 29.380383 43 22 34
-4.069768 3.244018 29.491072 23 31 25
-4.024295 3.254945 29.590406 44 39 40
-3.976052 3.263923 29.672031 27 27 37
-3.925178 3.270982 29.736200 33 17 34
-3.867132 3.272189 29.747169 43 24 25
-3.811205 3.275254 29.775036 40 21 26
-3.755083 3.278247 29.802246 38 20 19
-8.843159 2.706103 24.161636 27 42 21
-8.791883 2.705195 24.153524 22 15 42
-8.739869 2.704048 24.143284 17 15 28
-8.688187 2.702992 24.133854 15 18 27
-8.640687 2.703232 24.135998 29 28 43
-8.597401 2.704800 24.150002 23 21 26
-8.555833 2.706930 24.169020 30 41 16
-8.512687 2.708582 24.183771 43 37 30
-8.466561 2.709299 24.190174 33 36 32
-8.422431 2.710667 24.202387 41 23 32
-8.377193 2.711693 24.211540 42 40 24
-8.333221 2.713142 24.224480 16 23 36
-8.292177 2.715567 24.246132 24 39 27
-8.249934 2.717625 24.264511 23 23 17
-8.211998 2.721135 24.295853 44 36 35
-8.171460 2.723820 24.319820 15 38 24
-8.132734 2.727145 24.349504 22 33 42
-8.098392 2.731988 24.392748 43 38 30
-8.060575 2.735710 24.425985 26 17 38
-8.030662 2.742177 24.483725 32 23 26
-7.998188 2.747844 24.534319 24 44 21
-7.965999 2.753679 24.586416 33 24 33
-7.936622 2.760564 24.647894 35 38 38
-7.899368 2.764779 24.685524 29 30 43
-7.866418 2.770562 24.737164 32 44 29
-7.828658 2.774714 24.774233 16 26 21
-7.789261 2.778335 24.806562 38 27 41
-7.752553 2.782968 24.847925 19 32 25
-7.710486 2.785724 24.872536 33 22 19
-7.671859 2.789767 24.908632 29 15 20
-7.629470 2.792486 24.932907 25 31 33
-7.587951 2.795561 24.960365 20 43 36
-7.551139 2.800422 25.003771 38 38 32
-7.511277 2.804210 25.037590 35 26 42
-7.479019 2.810907 25.097380 18 25 17
-7.444018 2.816656 25.148710 22 23 34
-7.410137 2.822909 25.204546 29 28 40
-7.380451 2.830858 25.275518 24 43 18
-7.343738 2.836202 25.323235 38 16 27
-7.312150 2.843614 25.389410 30 35 40
-7.274993 2.848948 25.437038 30 35 40
-7.236320 2.853760 25.480001 30 35 40
-7.201053 2.859993 25.535648 30 35 40
-7.159591 2.863837 25.569969 30 35 40
-7.122006 2.869297 25.618725 30 35 40
-7.080920 2.873417 25.655506 30 35 40
-7.038436 2.877025 25.687723 42 20 21
-6.997563 2.881349 25.726334 31 19 15
-6.951909 2.883755 25.747810 19 29 35
-6.909213 2.887432 25.780645 28 35 41
-6.864816 2.890449 25.807579 35 22 37
-6.819544 2.893140 25.831608 24 22 23
-6.775180 2.896260 25.859465 21 17 28
-6.727410 2.897961 25.874655 28 22 17
-6.680318 2.899983 25.892706 15 35 37
-6.630875 2.901008 25.901854 30 15 20
-6.581264 2.901974 25.910486 42 27 17
-6.533763 2.903895 25.927629 16 23 27
-6.485439 2.905477 25.941755 44 41 37
-6.439600 2.908206 25.966129 39 36 31
-6.393107 2.910683 25.988239 38 32 23
-6.346300 2.913056 26.009426 19 37 23
-6.299813 2.915616 26.032284 22 24 40
-6.250661 2.916975 26.044422 23 41 37
-6.201108 2.918169 26.055077 34 27 33
-6.149476 2.918395 26.057100 32 29 28
-6.097279 2.918356 26.056747 37 31 33
-6.045947 2.918733 26.060116 38 16 34
-5.994486 2.919054 26.062983 44 26 34
-5.946402 2.921039 26.080709 41 24 36
-5.898690 2.923245 26.100399 19 15 15
-5.853242 2.926621 26.130545 30 27 37
-5.809529 2.930933 26.169048 16 19 25
-5.763511 2.934151 26.197777 29 15 26
-5.726614 2.942114 26.268871 33 21 17
-5.689193 2.949952 26.338856 120 120 120
-5.655260 2.959762 26.426451 120 120 120
-5.626662 2.972576 26.540857 30 35 40
-5.591014 2.981874 26.623877 30 35 40
-5.563153 2.995544 26.745926 30 35 40
-5.527740 3.005373 26.833691 30 35 40
-5.492713 3.015607 26.925066 30 35 40
-5.465853 3.030572 27.058680 30 35 40
-5.431248 3.041499 27.156240 30 35 40
-5.402633 3.056035 27.286026 30 35 40
-5.365073 3.065756 27.372824 30 35 40
-5.325692 3.074626 27.452019 41 42 38
-5.292142 3.087083 27.563242 33 22 32
-5.251068 3.095366 27.637199 27 19 39
-5.216133 3.107484 27.745390 15 37 28
-5.176010 3.116737 27.828012 36 42 30
-5.134483 3.125338 27.904800 42 42 25
-5.096216 3.136133 28.001184 37 25 29
-5.050784 3.142710 28.059912 38 24 30
-5.009171 3.151838 28.141409 28 39 35
-4.963491 3.158585 28.201651 22 29 15
-4.916028 3.164340 28.253033 41 26 29
-4.870040 3.171189 28.314186 42 16 36
-4.818998 3.174869 28.347048 30 42 26
-4.771484 3.180989 28.401688 41 37 40
-4.722272 3.186111 28.447422 28 37 34
-4.672915 3.191259 28.493385 40 17 23
-4.625003 3.197533 28.549404 30 41 31
-4.573431 3.201402 28.583944 33 27 41
-4.525824 3.208179 28.644455 34 18 32
-4.476381 3.213812 28.694748 39 40 36
-4.427616 3.220084 28.750751 15 29 43
-4.381581 3.228534 28.826193 15 23 43
-4.331929 3.234507 28.879526 18 22 34
-4.286195 3.243607 28.960777 36 27 19
-4.236876 3.250206 29.019697 30 22 30
-4.188179 3.257472 29.084576 29 32 35
-4.143491 3.268106 29.179516 35 16 27
-4.094981 3.275985 29.249866 32 20 39
-4.051943 3.288533 29.361902 37 32 16
-4.007035 3.299911 29.463491 30 18 25
-3.959504 3.309436 29.548536 15 31 15
-3.909538 3.317184 29.617716 20 40 20
-3.852275 3.318883 29.632885 22 35 28
-3.796835 3.322230 29.662771 22 26 44
-3.740743 3.325105 29.688437 36 35 30
-8.815531 2.745821 24.086149 21 26 43
-8.764183 2.744827 24.077427 26 16 44
-8.713557 2.744048 24.070599 25 43 23
-8.663797 2.743536 24.066103 24 20 24
-8.617271 2.744047 24.070589 15 36 33
-8.573262 2.745370 24.082195 18 43 29
-8.530677 2.747167 24.097958 30 41 30
-8.487513 2.748797 24.112253 43 19 33
-8.442020 2.749687 24.120058 41 35 34
-8.398727 2.751307 24.134274 27 20 39
-8.354282 2.752567 24.145323 41 29 23
-8.310904 2.754195 24.159605 19 27 15
-8.270082 2.756694 24.181526 17 19 43
-8.227657 2.758685 24.198990 43 40 16
-8.189390 2.762102 24.228966 37 38 25
-8.148704 2.764739 24.252094 33 23 33
-8.109676 2.767973 24.280468 33 26 22
-8.074766 2.772661 24.321585 17 37 44
-8.036459 2.776231 24.352907 38 43 30
-8.005653 2.782453 24.407478 18 41 35
-7.972359 2.787880 24.455090 21 40 44
-7.939460 2.793514 24.504507 43 20 36
-7.909428 2.800232 24.563440 19 17 16
-7.872008 2.804403 24.600025 21 37 15
-7.839004 2.810209 24.650957 16 33 26
-7.801381 2.814422 24.687914 36 40 15
-7.762350 2.818178 24.720860 29 29 20
-7.726073 2.822988 24.763054 25 25 18
-7.684444 2.825892 24.788530 28 18 33
-7.646540 2.830213 24.826429 21 42 27
-7.604829 2.833172 24.852383 31 29 39
-7.564043 2.836516 24.881721 17 42 38
-7.528097 2.841732 24.927475 26 21 17
-7.488854 2.845765 24.962847 15 25 26
-7.457195 2.852753 25.024145 21 36 16
-7.422561 2.858689 25.076220 28 25 26
-7.388837 2.865059 25.132099 15 28 37
-7.359297 2.873150 25.203072 32 34 35
-7.322634 2.878553 25.250462 30 35 40
-7.290750 2.885922 25.315105 30 35 40
-7.253131 2.891108 25.360600 30 35 40
-7.214003 2.895762 25.401419 30 35 40
-7.178512 2.901952 25.455715 30 35 40
-7.137172 2.905848 25.489899 30 35 40
-7.099636 2.911361 25.538258 30 35 40
-7.058532 2.915481 25.574390 30 35 40
-7.016133 2.919121 25.606323 30 35 40
-6.975474 2.923544 25.645124 40 43 21
-6.930141 2.926060 25.667189 31 27 41
-6.887927 2.929939 25.701220 36 28 40
-6.843990 2.933139 25.729286 23 26 34
-6.799232 2.936032 25.754667 24 44 44
-6.755424 2.939383 25.784061 42 39 17
-6.708066 2.941229 25.800253 24 18 19
-6.661567 2.943483 25.820026 25 36 33
-6.612663 2.944701 25.830713 39 19 19
-6.563555 2.945847 25.840767 30 31 15
-6.516575 2.947974 25.859425 41 17 31
-6.468573 2.949669 25.874292 43 30 28
-6.423147 2.952576 25.899788 34 31 32
-6.377033 2.955211 25.922899 41 44 21
-6.330561 2.957721 25.944921 37 19 20
-6.284391 2.960416 25.968557 26 25 38
-6.235440 2.961834 25.980999 37 18 39
-6.186073 2.963077 25.991901 42 21 38
-6.134574 2.963311 25.993956 15 25 34
-6.082468 2.963254 25.993454 31 36 15
-6.031219 2.963616 25.996632 30 20 44
-5.979835 2.963918 25.999281 28 32 37
-5.931893 2.965946 26.017073 21 43 44
-5.884452 2.968263 26.037397 44 30 30
-5.839207 2.971739 26.067888 34 34 18
-5.795520 2.976078 26.105946 27 22 27
-5.749441 2.979256 26.133823 27 29 18
-5.712247 2.987138 26.202967 25 43 40
-5.674577 2.994916 26.271191 120 120 120
-5.640277 3.004633 26.356434 30 35 40
-5.611107 3.017293 26.467485 30 35 40
-5.575072 3.026467 26.547960 30 35 40
-5.546539 3.039930 26.666052 30 35 40
-5.510592 3.049551 26.750446 30 35 40
-5.475119 3.059625 26.838820 30 35 40
-5.447814 3.074509 26.969378 30 35 40
-5.413128 3.085483 27.065638 30 35 40
-5.384194 3.099991 27.192900 30 35 40
-5.346308 3.109587 27.277081 30 35 40
-5.306693 3.118366 27.354090 30 35 40
-5.272996 3.130842 27.463522 26 20 28
-5.232049 3.139229 27.537100 37 29 34
-5.197388 3.151608 27.645681 20 29 26
-5.157626 3.161126 27.729172 18 15 31
-5.116589 3.170061 27.807549 42 25 32
-5.078852 3.181259 27.905783 35 20 28
-5.033861 3.188112 27.965895 30 17 44
-4.992888 3.197692 28.049931 31 20 30
-4.947820 3.204838 28.112612 40 32 23
-4.900945 3.210964 28.166349 24 41 29
-4.855560 3.218220 28.229998 29 43 35
-4.804905 3.222113 28.264149 34 18 30
-4.757681 3.228426 28.319529 16 35 15
-4.708589 3.233610 28.364996 15 19 44
-4.659248 3.238745 28.410048 33 40 39
-4.611387 3.245050 28.465351 33 34 18
-4.559893 3.248923 28.499329 36 18 40
-4.512337 3.255737 28.559093 21 31 41
-4.462971 3.261402 28.608788 40 18 43
-4.414316 3.267741 28.664392 29 29 23
-4.368371 3.276278 28.739283 21 28 24
-4.318832 3.282312 28.792212 21 18 26
-4.273380 3.291658 28.874189 25 37 19
-4.224476 3.298563 28.934765 36 36 25
-4.176199 3.306158 29.001383 28 22 32
-4.131853 3.317122 29.097559 41 23 19
-4.083545 3.325172 29.168177 37 21 20
-4.040626 3.337908 29.279896 34 36 25
-3.995659 3.349303 29.379847 39 19 27
-3.948226 3.358939 29.464376 31 31 21
-3.898902 3.367234 29.537138 15 19 17
-3.842491 3.369569 29.557621 18 30 25
-3.787525 3.373264 29.590038 15 36 39
-3.731337 3.375972 29.613787 31 35 38
-8.788421 2.785401 24.012079 23 43 29
-8.737040 2.784331 24.002857 23 42 38
-8.687571 2.783862 23.998814 35 39 35
-8.639332 2.783785 23.998144 44 30 17
-8.593316 2.784426 24.003675 25 40 22
-8.548198 2.785368 24.011791 32 20 16
-8.504439 2.786765 24.023838 28 28 41
-8.461567 2.788471 24.038542 30 36 41
-8.417261 2.789721 24.049318 33 21 42
-8.375230 2.791743 24.066753 24 25 32
-8.331600 2.793253 24.079769 19 35 17
-8.288686 2.795022 24.095018 23 15 40
-8.248025 2.797576 24.117033 29 39 19
-8.205388 2.799485 24.133493 28 33 31
-8.166744 2.802788 24.161964 28 34 39
-8.125882 2.805364 24.184172 16 16 26
-8.086553 2.808503 24.211237 30 18 41
-8.051066 2.813023 24.250200 43 26 28
-8.012305 2.816447 24.279713 42 29 31
-7.980621 2.822415 24.331161 36 26 25
-7.946511 2.827593 24.375799 28 28 27
-7.912925 2.833023 24.422609 39 31 27
-7.882339 2.839600 24.479313 40 43 28
-7.844857 2.843761 24.515179 22 15 25
-7.811946 2.849641 24.565866 23 18 29
-7.774591 2.853964 24.603136 42 38 19
-7.735995 2.857883 24.636927 41 27 29
-7.700180 2.862887 24.680063 41 36 36
-7.658953 2.865931 24.706299 38 17 33
-7.621645 2.870490 24.745600 38 34 42
-7.580490 2.873650 24.772844 30 23 31
-7.540278 2.877211 24.803545 32 24 26
-7.504961 2.882700 24.850864 18 26 24
-7.466159 2.886915 24.887196 21 28 23
-7.434875 2.894112 24.949244 16 40 37
-7.400479 2.900188 25.001617 33 29 30
-7.366792 2.906625 25.057116 24 21 40
-7.337157 2.914761 25.127249 15 29 32
-7.300334 2.920134 25.173567 24 40 36
-7.268033 2.927402 25.236225 30 35 40
-7.229947 2.932426 25.279533 30 35 40
-7.190473 2.936954 25.318565 30 35 40
-7.154916 2.943157 25.372042 30 35 40
-7.113876 2.947177 25.406700 30 35 40
-7.076624 2.952836 25.455481 30 35 40
-7.035657 2.957015 25.491510 30 35 40
-6.993467 2.960738 25.523602 24 36 41
-6.953190 2.965331 25.563198 24 41 33
-6.908266 2.967996 25.586170 44 30 35
-6.866648 2.972131 25.621822 32 34 40
-6.823234 2.975546 25.651257 40 15 41
-6.779027 2.978663 25.678133 18 36 24
-6.735828 2.982275 25.709267 38 31 27
-6.688895 2.984276 25.726519 16 21 18
-6.643048 2.986797 25.748247 39 25 18
-6.594754 2.988248 25.760759 31 18 21
-6.546235 2.989619 25.772577 38 16 37
-6.499880 2.992008 25.793173 33 17 42
-6.452278 2.993857 25.809113 34 44 34
-6.407295 2.996961 25.835867 31 16 22
-6.361491 2.999728 25.859720 40 20 21
-6.315256 3.002335 25.882196 40 26 32
-6.269379 3.005157 25.906525 32 18 18
-6.220644 3.006645 25.919352 40 18 26
-6.171506 3.007961 25.930698 33 16 24
-6.120197 3.008232 25.933037 41 23 25
-6.068258 3.008196 25.932728 15 24 32
-6.017177 3.008588 25.936106 20 19 42
-5.965929 3.008903 25.938822 42 27 18
-5.918191 3.011009 25.956976 16 33 25
-5.871010 3.013439 25.977922 17 15 28
-5.825987 3.017029 26.008869 33 17 16
-5.782449 3.021460 26.047068 31 17 25
-5.736443 3.024670 26.074739 40 30 17
-5.699080 3.032538 26.142570 38 43 21
-5.661206 3.040277 26.209286 120 120 120
-5.626526 3.049892 26.292175 30 35 40
-5.596778 3.062388 26.399899 30 35 40
-5.560300 3.071404 26.477619 30 35 40
-5.531039 3.084618 26.591534 30 35 40
-5.494537 3.094011 26.672510 30 35 40
-5.458575 3.103895 26.757719 30 35 40
-5.430750 3.118649 26.884901 30 35 40
-5.395890 3.129616 26.979450 30 35 40
-5.366535 3.144031 27.103714 30 35 40
-5.328249 3.153454 27.184944 30 35 40
-5.288335 3.162097 27.259457 30 35 40
-5.254389 3.174526 27.366608 28 26 36
-5.213479 3.182966 27.439362 42 31 29
-5.178991 3.195548 27.547827 21 40 36
-5.139525 3.205295 27.631853 39 15 24
-5.098907 3.214528 27.711451 23 26 39
-5.061596 3.226072 27.810968 15 18 21
-5.016964 3.233155 27.872023 16 44 21
-4.976546 3.243142 27.958122 16 16 24
-4.932020 3.250650 28.022842 24 44 20
-4.885712 3.257141 28.078806 38 29 21
-4.840971 3.264841 28.145182 17 41 44
-4.790792 3.269011 28.181129 40 32 17
-4.743974 3.275601 28.237938 44 34 22
-4.695090 3.280906 28.283674 30 25 39
-4.645863 3.286098 28.328434 25 17 29
-4.598190 3.292531 28.383886 25 40 19
-4.546876 3.296485 28.417976 35 35 37
-4.499562 3.303476 28.478243 36 28 15
-4.450459 3.309316 28.528585 32 24 15
-4.402078 3.315851 28.584923 36 18 20
-4.356371 3.324599 28.660334 26 26 42
-4.307008 3.330753 28.713385 19 23 27
-4.261925 3.340427 28.796787 18 35 25
-4.213502 3.347714 28.859606 33 39 37
-4.165717 3.355716 28.928589 32 36 43
-4.121804 3.367108 29.026791 36 27 19
-4.073770 3.375409 29.098354 33 19 36
-4.030860 3.388259 29.209127 44 37 33
-3.985539 3.399430 29.305433 36 44 21
-3.937901 3.408930 29.387323 15 26 38
-3.889066 3.417664 29.462622 34 27 22
-3.833512 3.420672 29.488550 27 41 18
-3.779028 3.424744 29.523655 19 25 33
-3.722733 3.427278 29.545500 20 33 29
-8.754594 2.822519 23.919657 38 42 26
-8.703175 2.821359 23.909821 29 21 41
-8.654572 2.821104 23.907658 23 42 26
-8.607428 2.821324 23.909523 25 31 44
-8.561877 2.822071 23.915857 29 35 23
-8.516233 2.822796 23.922003 39 15 23
-8.471827 2.823942 23.931715 30 31 32
-8.428958 2.825617 23.945904 41 33 23
-8.385139 2.826990 23.957541 42 26 44
-8.343725 2.829194 23.976221 28 31 34
-8.300752 2.830892 23.990614 26 41 25
-8.258267 2.832778 24.006590 40 42 17
-8.217558 2.835298 24.027946 25 29 35
-8.174563 2.837054 24.042831 15 24 42
-8.135377 2.840161 24.069162 32 24 28
-8.094257 2.842626 24.090050 17 43 18
-8.054603 2.845638 24.115578 17 37 31
-8.018521 2.849956 24.152170 41 24 33
-7.979352 2.853223 24.179853 43 23 22
-7.946827 2.858919 24.228130 33 34 28
-7.911901 2.863817 24.269636 34 34 37
-7.877660 2.869024 24.313766 15 29 15
-7.846640 2.875477 24.368446 28 28 18
-7.809268 2.879668 24.403963 19 35 36
-7.776646 2.885674 24.454863 32 38 26
-7.739696 2.890140 24.492708 36 42 37
-7.701678 2.894261 24.527637 25 30 41
-7.666456 2.899493 24.571976 19 41 21
-7.625723 2.902694 24.599106 40 23 20
-7.589097 2.907511 24.639927 40 39 37
-7.548586 2.910893 24.668581 35 26 39
-7.508978 2.914669 24.700586 29 33 32
-7.474307 2.920425 24.749361 38 20 33
-7.435947 2.924806 24.786491 32 34 35
-7.405042 2.932198 24.849134 38 19 25
-7.370976 2.938430 24.901947 19 31 41
-7.337348 2.944922 24.956964 32 22 43
-7.307383 2.952983 25.025284 39 28 27
-7.270109 2.958182 25.069342 20 38 44
-7.237386 2.965318 25.129812 30 35 40
-7.199220 2.970307 25.172096 30 35 40
-7.159881 2.974880 25.210848 30 35 40
-7.124487 2.981168 25.264139 30 35 40
-7.083749 2.985294 25.299105 30 35 40
-7.046779 2.991079 25.348127 30 35 40
-7.005976 2.995309 25.383972 30 35 40
-6.964037 2.999111 25.416193 38 41 20
-6.924215 3.003887 25.456673 37 30 31
-6.879803 3.006729 25.480753 18 15 16
-6.838926 3.011169 25.518379 32 18 30
-6.796183 3.014848 25.549559 17 22 39
-6.752672 3.018240 25.578304 23 43 34
-6.710211 3.022156 25.611494 44 37 32
-6.663784 3.024333 25.629940 17 39 33
-6.618696 3.027156 25.653862 32 25 18
-6.571131 3.028881 25.668482 17 23 27
-6.523318 3.030518 25.682354 22 33 15
-6.477696 3.033207 25.705143 39 23 19
-6.430561 3.035225 25.722242 16 15 36
-6.386148 3.038570 25.750595 20 40 39
-6.340802 3.041523 25.775620 42 39 35
-6.294986 3.044296 25.799122 23 37 40
-6.249599 3.047325 25.824789 37 38 30
-6.201232 3.048939 25.838469 16 42 43
-6.152497 3.050398 25.850828 36 42 35
-6.101495 3.050748 25.853794 37 20 16
-6.049813 3.050760 25.853901 36 39 30
-5.999048 3.051240 25.857965 41 32 26
-5.948046 3.051606 25.861071 30 29 18
-5.900518 3.053777 25.879463 39 31 41
-5.853468 3.056235 25.900299 20 25 20
-5.808555 3.059864 25.931047 39 41 25
-5.765236 3.064405 25.969530 41 18 15
-5.719494 3.067729 25.997700 25 39 27
-5.682085 3.075624 26.064611 28 23 29
-5.644044 3.083321 26.129835 120 120 120
-5.608961 3.092791 26.210096 30 35 40
-5.578600 3.105070 26.314152 30 35 40
-5.541652 3.113881 26.388821 30 35 40
-5.511568 3.126755 26.497925 30 35 40
-5.474426 3.135836 26.574884 30 35 40
-5.437876 3.145438 26.656256 30 35 40
-5.409408 3.159951 26.779245 30 35 40
-5.374322 3.170850 26.871609 30 35 40
-5.344406 3.185050 26.991947 30 35 40
-5.305597 3.194186 27.069374 30 35 40
-5.265262 3.202582 27.140526 30 35 40
-5.230921 3.214837 27.244381 30 24 30
-5.189988 3.223256 27.315725 36 44 38
-5.155609 3.235967 27.423452 24 43 43
-5.116459 3.245925 27.507843 32 25 20
-5.076305 3.255456 27.588612 37 25 30
-5.039431 3.267323 27.689180 15 30 42
-4.995176 3.274616 27.750980 37 38 42
-4.955328 3.284993 27.838921 33 39 22
-4.911396 3.292868 27.905657 18 43 30
-4.865715 3.299737 27.963877 32 37 24
-4.821640 3.307869 28.032789 35 28 34
-4.771969 3.312308 28.070404 35 18 43
-4.725546 3.319134 28.128252 22 15 37
-4.676849 3.324507 28.173792 32 29 42
-4.627697 3.329684 28.217665 32 22 37
-4.580136 3.336148 28.272444 18 19 44
-4.528962 3.340109 28.306011 28 33 25
-4.481837 3.347195 28.366058 28 22 31
-4.432985 3.353155 28.416571 20 20 15
-4.384895 3.359855 28.473345 37 39 26
-4.339455 3.368788 28.549047 15 33 28
-4.290337 3.375065 28.602243 42 20 33
-4.245714 3.385096 28.687254 43 33 33
-4.197866 3.392796 28.752504 32 44 20
-4.150675 3.401248 28.824133 22 22 34
-4.107315 3.413121 28.924755 44 35 15
-4.059649 3.421704 28.997496 37 20 19
-4.016941 3.434775 29.108265 36 41 16
-3.971534 3.445890 29.202457 17 33 37
-3.923887 3.455364 29.282742 34 33 34
-3.875571 3.464525 29.360384 22 25 31
-3.820772 3.468085 29.390554 32 43 40
-3.766732 3.472456 29.427591 36 25 23
-3.710416 3.474834 29.447748 35 33 34
-8.733319 2.863383 23.861526 21 38 20
-8.681887 2.862160 23.851337 37 42 40
-8.633431 2.861911 23.849257 21 19 28
-8.586359 2.862120 23.850998 18 15 25
-8.540796 2.862837 23.856972 37 19 32
-8.495133 2.863528 23.862734 26 35 30
-8.450683 2.864638 23.871986 42 21 27
-8.407740 2.866275 23.885626 32 34 15
-8.363920 2.867630 23.896915 36 40 30
-8.322556 2.869847 23.915390 25 44 36
-8.279818 2.871613 23.930111 17 18 37
-8.237470 2.873536 23.946135 34 39 37
-8.196573 2.875991 23.966589 44 21 17
-8.153284 2.877630 23.980247 38 21 36
-8.113694 2.880602 24.005013 43 15 29
-8.072378 2.882992 24.024935 39 15 43
-8.032542 2.885943 24.049526 31 29 28
-7.996155 2.890177 24.084805 35 22 23
-7.956828 2.893392 24.111601 16 30 32
-7.923914 2.898993 24.158274 17 15 28
-7.888577 2.903771 24.198088 20 34 34
-7.854052 2.908908 24.240900 37 27 20
-7.822935 2.915379 24.294828 18 20 39
-7.785775 2.919665 24.330545 26 34 42
-7.753489 2.925845 24.382042 18 17 27
-7.716900 2.930468 24.420568 28 34 39
-7.679285 2.934759 24.456322 19 31 15
-7.644467 2.940179 24.501495 40 39 19
-7.604023 2.943493 24.529106 16 21 15
-7.567752 2.948475 24.570623 27 29 37
-7.527560 2.951984 24.599869 37 34 37
-7.488216 2.955875 24.632290 44 42 25
-7.453777 2.961766 24.681379 28 36 37
-7.415565 2.966226 24.718550 17 20 17
-7.384752 2.973726 24.781046 31 42 17
-7.350868 2.980082 24.834015 33 17 36
-7.317236 2.986627 24.888559 43 42 37
-7.286848 2.994595 24.954958 34 37 15
-7.249045 2.999605 24.996706 31 36 42
-7.216041 3.006684 25.055696 19 20 25
-7.178096 3.011788 25.098236 30 35 40
-7.139199 3.016563 25.138025 30 35 40
-7.104111 3.023026 25.191883 30 35 40
-7.063601 3.027258 25.227146 30 35 40
-7.026878 3.033185 25.276541 30 35 40
-6.986229 3.037491 25.312426 40 36 41
-6.944500 3.041387 25.344891 27 39 28
-6.905025 3.046335 25.386122 32 26 22
-6.860973 3.049322 25.411013 18 18 22
-6.820618 3.054008 25.450066 18 15 35
-6.778347 3.057901 25.482506 43 29 33
-6.735295 3.061498 25.512480 22 16 15
-6.693314 3.065640 25.547001 23 16 29
-6.647200 3.067938 25.566153 21 26 19
-6.602600 3.070977 25.591473 30 26 23
-6.555501 3.072891 25.607426 44 44 33
-6.508160 3.074721 25.622677 43 35 17
-6.463025 3.077631 25.646925 16 43 31
-6.416198 3.079775 25.664793 26 20 30
-6.372179 3.083313 25.694271 18 23 22
-6.327138 3.086409 25.720074 34 36 20
-6.281608 3.089316 25.744297 26 28 17
-6.236604 3.092531 25.771090 25 36 32
-6.188532 3.094266 25.785549 23 16 15
-6.140137 3.095868 25.798897 40 19 23
-6.089394 3.096302 25.802517 36 15 44
-6.037945 3.096382 25.803185 44 41 24
-5.987464 3.096964 25.808033 21 33 15
-5.936684 3.097400 25.811670 42 23 36
-5.889290 3.099626 25.830219 18 16 37
-5.842214 3.102061 25.850506 35 38 28
-5.797285 3.105688 25.880737 37 34 28
-5.754177 3.110366 25.919714 16 30 19
-5.708753 3.113866 25.948879 24 27 23
-5.671468 3.121909 26.015907 37 34 24
-5.633378 3.129654 26.080452 30 35 40
-5.598061 3.139100 26.159163 30 35 40
-5.567354 3.151333 26.261105 30 35 40
-5.530131 3.160075 26.333958 30 35 40
-5.499542 3.172813 26.440105 30 35 40
-5.462009 3.181753 26.514605 30 35 40
-5.425080 3.191224 26.593531 30 35 40
-5.396173 3.205647 26.713728 30 35 40
-5.360892 3.216535 26.804459 30 35 40
-5.330557 3.230641 26.922007 30 35 40
-5.291376 3.239618 26.996817 30 35 40
-5.250717 3.247866 27.065550 30 35 40
-5.216038 3.260024 27.166866 30 35 40
-5.175016 3.268431 27.236929 39 39 25
-5.140622 3.281248 27.343737 29 25 26
-5.101613 3.291363 27.428026 19 26 34
-5.061710 3.301115 27.509295 24 29 20
-5.025015 3.313197 27.609972 20 40 18
-4.980938 3.320625 27.671877 43 37 20
-4.941359 3.331253 27.760443 44 32 24
-4.897741 3.339369 27.828074 27 27 32
-4.852394 3.346479 27.887321 31 43 35
-4.808703 3.354909 27.957575 22 25 35
-4.759343 3.359536 27.996136 19 28 15
-4.713155 3.366540 28.054497 41 25 23
-4.664577 3.371983 28.099859 32 30 20
-4.615474 3.377176 28.143137 39 44 26
-4.567967 3.383679 28.197327 19 21 19
-4.516881 3.387661 28.230505 43 23 23
-4.469887 3.394851 28.290426 35 27 38
-4.421222 3.400940 28.341167 35 23 42
-4.373368 3.407819 28.398495 23 23 17
-4.328148 3.416959 28.474659 38 20 30
-4.279224 3.423379 28.528160 30 34 21
-4.234934 3.433731 28.614422 25 27 15
-4.187467 3.441754 28.681282 20 18 38
-4.140680 3.450566 28.754721 38 28 22
-4.097721 3.462863 28.857189 26 20 32
-4.050335 3.471716 28.930965 28 38 38
-4.007812 3.485054 29.042118 25 40 31
-3.962413 3.496247 29.135389 44 27 28
-3.914773 3.505767 29.214725 20 20 36
-3.866674 3.515158 29.292986 42 24 19
-3.812196 3.518950 29.324581 23 17 24
-3.758350 3.523453 29.362108 19 20 29
-3.702081 3.525791 29.381592 41 25 22
-8.700585 2.900195 23.772089 15 33 32
-8.649379 2.898968 23.762032 37 38 32
-8.601484 2.898843 23.761005 43 34 40
-8.554799 2.899126 23.763330 34 18 39
-8.509554 2.899904 23.769703 38 17 43
-8.464031 2.900595 23.775368 23 40 43
-8.419671 2.901695 23.784382 23 26 44
-8.376928 2.903367 23.798090 15 42 36
-8.333346 2.904766 23.809561 31 37 44
-8.292235 2.907048 23.828262 33 36 26
-8.249859 2.908910 23.843523 44 32 19
-8.207668 2.910859 23.859499 24 31 35
-8.166527 2.913206 23.878735 35 16 40
-8.122844 2.914667 23.890717 25 20 41
-8.082636 2.917401 23.913124 34 35 29
-8.040956 2.919633 23.931416 18 32 32
-8.000718 2.922418 23.954247 32 20 31
-7.963699 2.926420 23.987045 43 17 20
-7.923979 2.929471 24.012056 23 35 17
-7.890347 2.934824 24.055937 25 16 36
-7.854359 2.939361 24.093126 43 23 28
-7.819414 2.944347 24.133995 36 26 17
-7.788147 2.950788 24.186790 30 42 20
-7.751293 2.955181 24.222792 34 36 43
-7.719554 2.961590 24.275328 28 20 23
-7.683546 2.966432 24.315020 32 44 33
-7.646630 2.970984 24.352325 22 25 29
-7.612536 2.976697 24.399153 16 19 40
-7.572614 2.980190 24.427786 37 24 38
-7.536960 2.985419 24.470650 26 34 30
-7.497274 2.989109 24.500895 38 26 24
-7.458330 2.993146 24.533981 41 43 22
-7.424309 2.999224 24.583805 44 28 39
-7.386379 3.003794 24.621264 19 31 24
-7.355589 3.011348 24.683184 19 44 34
-7.321552 3.017667 24.734974 17 33 38
-7.287625 3.024117 24.787842 29 40 17
-7.256831 3.031964 24.852161 25 34 20
-7.218775 3.036864 24.892326 21 42 39
-7.185769 3.043972 24.950588 41 23 44
-7.148215 3.049238 24.993757 40 37 28
-7.109885 3.054246 25.034807 33 40 27
-7.075288 3.060940 25.089672 30 35 40
-7.035131 3.065307 25.125467 40 17 39
-6.998812 3.071421 25.175583 32 19 28
-6.958444 3.075834 25.211752 34 40 34
-6.917054 3.079856 25.244724 19 42 25
-6.878130 3.085044 25.287243 41 37 40
-6.834635 3.088243 25.313463 36 20 21
-6.795073 3.093279 25.354750 40 25 15
-6.753528 3.097483 25.389204 33 26 20
-6.711195 3.101386 25.421194 34 35 32
-6.669965 3.105861 25.457880 21 36 44
-6.624324 3.108337 25.478168 23 27 33
-6.580443 3.111682 25.505594 19 31 35
-6.534026 3.113872 25.523539 24 20 38
-6.487321 3.115957 25.540632 29 31 36
-6.442835 3.119150 25.566805 23 44 23
-6.396405 3.121446 25.585619 40 38 36
-6.352818 3.125177 25.616203 41 31 17
-6.308076 3.128395 25.642586 32 30 44
-6.262830 3.131415 25.667336 20 26 31
-6.218225 3.134807 25.695143 40 23 32
-6.170510 3.136676 25.710457 33 42 34
-6.122543 3.138446 25.724970 29 33 28
-6.072137 3.138986 25.729393 43 42 26
-6.021022 3.139165 25.730862 16 17 18
-5.970958 3.139900 25.736889 39 36 42
-5.920514 3.140447 25.741367 34 17 15
-5.873393 3.142780 25.760494 37 37 36
-5.826408 3.145229 25.780565 20 34 17
-5.781551 3.148881 25.810497 19 30 15
-5.738676 3.153687 25.849892 18 16 38
-5.693541 3.157327 25.879730 26 36 21
-5.656518 3.165574 25.947330 43 36 25
-5.618699 3.173525 26.012497 120 120 120
-5.583442 3.183084 26.090849 30 35 40
-5.552479 3.195295 26.190941 30 35 40
-5.514901 3.203895 26.261435 30 35 40
-5.483644 3.216368 26.363674 30 35 40
-5.445599 3.225064 26.434948 30 35 40
-5.408136 3.234278 26.510471 30 35 40
-5.378570 3.248443 26.626585 30 35 40
-5.342957 3.259203 26.714783 30 35 40
-5.311931 3.273008 26.827932 30 35 40
-5.272165 3.281654 26.898802 30 35 40
-5.230962 3.289574 26.963722 30 35 40
-5.195626 3.301388 27.060555 16 37 16
-5.154308 3.309608 27.127935 15 26 33
-5.119583 3.322283 27.231825 34 42 25
-5.080505 3.332374 27.314545 33 44 18
-5.040662 3.342178 27.394901 19 43 30
-5.003903 3.354264 27.493971 37 25 16
-4.959866 3.361687 27.554810 35 42 15
-4.920411 3.372417 27.642761 27 27 33
-4.877026 3.380666 27.710375 18 44 23
-4.832045 3.387985 27.770372 16 20 43
-4.788820 3.396721 27.841974 33 30 19
-4.739938 3.401602 27.881987 32 21 43
-4.694211 3.408891 27.941732 18 24 36
-4.645938 3.414484 27.987577 30 17 29
-4.597107 3.419799 28.031137 29 30 32
-4.549912 3.426477 28.085875 43 28 37
-4.499108 3.430570 28.119425 21 31 27
-4.452488 3.437997 28.180304 33 32 32
-4.404215 3.444322 28.232149 38 34 15
-4.356743 3.451446 28.290539 32 29 30
-4.311859 3.460834 28.367493 19 44 25
-4.263176 3.467383 28.421175 28 25 35
-4.219269 3.478046 28.508577 28 34 20
-4.172278 3.486424 28.577244 20 24 16
-4.125955 3.495601 28.652468 44 23 19
-4.083431 3.508300 28.756556 24 35 33
-4.036342 3.517384 28.831013 17 39 37
-3.993971 3.530902 28.941818 28 25 33
-3.948556 3.542087 29.033501 38 39 23
-3.900898 3.551564 29.111181 33 23 26
-3.852953 3.561063 29.189039 27 38 24
-3.798775 3.565005 29.221350 30 22 39
-3.745146 3.569593 29.258957 26 39 25
-3.688999 3.571888 29.277769 36 15 39
-8.675940 2.939389 23.704754 42 30 23
-8.624903 2.938154 23.694788 18 38 17
-8.577591 2.938180 23.695004 29 25 21
-8.531394 2.938591 23.698317 30 35 27
-8.486592 2.939490 23.705564 16 42 38
-8.441246 2.940209 23.711365 42 24 39
-8.397021 2.941329 23.720398 33 39 41
-8.354630 2.943108 23.734745 38 32 23
-8.311422 2.944618 23.746920 20 26 27
-8.270677 2.947023 23.766314 36 21 30
-8.228625 2.948987 23.782152 42 42 22
-8.186543 2.950963 23.798090 28 19 36
-8.145221 2.953238 23.816435 41 36 20
-8.101230 2.954566 23.827148 20 35 33
-8.060453 2.957089 23.847494 22 27 23
-8.018399 2.959171 23.864283 24 25 34
-7.977703 2.961782 23.885340 43 40 25
-7.939970 2.965531 23.915571 28 26 37
-7.899757 2.968394 23.938658 35 32 15
-7.865392 2.973502 23.979855 29 40 15
-7.828799 2.977825 24.014721 33 26 16
-7.793498 2.982697 24.054005 40 16 42
-7.762060 2.989116 24.105778 32 38 31
-7.725455 2.993614 24.142048 43 21 27
-7.694191 3.000251 24.195570 34 43 31
-7.658728 3.005324 24.236481 44 22 27
-7.622460 3.010143 24.275351 20 29 37
-7.589065 3.016167 24.323927 25 26 35
-7.549663 3.019865 24.353750 30 27 29
-7.514605 3.025361 24.398069 40 17 21
-7.475366 3.029233 24.429302 32 31 30
-7.436785 3.033425 24.463108 26 41 19
-7.403250 3.039745 24.514072 37 30 19
-7.365677 3.044480 24.552258 26 34 33
-7.334875 3.052096 24.613674 37 28 25
-7.300445 3.058294 24.663664 42 31 39
-7.266075 3.064603 24.714542 33 29 31
-7.235119 3.072448 24.777805 20 24 32
-7.197238 3.077440 24.818062 40 32 26
-7.164523 3.084725 24.876818 30 44 23
-7.127299 3.090158 24.920628 33 25 43
-7.089360 3.095354 24.962534 16 29 31
-7.055138 3.102259 25.018221 34 39 24
-7.015271 3.106763 25.054541 32 28 23
-6.979289 3.113064 25.105356 41 30 33
-6.939163 3.117595 25.141893 36 22 26
-6.898072 3.121755 25.175444 23 33 18
-6.859623 3.127181 25.219204 16 20 22
-6.816564 3.130570 25.246534 36 30 42
-6.777653 3.135929 25.289749 19 32 16
-6.736687 3.140410 25.325890 19 34 40
-6.694940 3.144593 25.359623 22 28 40
-6.654313 3.149370 25.398142 34 17 38
-6.609067 3.152017 25.419489 37 19 35
-6.565736 3.155625 25.448587 34 35 27
-6.519827 3.158041 25.468073 17 41 32
-6.473576 3.160329 25.486521 18 27 43
-6.429528 3.163736 25.514002 23 43 25
-6.383338 3.166136 25.533354 19 44 30
-6.339978 3.169989 25.564426 18 25 41
-6.295364 3.173273 25.590912 15 17 30
-6.250216 3.176339 25.615641 33 27 40
-6.205795 3.179829 25.643782 35 23 36
-6.158264 3.181770 25.659431 38 31 15
-6.110514 3.183629 25.674427 44 43 19
-6.060291 3.184221 25.679199 19 22 39
-6.009365 3.184450 25.681047 35 40 40
-5.959558 3.185281 25.687750 40 27 25
-5.909342 3.185906 25.692793 28 32 24
-5.862419 3.188333 25.712362 43 30 41
-5.815549 3.190832 25.732517 23 41 20
-5.770773 3.194535 25.762379 32 42 23
-5.727984 3.199415 25.801731 38 36 29
-5.682921 3.203101 25.831461 34 39 20
-5.646122 3.211555 25.899641 25 25 15
-5.608705 3.219812 25.966225 120 120 120
-5.573739 3.229643 26.045507 30 35 40
-5.542735 3.241977 26.144978 30 35 40
-5.504896 3.250510 26.213791 30 35 40
-5.473165 3.262848 26.313293 30 35 40
-5.434757 3.271407 26.382317 30 35 40
-5.396890 3.280462 26.455341 30 35 40
-5.366831 3.294491 26.568472 30 35 40
-5.330947 3.305187 26.654736 30 35 40
-5.299353 3.318787 26.764408 30 35 40
-5.259101 3.327187 26.832150 30 35 40
-5.217399 3.334832 26.893808 30 35 40
-5.181430 3.346340 26.986616 29 40 39
-5.139766 3.354374 27.051401 20 21 29
-5.104580 3.366851 27.152023 40 29 23
-5.065263 3.376842 27.232597 43 29 21
-5.025269 3.386595 27.311247 19 30 29
-4.988242 3.398582 27.407923 35 43 17
-4.944113 3.405945 27.467295 21 43 26
-4.904583 3.416676 27.553839 17 38 34
-4.861232 3.424959 27.620634 20 18 18
-4.816450 3.432413 27.680748 29 37 31
-4.773531 3.441383 27.753090 16 22 39
-4.725037 3.446497 27.794333 33 16 38
-4.679742 3.454096 27.855610 42 28 24
-4.631783 3.459886 27.902309 22 28 42
-4.583253 3.465387 27.946667 41 15 41
-4.536433 3.472331 28.002672 17 18 44
-4.485935 3.476600 28.037096 21 41 33
-4.439695 3.484318 28.099339 31 29 26
-4.391783 3.490904 28.152454 20 23 37
-4.344623 3.498268 28.211838 33 40 37
-4.299982 3.507880 28.289352 35 41 16
-4.251423 3.514510 28.342821 33 25 39
-4.207729 3.525394 28.430599 18 34 19
-4.161037 3.534032 28.500256 36 15 19
-4.115003 3.543475 28.576412 41 16 28
-4.072702 3.556444 28.681002 34 29 27
-4.025760 3.565674 28.755432 28 30 33
-3.983424 3.579308 28.865389 40 17 20
-3.937970 3.590502 28.955662 39 15 19
-3.890281 3.599962 29.031948 25 35 18
-3.842425 3.609551 29.109282 22 22 37
-3.788455 3.613603 29.141960 17 35 24
-3.735017 3.618298 29.179823 34 22 44
-3.679009 3.620612 29.198483 41 44 32
-8.599662 2.976806 23.625446 15 18 16
-8.553167 2.977069 23.627533 21 19 15
-8.507497 2.977624 23.631935 33 44 26
-8.463273 2.978694 23.640427 25 28 34
-8.418285 2.979505 23.646868 40 19 15
-8.374350 2.980701 23.656355 24 22 19
-8.332423 2.982629 23.671656 44 36 19
-8.289609 2.984259 23.684597 18 25 20
-8.249208 2.986782 23.704620 38 26 21
-8.207394 2.988820 23.720793 15 42 29
-8.165353 2.990798 23.736492 40 26 39
-8.123889 2.993012 23.754063 41 44 24
-8.079678 2.994234 23.763760 30 33 22
-8.038460 2.996586 23.782425 29 28 38
-7.996086 2.998532 23.797876 24 16 38
-7.954996 3.000986 23.817352 16 38 25
-7.916669 3.004519 23.845388 39 21 44
-7.876044 3.007217 23.866800 24 25 27
-7.841097 3.012129 23.905783 23 32 23
-7.804047 3.016288 23.938795 26 15 43
-7.768512 3.021088 23.976889 24 41 17
-7.736973 3.027511 24.027866 27 31 40
-7.700583 3.032105 24.064322 39 18 41
-7.669749 3.038957 24.118708 40 36 35
-7.634764 3.044241 24.160645 29 42 15
-7.599071 3.049309 24.200863 37 22 37
-7.566290 3.055617 24.250929 24 41 23
-7.527344 3.059501 24.281754 25 23 31
-7.492787 3.065231 24.327230 15 42 17
-7.453914 3.069259 24.359196 34 22 16
-7.415587 3.073566 24.393379 24 19 40
-7.382356 3.080056 24.444889 30 21 17
-7.345006 3.084902 24.483353 25 15 34
-7.314012 3.092502 24.543665 40 26 35
-7.279022 3.098502 24.591290 20 41 44
-7.244131 3.104627 24.639900 38 33 25
-7.213102 3.112503 24.702404 17 23 23
-7.175595 3.117672 24.743431 26 30 27
-7.143333 3.125208 24.803240 43 26 24
-7.106468 3.130822 24.847790 26 24 27
-7.068907 3.136205 24.890516 38 39 38
-7.035076 3.143332 24.947077 44 31 44
-6.995496 3.147973 24.983915 38 41 26
-6.959861 3.154469 25.035471 38 32 18
-6.919988 3.159125 25.072422 39 39 36
-6.879193 3.163424 25.106543 21 44 25
-6.841186 3.169079 25.151419 17 25 39
-6.798517 3.172641 25.179691 44 36 32
-6.760213 3.178309 25.224676 37 31 32
-6.719809 3.183068 25.262442 19 22 19
-6.678619 3.187523 25.297800 16 30 26
-6.638567 3.192593 25.338043 35 28 42
-6.593679 3.195398 25.360304 18 25 32
-6.550851 3.199253 25.390894 30 22 25
-6.505408 3.201880 25.411749 25 27 26
-6.459562 3.204349 25.431345 43 44 35
-6.415908 3.207954 25.459951 19 18 35
-6.369932 3.210446 25.479729 39 24 29
-6.326740 3.214392 25.511049 22 21 42
-6.282177 3.217700 25.537304 27 23 40
-6.237072 3.220783 25.561771 20 38 25
-6.192791 3.224346 25.590046 34 29 22
-6.145449 3.226361 25.606037 31 25 18
-6.097960 3.228332 25.621679 20 15 32
-6.047968 3.229000 25.626984 16 31 31
-5.997310 3.229321 25.629532 17 44 28
-5.947832 3.230288 25.637209 29 41 17
-5.897904 3.231025 25.643059 25 32 34
-5.851290 3.233608 25.663553 33 24 24
-5.804647 3.236219 25.684278 30 19 43
-5.760046 3.240026 25.714491 19 40 35
-5.717374 3.244996 25.753937 31 34 19
-5.672344 3.248706 25.783382 27 35 23
-5.635859 3.257423 25.852566 34 28 37
-5.599044 3.266109 25.921501 120 120 120
-5.564598 3.276352 26.002796 30 35 40
-5.533723 3.288911 26.102468 30 35 40
-5.495690 3.297414 26.169952 30 35 40
-5.463572 3.309664 26.267174 30 35 40
-5.424901 3.318143 26.334471 30 35 40
-5.386677 3.327065 26.405279 30 35 40
-5.356126 3.340950 26.515476 30 35 40
-5.319912 3.351544 26.599558 30 35 40
-5.287727 3.364917 26.705692 30 35 40
-5.247046 3.373101 26.770641 30 35 40
-5.204878 3.380488 26.829269 30 35 40
-5.168260 3.391671 26.918020 15 18 37
-5.126201 3.399480 26.980003 32 43 30
-5.090429 3.411670 27.076748 23 39 44
-5.050745 3.421473 27.154545 33 17 19
-5.010454 3.431072 27.230728 40 19 24
-4.972984 3.442835 27.324085 27 27 17
-4.928638 3.450047 27.381323 40 20 23
-4.888875 3.460665 27.465591 36 41 35
-4.845430 3.468887 27.530851 35 28 39
-4.800739 3.476397 27.590454 41 17 25
-4.758035 3.485538 27.662996 41 34 24
-4.709894 3.490863 27.705261 24 42 17
-4.665052 3.498789 27.768166 32 27 36
-4.617484 3.504837 27.816168 27 17 19
-4.569377 3.510619 27.862053 20 18 24
-4.523052 3.517929 27.920074 38 41 33
-4.472950 3.522448 27.955935 33 17 36
-4.427185 3.530540 28.020157 32 40 21
-4.379684 3.537437 28.074898 18 23 36
-4.332853 3.545061 28.135408 15 41 23
-4.288485 3.554928 28.213717 43 28 37
-4.240063 3.561653 28.267090 26 30 20
-4.196548 3.572737 28.355057 26 32 40
-4.150081 3.581577 28.425215 38 40 44
-4.104247 3.591217 28.501719 33 29 25
-4.062078 3.604379 28.606186 19 36 22
-4.015221 3.613699 28.680147 15 31 23
-3.972859 3.627393 28.788830 19 44 30
-3.927382 3.638604 28.877810 24 16 17
-3.879638 3.648018 28.952526 20 34 22
-3.831659 3.657493 29.027719 38 20 28
-3.777646 3.661410 29.058813 40 29 17
-3.724223 3.666032 29.095493 32 40 24
-8.565525 3.012053 23.531662 22 31 36
-8.520306 3.012705 23.536757 29 42 32
-8.475375 3.013467 23.542709 34 28 31
-8.431967 3.014781 23.552980 19 28 15
-8.387548 3.015748 23.560528 28 20 41
-8.344048 3.017057 23.570757 21 33 33
-8.302692 3.019161 23.587194 19 33 25
-8.260288 3.020905 23.600822 36 35 39
-8.220222 3.023530 23.621328 33 37 22
-8.178636 3.025623 23.637676 25 23 18
-8.136620 3.027580 23.652966 37 21 24
-8.095013 3.029712 23.669628 44 38 25
-8.050601 3.030814 23.678238 21 19 42
-8.008983 3.032988 23.695215 29 37 21
-7.966369 3.034807 23.709431 21 34 19
-7.924990 3.037122 23.727514 40 28 39
-7.886203 3.040464 23.753622 41 41 29
-7.845307 3.043028 23.773659 29 44 29
-7.809904 3.047768 23.810684 29 30 42
-7.772507 3.051782 23.842045 17 43 40
-7.736780 3.056506 23.878952 23 24 18
-7.705171 3.062925 23.929102 20 20 19
-7.668989 3.067595 23.965590 37 39 44
-7.638501 3.074617 24.020445 39 15 43
-7.603930 3.080073 24.063070 20 17 19
-7.568718 3.085337 24.104197 34 28 37
-7.536420 3.091865 24.155193 33 26 27
-7.497844 3.095884 24.186592 41 37 31
-7.463631 3.101769 24.232569 37 30 19
-7.425041 3.105900 24.264841 24 42 33
-7.386855 3.110255 24.298866 25 40 24
-7.353694 3.116797 24.349979 34 37 34
-7.316354 3.121644 24.387846 32 16 37
-7.284966 3.129113 24.446194 31 39 39
-7.249366 3.134861 24.491100 33 25 17
-7.213946 3.140766 24.537231 36 21 20
-7.182727 3.148593 24.598381 15 32 43
-7.145494 3.153873 24.639635 25 24 23
-7.113617 3.161608 24.700060 24 27 25
-7.077126 3.167385 24.745197 43 35 37
-7.039995 3.172955 24.788713 24 36 40
-7.006585 3.180294 24.846046 21 33 15
-6.967347 3.185073 24.883381 26 33 44
-6.932092 3.191754 24.935581 31 42 20
-6.892505 3.196524 24.972845 24 38 23
-6.852030 3.200948 25.007410 24 21 40
-6.814480 3.206814 25.053236 22 38 27
-6.772250 3.210548 25.082409 43 41 39
-6.734628 3.216539 25.129208 32 28 36
-6.694895 3.221604 25.168777 16 19 19
-6.654389 3.226371 25.206020 23 36 20
-6.615026 3.231769 25.248192 38 30 43
-6.570573 3.234743 25.271433 33 43 15
-6.528361 3.238877 25.303726 16 21 39
-6.483497 3.241748 25.326159 39 30 27
-6.438189 3.244442 25.347202 24 31 38
-6.395082 3.248296 25.377310 34 29 24
-6.349458 3.250923 25.397833 25 17 20
-6.306563 3.255000 25.429689 44 34 26
-6.262128 3.258343 25.455805 21 43 26
-6.217152 3.261457 25.480131 36 29 20
-6.173179 3.265153 25.509005 34 30 38
-6.126194 3.267303 25.525806 30 39 41
-6.079220 3.269496 25.542940 17 23 44
-6.029683 3.270337 25.549505 38 16 42
-5.979523 3.270850 25.553516 34 16 39
-5.930638 3.272076 25.563093 42 19 40
-5.881171 3.273000 25.570311 35 19 27
-5.835083 3.275836 25.592468 24 26 44
-5.788835 3.278632 25.614315 30 18 40
-5.744558 3.282604 25.645348 15 33 42
-5.702159 3.287731 25.685402 34 40 32
-5.657267 3.291501 25.714849 32 15 30
-5.621244 3.300547 25.785524 42 36 26
-5.585229 3.309765 25.857540 120 120 120
-5.551421 3.320476 25.941219 120 120 120
-5.520661 3.333229 26.040854 30 35 40
-5.482326 3.341608 26.106314 30 35 40
-5.449700 3.353662 26.200481 30 35 40
-5.410720 3.362000 26.265629 30 35 40
-5.372094 3.370725 26.333792 30 35 40
-5.340873 3.384316 26.439966 30 35 40
-5.304176 3.394673 26.520880 30 35 40
-5.271250 3.407677 26.622475 30 35 40
-5.230103 3.415577 26.684198 30 35 40
-5.187499 3.422680 26.739687 30 35 40
-5.150200 3.433467 26.823957 42 20 20
-5.107738 3.441003 26.882833 18 28 19
-5.071373 3.452850 26.975388 43 26 35
-5.031354 3.462437 27.050289 31 38 34
-4.990795 3.471858 27.123888 35 35 17
-4.952882 3.483346 27.213638 44 32 16
-4.908329 3.490367 27.268496 22 15 20
-4.868346 3.500833 27.350258 23 28 40
-4.824842 3.508976 27.413876 43 34 35
-4.780299 3.516542 27.472984 30 16 20
-4.737845 3.525838 27.545610 35 25 17
-4.690092 3.531364 27.588778 16 22 30
