ply
format ascii 1.0
element vertex 1252
property float x
property float y
property float z
property uchar red
property uchar green
property uchar blue
end_header
-9.960297 2.587090 32.338627 24 18 24
-9.904732 2.589472 32.368404 42 23 43
-9.847507 2.591449 32.393116 24 44 23
-9.796760 2.595168 32.439602 28 41 40
-9.742644 2.598038 32.475479 31 18 21
-9.694388 2.602520 32.531502 41 20 35
-9.642170 2.605992 32.574898 31 25 21
-9.590332 2.609614 32.620178 35 31 41
-9.542461 2.614373 32.679661 21 42 31
-9.488705 2.617574 32.719673 21 25 27
-9.441222 2.622562 32.782021 26 16 18
-9.389936 2.626555 32.831944 39 36 35
-9.338108 2.630453 32.880661 23 19 25
-9.289541 2.635331 32.941635 42 39 42
-9.234381 2.638394 32.979931 25 43 42
-9.182209 2.642362 33.029530 37 16 35
-9.126026 2.645225 33.065311 20 18 36
-9.066989 2.647296 33.091202 33 22 39
-9.008166 2.649460 33.118256 20 25 27
-8.944579 2.650246 33.128071 37 37 44
-8.881287 2.651130 33.139130 18 25 21
-8.816810 2.651672 33.145901 40 38 35
-8.751261 2.651897 33.148716 42 27 18
-8.685882 2.652178 33.152222 16 31 44
-8.619671 2.652206 33.152580 22 19 35
-8.553715 2.652315 33.153934 22 42 15
-8.487523 2.652351 33.154388 37 42 17
-8.421758 2.652522 33.156528 36 20 40
-8.356828 2.652961 33.162018 24 35 43
-8.291910 2.653411 33.167641 40 25 32
-8.228600 2.654387 33.179840 18 17 27
-8.165752 2.655529 33.194115 43 41 26
-8.102264 2.656480 33.206001 22 28 19
-8.037876 2.657149 33.214363 42 36 37
-7.971668 2.657223 33.215282 38 40 32
-7.902195 2.656200 33.202499 32 44 31
-7.831611 2.654783 33.184792 29 30 25
-7.758949 2.652632 33.157902 27 18 22
-7.684619 2.649869 33.123360 42 44 16
-7.612250 2.647739 33.096741 17 29 20
-7.537979 2.644905 33.061310 18 18 22
-7.465893 2.642794 33.034924 27 37 18
-7.395228 2.641153 33.014412 19 15 34
-7.323954 2.639263 32.990784 42 22 38
-7.255353 2.638310 32.978878 17 19 24
-7.190123 2.638577 32.982216 44 29 44
-7.126982 2.639623 32.995285 120 120 120
-7.067161 2.641929 33.024117 120 120 120
-7.009643 2.645148 33.064354 120 120 120
-6.950785 2.647918 33.098976 36 43 40
-6.896149 2.652365 33.154564 41 21 39
-6.838045 2.655551 33.194393 31 37 39
-6.781704 2.659492 33.243649 32 28 30
-6.730486 2.665539 33.319237 35 15 18
-6.675788 2.670315 33.378941 18 29 18
-6.628434 2.678155 33.476940 23 40 24
-6.577783 2.684809 33.560116 21 20 24
-6.526629 2.691393 33.642418 41 38 27
-6.477409 2.698921 33.736507 44 38 40
-6.420207 2.703245 33.790565 19 15 34
-6.368076 2.709820 33.872746 27 27 39
-6.312381 2.715003 33.937534 20 36 17
-6.255758 2.719895 33.998684 22 27 26
-6.201597 2.725977 34.074707 18 23 44
-6.141767 2.729674 34.120930 29 32 32
-6.085887 2.735230 34.190376 15 32 34
-6.026546 2.739339 34.241737 42 30 44
-5.967217 2.743548 34.294350 40 39 24
-5.911591 2.749577 34.369713 23 27 36
-5.851990 2.753878 34.423470 26 25 27
-5.795602 2.759810 34.497631 23 30 16
-5.735092 2.763900 34.548744 23 15 33
-5.674006 2.767808 34.597599 28 19 30
-5.615958 2.773313 34.666409 20 32 23
-5.554136 2.777068 34.713352 34 37 43
-5.495375 2.782469 34.780857 29 34 31
-5.433959 2.786646 34.833069 35 21 18
-5.371296 2.790284 34.878548 33 20 22
-5.309258 2.794346 34.929329 31 24 33
-5.243242 2.796396 34.954945 37 21 31
-5.179411 2.799682 34.996021 39 34 33
-5.114095 2.802244 35.028046 18 21 28
-5.048862 2.804923 35.061539 44 37 44
-4.985124 2.808521 35.106510 40 41 38
-4.919181 2.810961 35.137009 37 38 30
-10.425173 2.590498 31.591434 33 39 42
-10.377062 2.594266 31.637384 25 18 27
-10.329872 2.598311 31.686724 36 33 29
-10.285479 2.603115 31.745306 22 37 40
-10.242430 2.608321 31.808790 17 19 29
-10.191108 2.611471 31.847212 42 20 24
-10.150205 2.617348 31.918882 38 26 19
-10.107110 2.622731 31.984526 17 44 44
-10.064663 2.628351 32.053066 38 39 24
-10.026505 2.635171 32.136234 18 19 34
-9.978629 2.639508 32.189125 20 35 31
-9.932932 2.644482 32.249779 23 31 43
-9.877955 2.647034 32.280899 16 22 41
-9.821091 2.649110 32.306221 29 29 26
-9.770751 2.652985 32.353481 16 44 35
-9.716866 2.655943 32.389553 28 17 39
-9.668820 2.660548 32.445705 24 15 41
-9.616894 2.664139 32.489506 39 40 38
-9.565121 2.667823 32.534424 26 27 44
-9.516973 2.672575 32.592373 20 36 27
-9.462835 2.675698 32.630466 37 41 39
-9.414505 2.680519 32.689255 18 19 19
-9.362535 2.684363 32.736137 27 31 16
-9.309878 2.688063 32.781261 38 34 44
-9.260154 2.692669 32.837425 35 16 30
-9.204211 2.695519 32.872181 42 22 17
-9.151071 2.699237 32.917522 21 22 35
-9.094342 2.701942 32.950516 22 25 29
-9.035012 2.703909 32.974495 21 21 41
-8.975823 2.705947 32.999348 25 19 18
-8.912237 2.706679 33.008286 30 33 31
-8.848859 2.707487 33.018131 20 25 28
-8.784383 2.707968 33.023994 23 21 27
-8.718879 2.708137 33.026058 35 38 37
-8.653504 2.708349 33.028641 38 36 16
-8.587408 2.708336 33.028492 17 37 16
-8.521272 2.708311 33.028187 29 22 18
-8.454853 2.708195 33.026768 43 29 38
-8.388775 2.708187 33.026672 20 44 20
-8.323462 2.708428 33.029610 30 39 27
-8.258398 2.708755 33.033592 18 32 31
-8.194791 2.709568 33.043510 35 15 42
-8.131793 2.710598 33.056068 16 15 36
-8.068247 2.711460 33.066586 30 31 36
-8.003807 2.712034 33.073582 44 44 22
-7.937754 2.712066 33.073975 32 41 15
-7.868211 2.710896 33.059711 26 30 23
-7.797477 2.709293 33.040157 26 28 23
-7.724695 2.706944 33.011517 17 19 25
-7.650290 2.703982 32.975388 35 23 15
-7.578071 2.701747 32.948135 16 22 21
-7.503944 2.698787 32.912037 24 27 21
-7.432156 2.696623 32.885647 44 44 42
-7.361704 2.694909 32.864750 30 25 44
-7.290315 2.692819 32.839256 15 18 19
-7.221543 2.691666 32.825195 28 43 39
-7.156146 2.691761 32.826359 19 18 28
-7.093124 2.692760 32.838535 120 120 120
-7.033503 2.695081 32.866837 120 120 120
-6.976090 2.698299 32.906086 120 120 120
-6.917421 2.701088 32.940098 44 30 18
-6.862814 2.705532 32.994297 30 40 16
-6.804676 2.708658 33.032410 36 43 23
-6.748393 2.712589 33.080357 23 38 38
-6.697432 2.718760 33.155605 43 27 25
-6.643209 2.723716 33.216045 26 39 25
-6.596392 2.731839 33.315113 17 32 40
-6.546442 2.738818 33.400215 29 32 22
-6.495638 2.745579 33.482670 44 19 37
-6.445891 2.752933 33.572350 18 32 31
-6.387821 2.756849 33.620110 44 17 23
-6.335154 2.763205 33.697628 20 19 39
-6.279740 2.768488 33.762043 30 18 37
-6.223799 2.773649 33.824993 28 29 22
-6.170326 2.780037 33.902889 16 26 28
-6.111194 2.783989 33.951080 21 25 40
-6.055788 2.789745 34.021282 30 20 28
-5.996729 2.793930 34.072323 44 42 44
-5.937354 2.798063 34.122723 30 21 19
-5.881438 2.803941 34.194408 25 35 25
-5.821573 2.808053 34.244545 16 19 44
-5.764233 2.813495 34.310913 17 36 27
-5.702777 2.817034 34.354076 40 25 34
-5.640711 2.820355 34.394577 34 22 19
-5.581585 2.825247 34.454227 17 36 20
-5.519335 2.828659 34.495842 22 41 19
-5.460250 2.833801 34.558544 25 27 17
-5.398975 2.837923 34.608814 22 36 17
-5.336828 2.841687 34.654724 38 25 32
-5.275455 2.845969 34.706940 30 23 38
-5.210264 2.848278 34.735096 41 28 30
-5.146862 2.851640 34.776093 18 31 30
-5.081609 2.854054 34.805542 19 40 34
-5.016185 2.856439 34.834618 44 17 19
-4.952136 2.859684 34.874195 32 28 29
-4.886070 2.861841 34.900497 39 27 21
-4.823772 2.866299 34.954868 43 31 42
-10.444622 2.642615 31.459703 41 35 25
-10.389327 2.644556 31.482809 26 21 25
-10.344152 2.649112 31.537050 24 39 27
-10.299051 2.653743 31.592182 22 24 24
-10.256558 2.659108 31.656044 39 38 39
-10.216023 2.665050 31.726780 22 35 30
-10.166393 2.668678 31.769979 41 35 15
-10.127348 2.675148 31.847006 30 36 43
-10.085450 2.680942 31.915981 39 22 36
-10.043670 2.686842 31.986210 16 21 38
-10.006061 2.693940 32.070709 26 41 31
-9.958210 2.698354 32.123257 31 41 25
-9.912537 2.703419 32.183563 39 22 37
-9.857641 2.706019 32.214512 42 18 43
-9.800838 2.708126 32.239597 21 24 43
-9.750571 2.712079 32.286659 33 29 24
-9.696768 2.715095 32.322559 27 30 30
-9.648886 2.719820 32.378811 37 32 27
-9.597270 2.723550 32.423210 28 39 17
-9.545724 2.727350 32.468449 40 41 41
-9.497590 2.732183 32.525993 16 16 26
-9.443357 2.735317 32.563301 44 29 42
-9.394608 2.740094 32.620167 21 16 22
-9.342245 2.743876 32.665192 38 43 19
-9.289064 2.747470 32.707973 32 28 44
-9.238601 2.751924 32.760998 33 25 38
-9.182158 2.754648 32.793423 16 35 29
-9.128375 2.758214 32.835880 26 16 24
-9.071266 2.760820 32.866905 42 30 32
-9.011718 2.762716 32.889481 33 32 24
-8.952316 2.764686 32.912926 29 32 23
-8.888775 2.765397 32.921391 16 40 35
-8.825389 2.766167 32.930557 35 21 19
-8.760967 2.766621 32.935966 18 18 23
-8.695528 2.766759 32.937607 39 33 23
-8.630151 2.766919 32.939507 28 26 38
-8.564127 2.766872 32.938950 22 40 35
-8.497799 2.766725 32.937206 30 35 26
-8.431148 2.766471 32.934174 19 20 27
-8.364770 2.766302 32.932167 43 15 24
-8.299074 2.766358 32.932835 15 16 27
-8.233827 2.766566 32.935307 18 40 18
-8.169921 2.767231 32.943230 41 18 35
-8.106752 2.768159 32.954277 27 44 34
-8.043139 2.768949 32.963684 27 22 18
-7.978651 2.769449 32.969631 16 35 24
-7.912745 2.769461 32.969772 35 36 44
-7.843202 2.768189 32.954632 41 19 15
-7.772417 2.766454 32.933971 29 40 29
-7.699597 2.763958 32.904259 44 20 42
-7.625224 2.760857 32.867344 36 16 20
-7.553171 2.758549 32.839874 36 41 16
-7.479186 2.755490 32.803448 28 34 24
-7.407632 2.753279 32.777134 29 21 40
-7.337296 2.751486 32.755787 40 19 39
-7.265731 2.749196 32.728519 20 22 37
-7.196725 2.747841 32.712387 36 24 29
-7.131032 2.747737 32.711155 32 31 30
-7.067954 2.748649 32.722012 120 120 120
-7.008334 2.750935 32.749226 120 120 120
-6.950832 2.754103 32.786945 120 120 120
-6.892202 2.756881 32.820007 19 22 20
-6.837473 2.761287 32.872467 31 22 25
-6.779207 2.764337 32.908772 24 42 30
-6.722868 2.768240 32.955235 35 42 34
-6.671998 2.774494 33.029694 38 39 42
-6.618076 2.779592 33.090382 42 40 43
-6.571358 2.787849 33.188675 29 22 34
-6.521532 2.794942 33.273125 28 25 34
-6.470541 2.801678 33.353306 21 42 27
-6.419983 2.808743 33.437412 43 19 38
-6.361069 2.812262 33.479313 17 31 34
-6.307697 2.818333 33.551579 25 37 39
-6.252278 2.823610 33.614399 40 43 20
-6.196612 2.828888 33.677238 31 18 32
-6.143287 2.835363 33.754322 20 44 19
-6.084413 2.839393 33.802296 34 36 19
-6.028998 2.845145 33.870777 25 39 22
-5.969816 2.849230 33.919411 25 39 31
-5.910280 2.853239 33.967129 35 20 38
-5.854264 2.859059 34.036419 16 23 31
-5.794531 2.863180 34.085476 44 32 33
-5.737196 2.868598 34.149979 28 37 29
-5.675818 2.872101 34.191673 41 30 15
-5.613814 2.875368 34.230572 32 27 21
-5.554644 2.880186 34.287926 42 39 35
-5.492460 2.883541 34.327873 32 39 44
-5.433335 2.888609 34.388199 21 41 35
-5.371811 2.892514 34.434689 29 29 32
-5.309944 2.896333 34.480156 36 17 30
-5.250027 2.901331 34.539650 34 16 29
-5.186781 2.904597 34.578537 34 37 18
-5.124801 2.908671 34.627033 21 38 35
-5.059843 2.911142 34.656456 15 21 37
-4.994188 2.913276 34.681862 18 42 19
-4.930038 2.916361 34.718578 44 33 33
-4.863941 2.918365 34.742439 43 41 17
-4.801498 2.922651 34.793461 20 18 31
-4.738924 2.926982 34.845028 39 32 23
-10.462841 2.694025 31.325872 27 30 32
-10.408298 2.696125 31.350296 29 31 27
-10.355088 2.698599 31.379053 41 34 27
-10.312533 2.703896 31.440649 22 17 43
-10.269220 2.709058 31.500675 25 28 42
-10.228299 2.714919 31.568825 20 33 32
-10.189959 2.721542 31.645836 38 29 15
-10.141852 2.725623 31.693289 44 34 36
-10.104239 2.732593 31.774338 43 17 26
-10.063067 2.738683 31.845150 34 32 27
-10.021446 2.744727 31.915434 18 30 43
-9.983866 2.751963 31.999569 41 43 35
-9.935753 2.756370 32.050816 25 30 17
-9.889885 2.761461 32.110016 37 35 23
-9.835058 2.764101 32.140713 17 30 23
-9.778399 2.766258 32.165787 30 28 42
-9.728162 2.770271 32.212456 24 22 36
-9.674404 2.773329 32.248013 33 18 26
-9.626646 2.778159 32.304180 19 25 32
-9.575303 2.782014 32.348995 42 39 32
-9.523978 2.785925 32.394482 30 44 19
-9.475880 2.790841 32.451645 16 31 19
-9.421597 2.793991 32.488266 43 19 16
-9.372454 2.798719 32.543243 23 15 18
-9.319693 2.802425 32.586338 25 40 29
-9.265965 2.805891 32.626637 22 21 32
-9.214769 2.810178 32.676487 26 16 28
-9.157869 2.812774 32.706676 40 42 38
-9.103475 2.816183 32.746311 38 27 17
-9.046029 2.818690 32.775467 36 26 25
-8.986319 2.820523 32.796783 18 23 20
-8.926765 2.822433 32.818989 44 36 23
-8.863317 2.823131 32.827099 39 23 33
-8.800025 2.823889 32.835915 26 38 30
-8.735753 2.824341 32.841175 33 19 27
-8.670468 2.824471 32.842682 28 35 21
-8.605215 2.824613 32.844334 23 32 34
-8.539329 2.824547 32.843575 41 34 24
-8.472961 2.824320 32.840935 16 31 29
-8.406229 2.823967 32.836830 43 42 25
-8.339723 2.823686 32.833553 27 17 35
-8.273867 2.823621 32.832806 42 20 28
-8.208591 2.823755 32.834362 35 18 26
-8.144590 2.824334 32.841087 33 36 36
-8.081411 2.825209 32.851265 16 34 28
-8.017859 2.825967 32.860077 23 18 22
-7.953501 2.826451 32.865707 17 24 27
-7.887846 2.826478 32.866024 34 22 38
-7.818447 2.825153 32.850616 39 27 32
-7.747712 2.823319 32.829288 19 27 25
-7.674934 2.820702 32.798862 41 37 22
-7.600648 2.817482 32.761414 39 40 19
-7.528762 2.815102 32.733749 43 26 19
-7.454966 2.811961 32.697220 22 40 16
-7.383701 2.809727 32.671246 30 18 36
-7.313564 2.807886 32.649841 38 20 44
-7.241923 2.805429 32.621273 31 42 41
-7.172758 2.803896 32.603447 35 26 23
-7.106910 2.803644 32.600506 43 28 17
-7.043879 2.804507 32.610550 120 120 120
-6.984375 2.806805 32.637268 120 120 120
-6.926945 2.809987 32.674271 120 120 120
-6.868469 2.812801 32.706993 28 29 15
-6.813790 2.817240 32.758606 44 44 41
-6.755528 2.820269 32.793823 21 16 41
-6.699259 2.824197 32.839504 44 15 24
-6.648686 2.830629 32.914288 39 40 30
-6.595226 2.835947 32.976131 18 35 19
-6.548562 2.844325 33.073544 34 17 32
-6.498517 2.851390 33.155697 26 28 38
-6.447064 2.857977 33.232288 43 34 31
-6.395857 2.864811 33.311756 24 31 25
-6.336509 2.868104 33.350048 20 19 18
-6.282793 2.874043 33.419109 34 36 38
-6.227476 2.879371 33.481052 33 39 24
-6.172085 2.884779 33.543938 36 30 20
-6.118871 2.891335 33.620171 31 16 28
-6.060171 2.895415 33.667614 38 37 42
-6.004725 2.901159 33.734409 39 31 16
-5.945428 2.905152 33.780842 27 41 41
-5.885811 2.909079 33.826500 36 31 35
-5.829811 2.914905 33.894249 22 33 34
-5.770315 2.919100 33.943027 24 19 30
-5.713234 2.924632 34.007347 23 27 18
-5.652199 2.928247 34.049389 25 38 32
-5.590481 2.931594 34.088299 35 40 24
-5.531444 2.936446 34.144718 44 43 17
-5.469340 2.939770 34.183376 21 41 40
-5.410005 2.944686 34.240540 17 44 27
-5.347924 2.948215 34.281567 17 40 43
-5.285987 2.951915 34.324589 43 40 39
-5.227156 2.957470 34.389187 34 35 32
-5.165601 2.961611 34.437340 15 22 26
-5.105262 2.966571 34.495014 37 30 24
-5.041276 2.969519 34.529285 38 43 28
-4.976079 2.971825 34.556107 44 37 19
-4.912110 2.974940 34.592323 36 36 29
-4.845827 2.976723 34.613052 26 19 20
-4.782922 2.980662 34.658855 20 30 34
-4.720047 2.984735 34.706226 35 18 16
-4.657225 2.988966 34.755413 36 20 19
-10.467530 2.741496 31.153364 19 39 24
-10.409189 2.742541 31.165236 40 27 32
-10.357649 2.745401 31.197739 44 29 38
-10.306661 2.748443 31.232307 35 40 18
-10.266874 2.754527 31.301445 26 23 38
-10.225388 2.760227 31.366220 22 24 16
-10.186195 2.766621 31.438873 25 17 38
-10.150511 2.774053 31.523327 43 25 19
-10.104477 2.778731 31.576490 38 23 22
-10.068918 2.786367 31.663265 23 23 20
-10.028845 2.792843 31.736851 43 25 40
-9.987740 2.799112 31.808088 16 25 20
-9.950672 2.806600 31.893181 22 16 34
-9.902665 2.811079 31.944080 34 43 30
-9.857139 2.816325 32.003696 31 29 18
-9.802899 2.819134 32.035618 34 42 39
-9.746790 2.821439 32.061810 37 18 21
-9.696894 2.825585 32.108921 42 31 28
-9.643259 2.828689 32.144196 39 19 20
-9.595597 2.833599 32.199989 24 21 38
-9.544486 2.837550 32.244884 25 26 39
-9.493233 2.841512 32.289909 20 42 28
-9.444929 2.846417 32.345646 15 38 32
-9.390399 2.849501 32.380688 33 27 40
-9.340485 2.854037 32.432240 18 16 23
-9.287016 2.857543 32.472084 41 23 16
-9.232439 2.860756 32.508587 38 43 18
-9.180136 2.864723 32.553673 23 15 38
-9.122558 2.867090 32.580563 30 39 39
-9.067329 2.870234 32.616291 23 16 39
-9.009443 2.872576 32.642910 38 16 15
-8.949557 2.874310 32.662617 36 38 29
-8.889806 2.876114 32.683109 36 25 19
-8.826498 2.876785 32.690735 34 44 28
-8.763338 2.877514 32.699024 32 41 25
-8.699280 2.877957 32.704060 32 31 40
-8.634270 2.878090 32.705566 21 28 44
-8.569299 2.878238 32.707249 25 43 34
-8.503726 2.878184 32.706638 29 42 35
-8.437570 2.877931 32.703758 23 27 26
-8.370945 2.877512 32.699005 38 25 21
-8.304543 2.877164 32.695049 21 24 34
-8.238832 2.877053 32.693779 34 16 42
-8.173793 2.877175 32.695171 36 40 44
-8.110020 2.877749 32.701694 19 23 35
-8.047071 2.878627 32.711670 44 20 26
-7.983791 2.879400 32.720455 23 38 34
-7.919800 2.879927 32.726448 20 24 24
-7.854546 2.880000 32.727276 33 26 20
-7.785396 2.878634 32.711746 35 16 22
-7.714767 2.876693 32.689690 16 33 18
-7.642021 2.873923 32.658211 18 23 32
-7.567799 2.870544 32.619823 37 35 19
-7.496084 2.868067 32.591671 36 41 31
-7.422523 2.864833 32.554924 34 38 19
-7.351656 2.862592 32.529453 24 29 20
-7.281878 2.860738 32.508385 35 25 18
-7.210339 2.858152 32.479004 42 44 42
-7.141176 2.856471 32.459892 17 21 26
-7.075460 2.856149 32.456238 38 26 28
-7.012784 2.857060 32.466595 120 120 120
-6.953748 2.859485 32.494148 120 120 120
-6.896763 2.862807 32.531902 120 120 120
-6.838684 2.865734 32.565163 24 40 30
-6.784388 2.870318 32.617249 28 36 16
-6.726360 2.873397 32.652233 17 43 37
-6.670411 2.877432 32.698093 34 22 33
-6.620546 2.884198 32.774979 43 19 32
-6.567891 2.889872 32.839455 15 42 38
-6.521584 2.898482 32.937294 30 29 34
-6.471308 2.905485 33.016876 23 37 34
-6.419480 2.911929 33.090103 31 43 44
-6.368154 2.918737 33.167469 44 21 30
-6.309002 2.922064 33.205273 15 19 37
-6.255649 2.928176 33.274731 18 37 33
-6.200849 2.933735 33.337898 15 23 31
-6.146048 2.939414 33.402435 35 38 23
-6.093401 2.946260 33.480225 38 30 34
-6.035132 2.950509 33.528511 28 16 20
-5.979993 2.956401 33.595467 15 21 23
-5.920888 2.960444 33.641411 36 17 24
-5.861334 2.964353 33.685825 39 43 31
-5.805360 2.970184 33.752094 42 22 37
-5.745949 2.974373 33.799698 36 33 41
-5.688669 2.979779 33.861122 18 33 29
-5.627497 2.983251 33.900585 25 27 37
-5.565469 2.986349 33.935787 22 33 22
-5.505845 2.990829 33.986698 21 20 41
-5.443342 2.993838 34.020885 38 19 21
-5.383159 2.998215 34.070625 18 32 44
-5.320288 3.001188 34.104408 20 17 15
-5.257800 3.004457 34.141556 39 30 23
-5.198575 3.009701 34.201149 44 26 23
-5.137186 3.013816 34.247906 29 41 21
-5.077940 3.019316 34.310406 39 29 36
-5.016002 3.023344 34.356178 21 41 29
-4.952568 3.026569 34.392830 15 30 33
-4.888901 3.029742 34.428883 33 42 35
-4.821840 3.030871 34.441711 23 32 16
-4.757989 3.034080 34.478180 20 34 18
-4.694720 3.037760 34.519997 34 28 43
-4.631620 3.041661 34.564331 33 17 20
-4.568581 3.045720 34.610458 25 22 17
-10.490771 2.793400 31.037783 32 18 34
-10.430019 2.793755 31.041723 41 35 33
-10.373154 2.795161 31.057346 28 17 43
-10.323175 2.798451 31.093901 24 29 34
-10.273340 2.801820 31.131334 26 38 20
-10.234931 2.808365 31.204058 37 41 20
-10.194271 2.814369 31.270771 27 42 24
-10.155933 2.821093 31.345472 27 15 28
-10.121789 2.829072 31.434128 30 34 34
-10.077111 2.834188 31.490973 32 25 28
-10.042846 2.842315 31.581278 35 23 38
-10.003407 2.849072 31.656351 35 32 16
-9.962592 2.855520 31.728001 18 38 17
-9.925918 2.863246 31.813839 18 38 17
-9.878095 2.867834 31.864822 20 15 31
-9.833018 2.873284 31.925383 44 23 19
-9.779422 2.876301 31.958897 16 25 41
-9.723912 2.878790 31.986551 30 44 36
-9.674380 2.883093 32.034370 16 18 29
-9.620823 2.886247 32.069408 29 24 38
-9.573169 2.891226 32.124729 34 30 30
-9.522134 2.895244 32.169373 44 42 21
-9.470811 2.899228 32.213642 15 18 39
-9.422242 2.904116 32.267952 24 24 15
-9.367453 2.907141 32.301563 25 33 24
-9.316908 2.911534 32.350376 42 34 22
-9.262860 2.914886 32.387623 33 15 31
-9.207632 2.917911 32.421238 25 31 43
-9.154510 2.921652 32.462803 39 30 37
-9.096442 2.923856 32.487293 18 38 25
-9.040648 2.926829 32.520317 44 44 28
-8.982489 2.929072 32.545250 22 26 32
-8.922522 2.930755 32.563950 32 23 28
-8.862655 2.932496 32.583290 26 40 31
-8.799459 2.933153 32.590588 27 15 22
-8.736439 2.933879 32.598652 18 18 31
-8.672563 2.934326 32.603619 26 32 19
-8.607813 2.934482 32.605350 15 20 18
-8.543148 2.934669 32.607433 27 40 38
-8.477887 2.934653 32.607258 35 41 29
-8.412061 2.934440 32.604889 16 40 15
-8.345690 2.934032 32.600353 30 35 40
-8.279554 2.933700 32.596668 44 41 35
-8.214215 2.933648 32.596092 19 30 35
-8.149547 2.933837 32.598186 40 43 35
-8.086196 2.934507 32.605629 15 35 38
-8.023588 2.935459 32.616211 17 28 25
-7.960646 2.936304 32.625599 33 33 16
-7.897070 2.936927 32.632523 35 37 44
-7.832169 2.937063 32.634037 28 32 38
-7.763281 2.935695 32.618828 36 17 31
-7.692772 2.933684 32.596493 17 37 19
-7.620076 2.930798 32.564426 19 35 40
-7.545894 2.927287 32.525406 27 29 39
-7.474263 2.924712 32.496796 37 20 24
-7.400880 2.921400 32.459999 37 25 21
-7.330304 2.919148 32.434975 19 42 39
-7.260847 2.917305 32.414497 33 43 29
-7.189526 2.914673 32.385254 20 42 16
-7.120503 2.912933 32.365925 43 20 36
-7.055115 2.912662 32.362915 38 21 27
-6.992871 2.913696 32.374405 120 120 120
-6.934350 2.916315 32.403503 120 120 120
-6.877906 2.919866 32.442955 120 120 120
-6.820234 2.922958 32.477306 20 38 30
-6.766433 2.927783 32.530926 23 22 36
-6.708729 2.930998 32.566647 40 35 22
-6.653172 2.935223 32.613590 19 15 41
-6.604019 2.942385 32.693165 29 38 25
-6.552071 2.948432 32.760353 38 22 43
-6.506128 2.957331 32.859230 27 35 38
-6.455589 2.964301 32.936680 22 17 15
-6.403505 2.970698 33.007759 44 32 18
-6.352547 2.977756 33.086182 25 40 39
-6.294078 2.981406 33.126728 34 33 25
-6.241546 2.987974 33.199715 37 18 32
-6.187325 2.993867 33.265186 30 22 32
-6.133044 2.999858 33.331760 15 23 43
-6.080957 3.007066 33.411850 35 28 22
-6.023046 3.011523 33.461369 40 34 38
-5.968286 3.017673 33.529697 30 35 40
-5.909482 3.021894 33.576603 24 26 40
-5.850079 3.025903 33.621143 34 34 42
-5.794185 3.031841 33.687122 19 35 35
-5.734750 3.036044 33.733826 37 27 24
-5.677166 3.041339 33.792652 32 43 22
-5.615718 3.044667 33.829628 36 37 25
-5.553221 3.047499 33.861103 30 40 40
-5.492877 3.051599 33.906651 24 21 24
-5.429849 3.054290 33.936554 37 26 35
-5.368713 3.058128 33.979198 17 15 21
-5.305148 3.060662 34.007359 31 17 36
-5.241907 3.063452 34.038357 30 39 33
-5.181319 3.067886 34.087624 23 34 22
-5.118874 3.071324 34.125824 33 18 18
-5.059917 3.076977 34.188629 40 19 16
-5.000068 3.082234 34.247040 29 24 43
-4.938726 3.086704 34.296707 21 24 35
-4.875398 3.090041 34.333786 28 36 31
-4.807437 3.090495 34.338833 42 37 26
-4.742616 3.093010 34.366783 37 37 37
-4.678954 3.096366 34.404072 24 19 19
-4.615633 3.100052 34.445019 18 19 21
-4.552338 3.103867 34.487408 16 35 33
-4.486416 3.105980 34.510891 28 33 30
-10.496344 2.840187 30.871601 39 27 16
-10.439018 2.841389 30.884668 36 27 15
-10.379770 2.842080 30.892172 44 17 35
-10.324818 2.843962 30.912630 41 23 43
-10.276630 2.847741 30.953705 15 36 37
-10.227939 2.851425 30.993753 38 37 28
-10.190690 2.858364 31.069178 44 16 25
-10.150619 2.864592 31.136869 18 16 31
-10.112763 2.871525 31.212233 38 26 39
-10.079653 2.879901 31.303270 37 39 31
-10.035969 2.885341 31.362404 44 34 18
-10.002342 2.893759 31.453905 36 32 37
-9.962952 2.900606 31.528330 28 35 43
-9.921908 2.907056 31.598433 20 25 35
-9.885029 2.914816 31.682785 23 34 22
-9.837130 2.919406 31.732677 34 31 27
-9.792351 2.924988 31.793348 25 21 38
-9.739497 2.928215 31.828421 42 39 43
-9.684829 2.930935 31.857990 38 42 25
-9.635872 2.935431 31.906860 26 26 44
-9.582594 2.938662 31.941978 26 16 20
-9.535136 2.943733 31.997101 43 15 24
-9.484301 2.947823 32.041557 33 20 15
-9.433055 2.951840 32.085220 41 24 30
-9.384454 2.956746 32.138542 41 29 44
-9.329662 2.959755 32.171249 22 31 26
-9.278736 2.964041 32.217834 29 31 36
-9.224266 2.967246 32.252678 36 19 31
-9.168561 2.970097 32.283665 15 32 17
-9.114895 2.973654 32.322323 28 23 41
-9.056629 2.975750 32.345104 21 20 32
-9.000605 2.978618 32.376278 33 36 16
-8.942429 2.980810 32.400105 16 16 40
-8.882636 2.982491 32.418381 30 23 33
-8.822961 2.984237 32.437355 39 24 39
-8.760103 2.984924 32.444824 33 42 42
-8.697464 2.985697 32.453224 17 30 29
-8.633963 2.986183 32.458508 30 17 41
-8.569612 2.986380 32.460651 38 38 27
-8.505346 2.986610 32.463154 30 35 40
-8.440446 2.986619 32.463253 30 35 40
-8.375056 2.986454 32.461456 30 35 40
-8.309094 2.986081 32.457397 30 35 40
-8.243420 2.985806 32.454411 30 35 40
-8.178678 2.985866 32.455070 30 35 40
-8.114557 2.986157 32.458229 30 35 40
-8.051865 2.986982 32.467197 41 21 39
-7.989794 2.988053 32.478836 44 34 24
-7.927375 2.989010 32.489243 34 41 15
-7.864449 2.989790 32.497723 17 21 43
-7.800093 2.990036 32.500389 17 17 37
-7.731636 2.988700 32.485867 38 34 34
-7.661363 2.986633 32.463402 17 36 23
-7.588771 2.983619 32.430645 22 32 26
-7.514639 2.979943 32.390686 26 31 34
-7.443074 2.977230 32.361191 24 21 16
-7.369891 2.973816 32.324085 37 28 27
-7.299718 2.971567 32.299637 16 36 22
-7.230726 2.969762 32.280025 38 26 35
-7.159729 2.967095 32.251034 35 36 24
-7.090930 2.965298 32.231499 43 42 21
-7.026031 2.965114 32.229500 35 26 29
-6.964403 2.966320 32.242607 120 120 120
-6.906629 2.969205 32.273968 120 120 120
-6.851051 2.973097 32.316277 120 120 120
-6.794082 2.976455 32.352772 19 31 36
-6.741128 2.981653 32.409267 28 35 40
-6.684010 2.985092 32.446651 40 34 29
-6.629104 2.989596 32.495605 21 31 20
-6.581096 2.997331 32.579685 16 34 25
-6.530219 3.003901 32.651096 35 15 25
-6.484846 3.013161 32.751747 16 33 19
-6.433898 3.019993 32.826008 24 43 21
-6.381451 3.026255 32.894077 18 37 32
-6.331129 3.033666 32.974628 32 17 21
-6.273799 3.037839 33.019993 29 30 25
-6.222608 3.045106 33.098976 31 26 41
-6.169325 3.051494 33.168415 42 33 41
-6.115849 3.057925 33.238312 17 26 34
-6.064632 3.065638 33.322155 30 35 40
-6.007234 3.070364 33.373524 30 35 40
-5.953094 3.076880 33.444347 30 35 40
-5.894885 3.081417 33.493668 30 35 40
-5.835845 3.085619 33.539341 30 35 40
-5.780072 3.091667 33.605072 18 28 36
-5.720527 3.095815 33.650162 27 36 39
-5.662529 3.100909 33.705532 29 15 23
-5.600751 3.104031 33.739464 29 43 35
-5.537746 3.106540 33.766743 24 33 30
-5.476636 3.110188 33.806393 39 34 32
-5.413065 3.112512 33.831654 20 21 15
-5.350916 3.115723 33.866558 32 33 39
-5.286605 3.117742 33.888496 29 22 35
-5.222539 3.119958 33.912590 22 28 32
-5.160521 3.123473 33.950794 30 40 39
-5.097014 3.126169 33.980095 18 37 17
-5.037927 3.131684 34.040047 15 24 24
-4.979251 3.137610 34.104458 41 39 39
-4.919503 3.143015 34.163212 29 32 22
-4.857313 3.146991 34.206429 15 24 32
-4.789950 3.147682 34.213932 38 19 33
-4.724855 3.149903 34.238079 34 17 30
-4.660289 3.152549 34.266834 40 37 25
-4.595751 3.155292 34.296650 20 16 44
-4.531475 3.158301 34.329357 30 37 29
-4.465238 3.160015 34.347988 26 19 31
-4.399762 3.162329 34.373142 18 38 31
-10.520593 2.891625 30.761969 30 18 18
-10.461023 2.892165 30.767714 33 44 42
-10.404573 2.893579 30.782761 39 34 27
-10.346263 2.894490 30.792448 25 24 18
-10.292251 2.896622 30.815123 35 22 36
-10.244975 2.900686 30.858358 28 44 37
-10.196827 2.904551 30.899477 39 41 15
-10.159909 2.911681 30.975332 24 28 39
-10.119878 2.918002 31.042572 34 30 31
-10.081889 2.924992 31.116941 32 36 43
-10.048794 2.933499 31.207434 43 25 38
-10.005252 2.939043 31.266413 42 27 32
-9.971325 2.947499 31.356367 37 20 23
-9.931399 2.954277 31.428478 34 30 23
-9.889722 2.960617 31.495930 16 39 42
-9.852185 2.968286 31.577515 38 33 22
-9.803981 2.972820 31.625746 40 28 26
-9.759188 2.978453 31.685675 37 23 41
-9.706766 2.981817 31.721458 42 24 24
-9.652718 2.984722 31.752361 28 39 32
-9.604239 2.989399 31.802116 33 34 23
-9.551281 2.992735 31.837603 44 20 35
-9.504120 2.997944 31.893019 31 34 18
-9.453506 3.002127 31.937519 23 27 27
-9.402417 3.006215 31.981009 23 19 40
-9.354002 3.011220 32.034252 15 30 40
-9.299412 3.014292 32.066936 16 42 17
-9.248472 3.018599 32.112751 19 21 15
-9.193892 3.021769 32.146477 30 33 20
-9.138039 3.024562 32.176193 15 25 17
-9.084278 3.028093 32.213753 19 38 31
-9.026086 3.030186 32.236023 23 27 39
-8.970169 3.033079 32.266796 33 44 15
-8.912177 3.035307 32.290497 20 17 36
-8.852651 3.037041 32.308945 41 34 27
-8.793307 3.038863 32.328335 35 22 25
-8.730805 3.039614 32.336315 36 41 33
-8.668564 3.040466 32.345387 29 43 33
-8.605411 3.041010 32.351170 19 27 21
-8.541369 3.041245 32.353672 30 35 40
-8.477385 3.041504 32.356430 30 35 40
-8.412683 3.041508 32.356472 30 35 40
-8.347575 3.041365 32.354942 30 35 40
-8.281923 3.041019 32.351261 30 35 40
-8.216612 3.040793 32.348866 30 35 40
-8.152311 3.040941 32.350441 30 35 40
-8.088605 3.041315 32.354420 30 35 40
-8.026391 3.042261 32.364479 30 35 40
-7.964720 3.043430 32.376911 31 24 16
-7.902697 3.044482 32.388103 40 41 17
-7.840273 3.045395 32.397823 30 37 35
-7.776346 3.045736 32.401443 32 22 35
-7.708243 3.044432 32.387577 40 43 38
-7.638197 3.042333 32.365242 28 39 42
-7.565712 3.039218 32.332104 24 21 16
-7.491628 3.035401 32.291500 44 24 33
-7.420076 3.032553 32.261200 40 19 24
-7.347051 3.029047 32.223907 27 22 23
-7.277198 3.026799 32.199989 25 20 24
-7.208599 3.025037 32.181248 43 21 25
-7.137916 3.022361 32.152775 44 31 35
-7.069340 3.020536 32.133362 29 23 24
-7.004892 3.020458 32.132530 15 36 29
-6.943755 3.021819 32.147015 120 120 120
-6.886604 3.024957 32.180393 120 120 120
-6.831815 3.029201 32.225540 120 120 120
-6.775506 3.032845 32.264313 36 15 44
-6.723357 3.038440 32.323830 25 41 39
-6.666783 3.042124 32.363022 24 38 35
-6.612460 3.046918 32.414021 35 39 28
-6.565482 3.055224 32.502388 24 31 39
-6.515533 3.062301 32.577667 27 30 27
-6.470691 3.071944 32.680260 42 24 23
-6.419418 3.078700 32.752132 35 15 39
-6.366681 3.084887 32.817944 18 36 16
-6.316931 3.092664 32.900684 23 19 36
-6.260567 3.097333 32.950352 29 22 22
-6.210524 3.105262 33.034702 27 15 34
-6.158027 3.112121 33.107674 26 40 26
-6.105206 3.118964 33.180470 30 35 40
-6.054687 3.127146 33.267513 30 35 40
-5.997675 3.132119 33.320415 30 35 40
-5.944028 3.138981 33.393417 30 35 40
-5.886330 3.143835 33.445057 30 35 40
-5.827590 3.148238 33.491894 30 35 40
-5.771849 3.154383 33.557262 30 35 40
-5.712112 3.158462 33.600658 42 16 23
-5.653746 3.163406 33.653252 25 15 30
-5.591729 3.166401 33.685112 24 26 32
-5.528427 3.168732 33.709919 28 37 34
-5.466888 3.172145 33.746223 25 31 22
-5.403060 3.174298 33.769123 33 35 44
-5.340404 3.177202 33.800026 15 28 16
-5.275727 3.178963 33.818760 16 21 17
-5.211249 3.180892 33.839279 39 15 24
-5.148583 3.183992 33.872257 31 17 44
-5.084636 3.186372 33.897575 27 32 37
-5.025081 3.191606 33.953251 31 39 26
-4.965909 3.197229 34.013077 36 32 22
-4.906361 3.202763 34.071949 16 31 17
-4.845839 3.207809 34.125629 24 33 35
-4.780727 3.209917 34.148052 22 44 24
-4.716270 3.212532 34.175873 15 26 31
-4.650303 3.214180 34.193401 40 36 22
-4.583629 3.215382 34.206188 18 29 30
-4.517921 3.217307 34.226673 23 33 18
-4.451209 3.218567 34.240070 29 38 28
-4.384793 3.220082 34.256195 38 44 28
-4.316817 3.220483 34.260456 23 21 23
-10.547804 2.943573 30.662222 18 19 19
-10.486797 2.943662 30.663149 31 28 31
-10.427442 2.944219 30.668947 22 18 33
-10.371829 2.945845 30.685884 38 24 29
-10.314821 2.947092 30.698872 33 17 40
-10.262053 2.949572 30.724710 39 44 24
-10.215545 2.953892 30.769712 17 35 21
-10.167548 2.957832 30.810753 40 34 21
-10.130416 2.965000 30.885416 31 21 31
-10.090101 2.971318 30.951229 22 29 42
-10.051565 2.978241 31.023348 21 33 20
-10.017771 2.986665 31.111092 34 20 40
-9.973789 2.992137 31.168091 29 38 33
-9.938851 3.000408 31.254248 38 37 16
-9.897978 3.006981 31.322714 21 31 30
-9.855390 3.013113 31.386591 19 15 38
-9.816864 3.020574 31.464308 36 23 38
-9.768220 3.024997 31.510387 41 17 41
-9.723247 3.030622 31.568983 39 21 28
-9.671150 3.034086 31.605066 33 44 17
-9.617684 3.037163 31.637117 43 40 16
-9.569646 3.042007 31.687571 42 38 21
-9.517058 3.045459 31.723528 31 35 22
-9.470235 3.050814 31.779312 31 29 28
-9.419852 3.055087 31.823824 34 22 19
-9.369015 3.059270 31.867397 25 33 33
-9.320998 3.064438 31.921225 21 27 20
-9.266832 3.067641 31.954594 25 17 41
-9.216289 3.072096 32.001003 33 29 34
-9.161923 3.075331 32.034695 18 29 17
-9.106319 3.078192 32.064503 30 15 24
-9.053007 3.081875 32.102863 22 25 27
-8.995297 3.084102 32.126060 35 17 18
-8.939965 3.087182 32.158146 29 31 21
-8.882448 3.089547 32.182781 16 28 17
-8.823400 3.091410 32.202190 30 25 43
-8.764624 3.093397 32.222881 32 30 33
-8.702570 3.094247 32.231739 37 29 44
-8.640815 3.095217 32.241848 40 15 27
-8.578059 3.095841 32.248341 30 35 40
-8.514330 3.096120 32.251251 30 35 40
-8.450590 3.096400 32.254162 30 35 40
-8.386039 3.096384 32.253998 30 35 40
-8.321216 3.096266 32.252773 30 35 40
-8.255915 3.095968 32.249668 30 35 40
-8.191056 3.095832 32.248253 30 35 40
-8.127272 3.096104 32.251080 30 35 40
-8.064010 3.096580 32.256039 30 35 40
-8.002345 3.097682 32.267521 30 35 40
-7.941124 3.098975 32.280991 30 35 40
-7.879533 3.100144 32.293167 26 44 15
-7.817649 3.101216 32.304337 39 38 42
-7.754158 3.101663 32.308990 29 18 41
-7.686429 3.100408 32.295921 17 27 41
-7.616620 3.098286 32.273815 40 29 18
-7.544246 3.095075 32.240368 36 25 30
-7.470167 3.091104 32.198997 27 15 44
-7.398585 3.088105 32.167763 40 39 16
-7.325624 3.084473 32.129929 17 19 34
-7.256000 3.082195 32.106194 35 41 16
-7.187699 3.080442 32.087940 30 34 26
-7.117236 3.077724 32.059620 24 27 15
-7.048835 3.075855 32.040157 40 31 38
-6.984735 3.075847 32.040070 26 16 26
-6.923987 3.077328 32.055496 120 120 120
-6.867357 3.080684 32.090454 120 120 120
-6.813240 3.085241 32.137924 120 120 120
-6.757515 3.089150 32.178642 23 31 33
-6.706103 3.095124 32.240879 38 38 22
-6.650054 3.099054 32.281815 32 18 29
-6.596285 3.104134 32.334732 42 15 25
-6.550187 3.112960 32.426666 26 41 22
-6.501017 3.120488 32.505085 25 33 33
-6.456583 3.130464 32.609005 30 43 25
-6.404983 3.137135 32.678486 44 34 36
-6.351998 3.143257 32.742256 26 26 19
-6.302852 3.151426 32.827354 24 26 37
-6.247481 3.156622 32.881481 31 39 15
-6.198595 3.165240 32.971252 44 40 22
-6.146872 3.172579 33.047699 35 15 25
-6.094686 3.179836 33.123291 30 35 40
-6.044839 3.188487 33.213402 30 35 40
-5.988176 3.193694 33.267643 30 35 40
-5.935096 3.200951 33.343235 30 35 40
-5.878025 3.206195 33.397869 30 35 40
-5.819745 3.210894 33.446808 30 35 40
-5.764172 3.217212 33.512627 30 35 40
-5.704290 3.221246 33.554649 32 30 35
-5.645687 3.226107 33.605282 34 34 23
-5.583542 3.229036 33.635796 24 15 20
-5.520081 3.231267 33.659031 31 18 43
-5.458295 3.234545 33.693180 18 24 15
-5.394334 3.236600 33.714588 15 18 36
-5.331336 3.239292 33.742630 15 27 37
-5.266407 3.240866 33.759022 42 28 43
-5.201596 3.242553 33.776596 19 40 18
-5.138424 3.245321 33.805424 28 37 35
-5.074143 3.247451 33.827618 21 39 32
-5.013830 3.252214 33.877228 31 15 18
-4.953518 3.257108 33.928207 28 19 23
-4.893531 3.262354 33.982857 33 24 43
-4.834331 3.268280 34.044586 38 40 22
-4.771489 3.271878 34.082066 26 27 21
-4.708057 3.275170 34.116352 28 35 26
-4.641341 3.276241 34.127506 39 25 21
-4.573146 3.276284 34.127956 39 36 26
-4.506227 3.277256 34.138084 20 43 43
-4.438865 3.277931 34.145119 26 26 35
-4.371326 3.278495 34.150986 44 31 21
-4.302463 3.278067 34.146534 38 21 41
-4.234464 3.278295 34.148903 18 25 36
-10.501724 2.991770 30.528269 43 21 15
-10.439808 2.991524 30.525753 18 38 30
-10.379355 2.991697 30.527515 42 39 25
-10.324411 2.993468 30.545595 36 28 37
-10.270062 2.995435 30.565660 32 32 33
-10.220275 2.998763 30.599625 35 27 41
-10.175505 3.003613 30.649111 28 25 20
-10.127797 3.007649 30.690294 39 37 30
-10.090655 3.014891 30.764191 15 44 16
-10.050271 3.021247 30.829052 22 19 22
-10.011297 3.028108 30.899065 33 40 42
-9.976877 3.036441 30.984089 33 19 27
-9.932408 3.041800 31.038774 39 30 36
-9.896403 3.049835 31.120766 41 34 41
-9.854553 3.056159 31.185295 34 37 20
-9.811015 3.062036 31.245270 15 21 37
-9.771397 3.069221 31.318581 31 20 25
-9.722276 3.073494 31.362181 22 15 37
-9.677095 3.079076 31.419140 27 44 17
-9.625374 3.082636 31.455471 16 19 28
-9.572577 3.085896 31.488739 16 19 41
-9.525014 3.090899 31.539782 41 32 40
-9.472797 3.094447 31.575989 30 16 27
-9.426356 3.099943 31.632067 25 16 36
-9.376270 3.104305 31.676586 35 19 17
-9.325784 3.108595 31.720352 40 17 32
-9.278333 3.113961 31.775112 36 28 44
-9.224769 3.117336 31.809547 42 20 16
-9.174873 3.122005 31.857199 23 26 30
-9.120941 3.125357 31.891401 38 28 25
-9.065846 3.128355 31.921993 23 42 38
-9.013359 3.132302 31.962267 37 17 40
-8.956451 3.134758 31.987326 18 41 43
-8.902050 3.138133 32.021763 31 32 42
-8.845223 3.140695 32.047909 17 32 36
-8.786792 3.142721 32.068584 20 26 27
-8.728754 3.144919 32.091007 15 38 18
-8.667247 3.145890 32.100914 36 38 19
-8.606082 3.147000 32.112247 19 25 17
-8.543790 3.147712 32.119511 30 35 40
-8.480427 3.148037 32.122829 30 35 40
-8.416971 3.148333 32.125843 30 35 40
-8.352592 3.148285 32.125355 30 35 40
-8.288123 3.148202 32.124508 30 35 40
-8.223282 3.147975 32.122196 30 35 40
-8.159008 3.147964 32.122078 30 35 40
-8.095900 3.148406 32.126587 30 35 40
-8.033225 3.149024 32.132900 30 35 40
-7.972286 3.150339 32.146313 30 35 40
-7.911658 3.151799 32.161213 30 35 40
-7.850643 3.153127 32.174767 25 27 32
-7.789443 3.154403 32.187782 38 22 39
-7.726486 3.154982 32.193691 42 18 21
-7.659194 3.153786 32.181488 43 33 44
-7.589642 3.151631 32.159500 43 42 43
-7.517347 3.148291 32.125416 29 18 43
-7.443248 3.144131 32.082966 21 25 37
-7.371613 3.140948 32.050491 43 26 22
-7.298619 3.137126 32.011486 41 39 15
-7.229153 3.134766 31.987404 33 40 21
-7.161048 3.132958 31.968964 28 38 17
-7.090649 3.130106 31.939859 39 18 38
-7.022328 3.128128 31.919672 29 21 43
-6.958417 3.128096 31.919342 25 19 34
-6.897969 3.129634 31.935041 120 120 120
-6.841762 3.133143 31.970852 120 120 120
-6.788157 3.137922 32.019608 120 120 120
-6.732919 3.142029 32.061520 38 35 25
-6.682108 3.148301 32.125519 28 32 22
-6.626548 3.152436 32.167709 41 34 26
-6.573282 3.157753 32.221970 28 17 15
-6.527923 3.167012 32.316452 39 25 18
-6.479411 3.174912 32.397057 29 24 20
-6.435226 3.185112 32.501141 39 40 36
-6.383180 3.191590 32.567245 28 25 37
-6.329878 3.197567 32.628239 21 18 40
-6.281288 3.206074 32.715042 28 39 32
-6.226952 3.211796 32.773430 17 24 36
-6.179266 3.221107 32.868435 19 40 22
-6.128373 3.228928 32.948242 30 35 40
-6.076892 3.236605 33.026585 30 35 40
-6.027770 3.245722 33.119614 30 35 40
-5.971515 3.251158 33.175083 30 35 40
-5.919153 3.258859 33.253666 30 35 40
-5.862927 3.264585 33.312088 30 35 40
-5.805350 3.269680 33.364082 30 35 40
-5.750190 3.276271 33.431335 30 35 40
-5.690342 3.280315 33.472603 30 35 40
-5.631659 3.285134 33.521778 34 43 34
-5.569511 3.288025 33.551273 39 44 35
-5.505935 3.290132 33.572777 37 31 29
-5.443923 3.293238 33.604465 19 24 19
-5.379810 3.295133 33.623810 16 41 15
-5.316339 3.297476 33.647713 29 30 24
-5.251022 3.298719 33.660397 25 43 42
-5.185718 3.300003 33.673496 17 43 42
-5.121819 3.302225 33.696178 39 40 34
-5.057066 3.303950 33.713776 20 20 19
-4.996081 3.308216 33.757305 17 17 22
-4.935229 3.312688 33.802940 33 23 40
-4.875062 3.317750 33.854595 22 44 42
-4.816096 3.323785 33.916172 43 23 20
-4.753930 3.327751 33.956646 34 40 37
-4.691329 3.331523 33.995136 36 15 27
-4.625588 3.333144 34.011673 37 34 23
-4.557862 3.333362 34.013893 36 37 38
-4.490402 3.333783 34.018196 32 24 29
-4.422009 3.333515 34.015457 44 20 29
-4.353136 3.332870 34.008877 21 16 23
-4.283526 3.331631 33.996235 16 26 30
-4.214925 3.331151 33.991333 25 22 30
-10.534053 3.044524 30.445240 41 43 20
-10.471390 3.044009 30.440086 29 16 15
-10.408172 3.043325 30.433250 21 34 24
-10.346097 3.042970 30.429697 32 42 18
-10.291368 3.044783 30.447834 26 27 20
-10.239437 3.047452 30.474516 17 40 37
-10.192523 3.051653 30.516535 18 43 31
-10.149248 3.057002 30.570024 25 33 36
-10.101610 3.061094 30.610939 23 42 35
-10.064365 3.068404 30.684038 27 19 15
-10.023970 3.074837 30.748373 28 34 44
-9.984678 3.081691 30.816908 21 38 40
-9.949686 3.089964 30.899645 39 20 44
-9.904700 3.095219 30.952188 29 30 21
-9.867811 3.103085 31.030851 41 19 39
-9.825263 3.109261 31.092606 31 40 29
-9.781089 3.114997 31.149965 40 40 18
-9.740714 3.122024 31.220238 34 35 23
-9.691252 3.126210 31.262104 35 31 16
-9.645870 3.131776 31.317759 38 26 28
-9.594333 3.135403 31.354031 36 37 20
-9.541911 3.138787 31.387865 41 39 44
-9.494585 3.143902 31.439022 33 35 42
-9.442581 3.147527 31.475269 35 42 22
-9.396378 3.153147 31.531471 42 42 22
-9.346490 3.157598 31.575981 31 17 22
-9.296309 3.162010 31.620098 22 17 38
-9.249349 3.167585 31.675854 33 43 29
-9.196302 3.171139 31.711386 15 34 42
-9.147090 3.176073 31.760729 37 19 23
-9.093665 3.179603 31.796032 16 20 19
-9.039168 3.182806 31.828056 26 37 19
-8.987579 3.187085 31.870846 40 38 35
-8.931472 3.189811 31.898113 32 20 25
-8.877969 3.193514 31.935141 18 20 40
-8.821757 3.196289 31.962889 25 19 15
-8.763822 3.198475 31.984751 25 18 26
-8.706358 3.200867 32.008671 36 27 27
-8.645246 3.201943 32.019428 25 36 33
-8.584471 3.203161 32.031609 42 28 15
-8.522490 3.203944 32.039436 30 35 40
-8.459336 3.204294 32.042938 30 35 40
-8.396035 3.204594 32.045937 30 35 40
-8.331732 3.204512 32.045124 30 35 40
-8.267479 3.204449 32.044491 30 35 40
-8.202965 3.204283 32.042831 30 35 40
-8.139108 3.204373 32.043732 30 35 40
-8.076484 3.204954 32.049541 30 35 40
-8.014207 3.205683 32.056828 30 35 40
-7.953774 3.207167 32.071671 30 35 40
-7.893572 3.208769 32.087692 30 35 40
-7.832957 3.210228 32.102283 42 32 22
-7.772214 3.211658 32.116585 19 43 41
-7.709604 3.212335 32.123348 16 40 15
-7.642573 3.211165 32.111652 38 29 37
-7.573174 3.208972 32.089722 35 15 36
-7.500898 3.205512 32.055119 27 25 37
-7.426748 3.201184 32.011845 27 41 44
-7.355052 3.197849 31.978487 40 16 34
-7.281940 3.193834 31.938335 36 33 23
-7.212459 3.191353 31.913534 30 35 40
-7.144341 3.189438 31.894381 36 31 26
-7.073828 3.186409 31.864090 31 31 27
-7.005460 3.184300 31.842999 37 15 34
-6.941492 3.184171 31.841705 42 20 38
-6.881087 3.185688 31.856884 120 120 120
-6.824988 3.189247 31.892466 120 120 120
-6.771484 3.194096 31.940964 120 120 120
-6.716393 3.198282 31.982824 38 35 21
-6.665760 3.204692 32.046921 40 42 36
-6.610406 3.208935 32.089352 31 27 34
-6.557347 3.214386 32.143860 21 28 34
-6.512196 3.223859 32.238594 22 43 29
-6.463876 3.231938 32.319382 38 26 35
-6.419643 3.242244 32.422440 18 15 29
-6.367287 3.248616 32.486160 17 36 30
-6.313790 3.254531 32.545307 24 26 15
-6.265449 3.263255 32.632549 32 39 35
-6.211675 3.269303 32.693027 30 16 24
-6.164621 3.279054 32.790539 18 20 27
-6.114169 3.287188 32.871876 38 17 28
-6.063079 3.295152 32.951519 30 35 40
-6.014336 3.304580 33.045803 30 35 40
-5.958312 3.310173 33.101734 30 35 40
-5.906439 3.318224 33.182243 30 35 40
-5.850836 3.324339 33.243385 30 35 40
-5.793845 3.329796 33.297958 30 35 40
-5.739112 3.336693 33.366932 30 35 40
-5.679427 3.340839 33.408394 23 42 33
-5.620866 3.345754 33.457539 32 32 28
-5.558848 3.348704 33.487038 18 31 36
-5.495306 3.350796 33.507961 32 31 29
-5.433269 3.353870 33.538700 40 17 23
-5.369122 3.355701 33.557014 40 21 28
-5.305399 3.357848 33.578476 20 23 19
-5.239853 3.358880 33.588799 39 42 37
-5.174231 3.359890 33.598904 40 29 36
-5.109886 3.361767 33.617672 18 18 33
-5.044860 3.363240 33.632401 33 34 23
-4.983482 3.367217 33.672173 29 28 22
-4.922499 3.371574 33.715744 15 17 22
-4.862144 3.376489 33.764889 43 19 21
-4.802407 3.381977 33.819767 17 17 28
-4.739485 3.385347 33.853466 44 26 36
-4.677349 3.389383 33.893833 24 43 43
-4.613585 3.392342 33.923416 21 26 18
-4.547735 3.393832 33.938320 29 35 44
-4.480546 3.394353 33.943527 30 30 28
-4.411258 3.393275 33.932755 36 27 35
-4.341447 3.391756 33.917557 39 24 24
-4.271511 3.390088 33.900879 38 39 15
-4.202678 3.389256 33.892563 25 36 25
-4.135761 3.389968 33.899677 42 30 40
-10.552445 3.092958 30.323118 39 20 29
-10.488293 3.091925 30.312986 41 33 28
-10.425196 3.091192 30.305801 38 17 42
-10.361192 3.090180 30.295883 17 17 27
-10.298482 3.089544 30.289652 28 26 27
-10.244432 3.091515 30.308969 31 22 44
-10.194722 3.094826 30.341434 42 19 31
-10.150108 3.099733 30.389544 27 29 38
-10.107844 3.105422 30.445314 23 30 16
-10.059983 3.109449 30.484797 16 27 41
-10.022238 3.116672 30.555605 19 34 19
-9.981593 3.123075 30.618383 21 25 41
-9.941795 3.129824 30.684551 24 31 25
-9.905838 3.137874 30.763474 30 34 32
-9.860090 3.142904 30.812782 28 18 22
-9.822080 3.150478 30.887043 17 24 35
-9.778790 3.156445 30.945539 22 26 43
-9.734080 3.162026 31.000254 18 36 22
-9.693088 3.168894 31.067589 38 42 18
-9.643501 3.173023 31.108068 40 31 32
-9.598150 3.178608 31.162825 22 43 40
-9.546961 3.182320 31.199219 29 39 24
-9.495041 3.185836 31.233688 43 38 15
-9.448041 3.191060 31.284903 38 22 30
-9.396293 3.194740 31.320976 36 25 40
-9.350264 3.200426 31.376724 44 41 35
-9.300444 3.204883 31.420418 43 25 34
-9.250425 3.209331 31.464031 17 31 28
-9.203885 3.215056 31.520155 33 44 35
-9.151414 3.218773 31.556599 23 43 15
-9.103036 3.223992 31.607763 42 24 23
-9.050332 3.227741 31.644518 24 20 43
-8.996738 3.231223 31.678654 44 36 20
-8.946402 3.235933 31.724829 37 33 32
-8.891394 3.239008 31.754978 26 36 19
-8.839238 3.243174 31.795820 25 31 41
-8.784054 3.246281 31.826284 27 26 37
-8.727010 3.248741 31.850403 18 35 18
-8.670515 3.251443 31.876894 30 34 17
-8.610005 3.252668 31.888906 16 24 24
-8.549899 3.254066 31.902607 30 35 40
-8.488450 3.254969 31.911465 30 35 40
-8.425700 3.255384 31.915531 30 35 40
-8.362733 3.255721 31.918829 30 35 40
-8.298609 3.255608 31.917727 30 35 40
-8.234822 3.255627 31.917913 30 35 40
-8.170916 3.255599 31.917639 30 35 40
-8.107802 3.255889 31.920481 30 35 40
-8.045996 3.256713 31.928556 30 35 40
-7.984357 3.257618 31.937428 30 35 40
-7.924726 3.259363 31.954542 30 35 40
-7.865181 3.261173 31.972281 30 35 40
-7.805157 3.262812 31.988350 30 35 40
-7.745087 3.264458 32.004490 20 28 31
-7.682957 3.265257 32.012321 24 33 30
-7.616290 3.264124 32.001217 19 21 18
-7.547106 3.261885 31.979261 30 31 43
-7.474877 3.258280 31.943918 31 43 37
-7.400659 3.253738 31.899393 24 18 38
-7.328907 3.250211 31.864813 30 35 40
-7.255651 3.245949 31.823030 30 35 40
-7.186171 3.243316 31.797216 30 35 40
-7.118051 3.241255 31.777014 30 35 40
-7.047422 3.238005 31.745146 30 35 40
-6.979034 3.235734 31.722883 18 15 40
-6.915029 3.235472 31.720316 34 38 42
-6.854706 3.236944 31.734749 120 120 120
-6.798770 3.240535 31.769953 120 120 120
-6.745421 3.245438 31.818024 120 120 120
-6.690557 3.249699 31.859797 41 22 27
-6.640219 3.256261 31.924128 25 41 44
-6.585254 3.260660 31.967255 38 38 16
-6.532549 3.266274 32.022297 44 36 41
-6.487589 3.275911 32.116776 22 31 39
-6.439373 3.284080 32.196865 19 41 40
-6.395163 3.294478 32.298801 29 25 40
-6.342752 3.300820 32.360977 16 37 24
-6.289419 3.306808 32.419685 41 36 30
-6.241704 3.315905 32.508877 20 28 38
-6.188783 3.322399 32.572544 35 29 36
-6.142716 3.332750 32.674023 40 27 34
-6.092964 3.341303 32.757874 24 17 24
-6.042498 3.349646 32.839664 30 35 40
-5.994424 3.359512 32.936394 30 35 40
-5.938834 3.365339 32.993523 30 35 40
-5.887775 3.373893 33.077385 30 35 40
-5.833121 3.380559 33.142735 30 35 40
-5.777005 3.386520 33.201180 30 35 40
-5.722952 3.393844 33.272976 30 35 40
-5.663536 3.398122 33.314919 29 38 16
-5.605210 3.403163 33.364346 33 37 33
-5.543454 3.406218 33.394299 27 32 23
-5.479988 3.408285 33.414558 28 28 26
-5.417863 3.411247 33.443600 30 27 37
-5.353588 3.412912 33.459923 42 16 39
-5.289304 3.414614 33.476604 24 21 16
-5.223255 3.415205 33.482403 18 26 24
-5.156957 3.415647 33.486732 34 36 36
-5.091657 3.416770 33.497746 32 34 34
-5.026007 3.417684 33.506710 29 40 24
-4.963710 3.420935 33.538582 33 41 23
-4.902202 3.424826 33.576729 43 21 27
-4.841381 3.429312 33.620705 25 27 20
-4.780683 3.434011 33.666779 30 15 33
-4.717089 3.436736 33.693493 24 21 20
-4.655211 3.440808 33.733414 42 37 18
-4.592835 3.444626 33.770847 34 27 23
-4.528660 3.447189 33.795967 41 25 15
-4.462551 3.448335 33.807205 36 16 37
-4.393686 3.447354 33.797585 32 41 23
-4.324066 3.445740 33.781765 23 20 20
