ply
format ascii 1.0
element vertex 1289
property float x
property float y
property float z
property uchar red
property uchar green
property uchar blue
end_header
6.479474 1.445063 23.307461 26 35 15
6.527281 1.445326 23.311716 30 35 40
6.577417 1.446099 23.324175 30 35 40
6.627782 1.446910 23.337261 30 35 40
6.679250 1.447949 23.354021 30 35 40
6.731696 1.449184 23.373943 30 35 40
6.782390 1.450028 23.387550 30 35 40
6.835924 1.451463 23.410698 30 35 40
6.888828 1.452746 23.431387 30 35 40
6.941516 1.453966 23.451067 30 35 40
6.994841 1.455302 23.472620 30 35 40
7.045299 1.456029 23.484331 30 35 40
7.095538 1.456700 23.495159 42 36 33
7.143441 1.456886 23.498161 35 42 41
7.190654 1.456930 23.498871 36 21 22
7.239513 1.457305 23.504911 26 29 18
7.288302 1.457660 23.510651 17 29 28
7.337642 1.458121 23.518084 24 40 38
7.386863 1.458553 23.525042 37 28 38
7.434905 1.458747 23.528181 18 21 21
7.481502 1.458658 23.526735 20 21 40
7.526832 1.458324 23.521349 32 37 23
7.569344 1.457451 23.507278 28 25 29
7.611249 1.456474 23.491508 27 40 24
7.652662 1.455414 23.474424 40 31 43
7.694208 1.454393 23.457952 39 33 36
7.738384 1.453878 23.449648 22 30 33
7.781246 1.453124 23.437489 23 31 18
7.824684 1.452486 23.427197 44 42 42
7.868903 1.452000 23.419355 32 18 43
7.912450 1.451396 23.409615 20 31 26
7.957412 1.451058 23.404154 18 16 38
8.007189 1.451596 23.412832 17 37 38
8.061555 1.452955 23.434753 30 30 41
8.116502 1.454402 23.458097 18 23 25
8.167835 1.455189 23.470789 38 16 36
8.214648 1.455166 23.470423 34 35 40
8.259268 1.454757 23.463829 29 30 41
4.270241 1.518308 23.723562 44 37 33
4.311995 1.516306 23.692280 42 38 33
4.355131 1.514828 23.669188 30 31 35
4.399336 1.513750 23.652346 37 32 33
4.443267 1.512601 23.634398 24 22 27
4.489201 1.512152 23.627373 40 32 26
4.535075 1.511692 23.620180 21 23 41
4.582392 1.511717 23.620579 24 29 44
4.628963 1.511498 23.617157 39 32 34
4.672679 1.510361 23.599390 43 29 24
4.715808 1.509058 23.579039 26 37 41
4.756689 1.507070 23.547964 38 19 29
4.799585 1.505752 23.527376 44 22 43
4.841168 1.504052 23.500816 31 44 34
4.879037 1.501242 23.456907 36 23 43
4.918300 1.498910 23.420475 120 120 120
4.954122 1.495584 23.368500 120 120 120
4.991915 1.492909 23.326706 120 120 120
5.031193 1.490724 23.292562 30 19 34
5.070390 1.488555 23.258669 42 40 26
5.113902 1.487681 23.245010 38 41 32
5.158904 1.487252 23.238308 30 35 40
5.206121 1.487463 23.241613 30 35 40
5.255249 1.488212 23.253313 30 35 40
5.304519 1.488988 23.265434 30 35 40
5.353378 1.489636 23.275557 30 35 40
5.402356 1.490305 23.286018 39 18 21
5.450093 1.490624 23.290995 30 27 18
5.497274 1.490786 23.293535 16 44 20
5.544917 1.491070 23.297972 39 36 33
5.592123 1.491233 23.300512 42 31 22
5.638724 1.491233 23.300512 35 19 38
5.684641 1.491053 23.297710 18 22 43
5.730204 1.490785 23.293510 44 26 22
5.775959 1.490570 23.290157 20 34 24
5.822120 1.490463 23.288481 17 24 17
5.867939 1.490270 23.285473 42 41 39
5.913908 1.490119 23.283102 34 22 20
5.959696 1.489924 23.280062 30 24 17
6.005003 1.489613 23.275206 27 34 33
6.050530 1.489361 23.271271 38 39 39
6.095374 1.488946 23.264788 38 42 44
6.140456 1.488595 23.259304 25 18 27
6.185501 1.488241 23.253763 16 22 24
6.230135 1.487793 23.246771 29 38 33
6.275414 1.487505 23.242273 18 34 29
6.320529 1.487183 23.237240 28 19 25
6.365882 1.486921 23.233145 33 40 36
6.412078 1.486859 23.232168 26 17 21
6.458872 1.486935 23.233353 39 41 39
6.506261 1.487145 23.236647 15 16 37
6.556075 1.487903 23.248491 30 35 40
6.606331 1.488751 23.261728 30 35 40
6.657736 1.489843 23.278797 30 35 40
6.710028 1.491117 23.298708 30 35 40
6.760529 1.491979 23.312170 30 35 40
6.813841 1.493445 23.335073 30 35 40
6.866516 1.494752 23.355495 30 35 40
6.919015 1.496003 23.375050 30 35 40
6.972219 1.497389 23.396708 30 35 40
7.022602 1.498155 23.408672 38 21 35
7.072894 1.498891 23.420177 29 22 42
7.120971 1.499152 23.424246 29 42 21
7.168221 1.499236 23.425560 35 29 21
7.216783 1.499591 23.431114 39 26 44
7.265058 1.499883 23.435671 39 32 29
7.313603 1.500226 23.441036 43 26 28
7.362101 1.500556 23.446182 30 25 43
7.409367 1.500631 23.447363 36 35 42
7.455047 1.500387 23.443542 40 37 18
7.499705 1.499941 23.436579 39 24 15
7.541671 1.498966 23.421337 18 15 33
7.583239 1.497924 23.405060 16 18 34
7.624706 1.496875 23.388668 18 20 22
7.666767 1.495954 23.374289 19 30 22
7.711627 1.495588 23.368567 43 42 25
7.754867 1.494914 23.358034 37 43 36
7.797797 1.494189 23.346699 43 25 37
7.841594 1.493637 23.338078 26 30 33
7.885965 1.493200 23.331257 20 27 36
7.932227 1.493125 23.330078 19 16 41
7.982118 1.493730 23.339527 44 19 43
8.035183 1.494918 23.358091 21 35 28
8.088054 1.496056 23.375877 15 44 27
8.137233 1.496503 23.382853 41 15 41
8.182479 1.496225 23.378511 22 19 21
8.225944 1.495626 23.369158 31 37 35
4.248928 1.557940 23.605156 34 31 44
4.289683 1.555599 23.569687 37 34 22
4.332460 1.554034 23.545977 39 18 42
4.376832 1.553069 23.531355 30 20 44
4.421205 1.552125 23.517050 42 24 39
4.467678 1.551930 23.514093 21 35 32
4.514304 1.551792 23.512001 17 39 44
4.562109 1.552058 23.516024 20 17 41
4.608977 1.552002 23.515186 27 35 44
4.652847 1.550949 23.499228 22 35 41
4.695747 1.549597 23.478735 22 22 28
4.736680 1.547628 23.448910 39 23 40
4.779861 1.546426 23.430691 19 29 35
4.821691 1.544814 23.406269 28 20 29
4.859574 1.541980 23.363337 36 17 31
4.898564 1.539549 23.326496 120 120 120
4.934081 1.536082 23.273968 120 120 120
4.971582 1.533292 23.231693 120 120 120
5.010585 1.531012 23.197153 31 20 40
5.049553 1.528764 23.163088 26 20 19
5.092885 1.527865 23.149477 42 33 25
5.137877 1.527477 23.143591 30 35 40
5.185199 1.527782 23.148211 30 35 40
5.234433 1.528640 23.161207 30 35 40
5.283680 1.529486 23.174036 30 35 40
5.332339 1.530149 23.184082 30 35 40
5.381153 1.530845 23.194626 36 28 26
5.428741 1.531183 23.199747 41 23 37
5.475806 1.531369 23.202568 23 37 38
5.523391 1.531697 23.207525 42 42 29
5.570539 1.531898 23.210581 35 15 44
5.617104 1.531937 23.211172 18 28 27
5.662996 1.531794 23.209000 21 21 18
5.708390 1.531519 23.204838 34 44 42
5.753655 1.531215 23.200222 37 26 19
5.799178 1.530983 23.196712 34 15 38
5.844658 1.530744 23.193087 43 34 39
5.890696 1.530653 23.191717 30 16 17
5.936790 1.530579 23.190586 20 29 24
5.982397 1.530381 23.187586 41 38 38
6.028080 1.530205 23.184921 22 41 26
6.073237 1.529899 23.180294 32 32 34
6.118527 1.529632 23.176237 41 28 37
6.163759 1.529354 23.172028 30 44 37
6.208701 1.529009 23.166796 20 39 24
6.254117 1.528784 23.163395 43 39 33
6.299449 1.528543 23.159740 32 17 36
6.344965 1.528349 23.156807 34 35 40
6.391160 1.528321 23.156376 28 18 38
6.437756 1.528388 23.157394 40 28 44
6.484755 1.528549 23.159840 36 28 17
6.534213 1.529284 23.170967 28 44 25
6.584286 1.530151 23.184107 30 35 40
6.635537 1.531278 23.201178 30 35 40
6.687604 1.532576 23.220848 30 35 40
6.737878 1.533448 23.234062 30 35 40
6.790943 1.534939 23.256655 30 35 40
6.843383 1.536270 23.276814 30 35 40
6.895686 1.537552 23.296236 30 35 40
6.948729 1.538980 23.317883 16 43 32
6.998993 1.539778 23.329977 27 40 15
7.049241 1.540563 23.341858 43 34 15
7.097376 1.540878 23.346632 32 43 39
7.144559 1.540983 23.348232 17 43 30
7.192771 1.541308 23.353153 17 23 35
7.240541 1.541534 23.356583 33 21 36
7.288304 1.541757 23.359947 16 22 22
7.336085 1.541980 23.363329 19 34 15
7.382604 1.541936 23.362671 36 26 24
7.427436 1.541543 23.356718 30 18 30
7.471499 1.540997 23.348434 35 41 37
7.513073 1.539947 23.332525 17 18 29
7.554471 1.538874 23.316269 36 39 38
7.596164 1.537874 23.301117 19 22 15
7.638940 1.537104 23.289452 43 40 37
7.684604 1.536921 23.286678 29 26 25
7.728374 1.536364 23.278236 36 20 15
7.770864 1.535560 23.266060 33 28 21
7.814331 1.534958 23.256939 22 28 15
7.859713 1.534737 23.253588 20 27 39
7.907442 1.534974 23.257181 39 36 43
7.957788 1.535714 23.268387 25 41 25
8.009951 1.536793 23.284742 41 40 32
8.061060 1.537659 23.297861 22 42 29
8.108213 1.537765 23.299463 40 31 21
8.151801 1.537197 23.290861 22 30 16
8.193918 1.536360 23.278177 39 36 42
4.181906 1.597582 23.493855 22 38 30
4.222067 1.595003 23.455929 31 37 35
4.261524 1.592218 23.414967 44 30 32
4.303992 1.590606 23.391262 34 16 41
4.348691 1.589844 23.380058 39 40 28
4.393510 1.589142 23.369732 18 28 40
4.440430 1.589207 23.370686 30 40 20
4.487728 1.589404 23.373581 39 39 16
4.535959 1.589924 23.381231 39 34 23
4.583072 1.590045 23.383020 30 36 15
4.627092 1.589102 23.369150 26 30 35
4.669768 1.587721 23.348839 30 38 15
4.710674 1.585771 23.320168 29 22 44
4.753910 1.584637 23.303482 24 35 39
4.795836 1.583092 23.280758 36 35 37
4.833899 1.580313 23.239901 36 31 25
4.872939 1.577904 23.204472 120 120 120
4.908354 1.574378 23.152615 120 120 120
4.945481 1.571461 23.109724 120 120 120
4.984023 1.569044 23.074179 26 37 20
5.022643 1.566696 23.039646 25 29 36
5.065720 1.565768 23.025999 30 35 40
5.110659 1.565427 23.020987 30 35 40
5.158095 1.565850 23.027210 30 35 40
5.207446 1.566842 23.041796 30 35 40
5.256619 1.567764 23.055347 30 35 40
5.304975 1.568427 23.065109 30 35 40
5.353538 1.569140 23.075594 30 35 40
5.400926 1.569500 23.080879 40 22 20
5.447822 1.569711 23.083990 28 19 39
5.495287 1.570082 23.089443 34 34 15
5.542305 1.570320 23.092936 15 36 30
5.588708 1.570381 23.093834 23 26 35
5.634361 1.570232 23.091642 43 32 33
5.679488 1.569940 23.087351 24 34 22
5.724482 1.569616 23.082590 25 34 16
5.769736 1.569368 23.078943 16 17 23
5.815218 1.569186 23.076262 17 21 21
5.861393 1.569192 23.076351 15 23 28
5.907777 1.569253 23.077255 23 30 16
5.953786 1.569215 23.076689 34 20 22
5.999698 1.569152 23.075760 35 32 25
6.045299 1.569009 23.073662 18 29 22
6.090884 1.568864 23.071531 34 15 25
6.136389 1.568701 23.069130 15 30 30
6.181769 1.568508 23.066301 40 24 31
6.227413 1.568386 23.064493 37 22 42
6.272844 1.568211 23.061928 22 39 16
6.318142 1.568006 23.058914 39 29 38
6.363954 1.567931 23.057804 30 32 17
6.410227 1.567969 23.058371 33 32 25
6.456935 1.568113 23.060482 39 24 24
6.506072 1.568840 23.071177 29 16 23
6.555865 1.569714 23.084030 43 21 35
6.606836 1.570856 23.100824 37 30 18
6.658577 1.572164 23.120060 33 30 40
6.708552 1.573040 23.132936 30 35 40
6.761325 1.574555 23.155224 15 29 25
6.813540 1.575921 23.175306 33 36 35
6.865636 1.577241 23.194717 35 23 44
6.918436 1.578703 23.216227 27 33 21
6.968462 1.579518 23.228207 18 35 34
7.018380 1.580297 23.239668 19 40 26
7.066194 1.580596 23.244059 31 41 39
7.112978 1.580662 23.245028 30 36 19
7.160662 1.580925 23.248901 33 25 19
7.207936 1.581096 23.251408 38 25 23
7.255156 1.581252 23.253704 41 35 42
7.302563 1.581447 23.256571 31 43 35
7.348698 1.581365 23.255375 30 29 17
7.392951 1.580883 23.248274 25 17 43
7.436475 1.580251 23.238983 22 25 28
7.477381 1.579074 23.221682 29 19 35
7.518182 1.577890 23.204266 30 18 29
7.559386 1.576804 23.188301 21 17 17
7.601781 1.575979 23.176161 33 38 24
7.647273 1.575802 23.173555 38 37 36
7.690897 1.575244 23.165352 19 30 18
7.733184 1.574421 23.153244 33 44 38
7.776544 1.573824 23.144476 43 28 18
7.822066 1.573670 23.142208 36 35 44
7.869980 1.573996 23.147001 25 18 37
7.920235 1.574783 23.158581 26 44 20
7.972060 1.575872 23.174593 41 32 29
8.022431 1.576663 23.186216 28 16 23
8.068398 1.576584 23.185053 32 20 40
8.110762 1.575805 23.173605 26 34 24
8.151668 1.574754 23.158148 23 19 22
8.193956 1.573980 23.146769 21 19 17
4.166274 1.638422 23.406033 22 40 38
4.205035 1.635291 23.361303 22 19 42
4.243532 1.632128 23.316109 16 44 21
4.285944 1.630522 23.293175 16 24 31
4.331032 1.629958 23.285120 42 24 38
4.376138 1.629413 23.277332 39 38 44
4.423229 1.629611 23.280153 25 40 39
4.470746 1.629960 23.285137 18 24 37
4.519045 1.630583 23.294046 37 40 34
4.566128 1.630760 23.296570 20 37 16
4.610135 1.629846 23.283512 29 34 27
4.652687 1.628440 23.263433 36 18 34
4.693489 1.626457 23.235096 35 32 40
4.736543 1.625284 23.218349 29 20 27
4.778383 1.623722 23.196032 26 34 30
4.816669 1.620994 23.157063 39 28 33
4.856007 1.618669 23.123844 120 120 120
4.891529 1.615128 23.073252 120 120 120
4.928384 1.612088 23.029833 120 120 120
4.966523 1.609521 22.993162 17 37 34
5.004847 1.607061 22.958015 39 21 22
5.047710 1.606090 22.944138 17 15 21
5.092564 1.605763 22.939478 30 35 40
5.140035 1.606261 22.946587 30 35 40
5.189439 1.607348 22.962120 30 35 40
5.238557 1.608329 22.976126 30 35 40
5.286727 1.609004 22.985771 30 35 40
5.335126 1.609736 22.996233 41 36 28
5.382381 1.610114 23.001627 44 43 29
5.429141 1.610338 23.004833 28 27 41
5.476482 1.610730 23.010427 21 18 38
5.523367 1.610982 23.014029 26 30 29
5.569577 1.611035 23.014780 24 22 29
5.614912 1.610835 23.011934 18 28 29
5.659806 1.610514 23.007343 23 36 29
5.704811 1.610229 23.003271 22 22 33
5.750198 1.610056 23.000793 32 22 33
5.795959 1.609989 22.999838 39 22 34
5.842287 1.610079 23.001129 41 27 28
5.888856 1.610234 23.003345 20 18 28
5.935167 1.610317 23.004522 16 35 30
5.981254 1.610338 23.004824 25 17 41
6.027200 1.610321 23.004580 38 34 24
6.073034 1.610274 23.003918 24 30 42
6.118772 1.610203 23.002903 33 30 28
6.164509 1.610133 23.001898 36 21 37
6.210365 1.610095 23.001350 37 23 41
6.255758 1.609938 22.999109 17 25 24
6.300648 1.609655 22.995066 44 23 28
6.345953 1.609481 22.992582 29 22 21
6.391956 1.609485 22.992647 44 24 24
6.438595 1.609649 22.994984 33 24 23
6.487580 1.610392 23.005602 19 23 43
6.537137 1.611266 23.018087 30 44 15
6.587842 1.612409 23.034414 31 43 36
6.639316 1.613723 23.053181 29 30 17
6.689075 1.614604 23.065775 21 36 44
6.741657 1.616151 23.087868 37 28 42
6.793764 1.617563 23.108040 32 21 27
6.845738 1.618925 23.127495 41 24 43
6.898342 1.620416 23.148798 18 28 23
6.948143 1.621233 23.160477 32 40 29
6.997649 1.621972 23.171024 35 34 34
7.044983 1.622200 23.174286 41 27 27
7.091278 1.622188 23.174112 22 18 31
7.138536 1.622395 23.177065 39 31 19
7.185569 1.622548 23.179256 24 19 27
7.232669 1.622714 23.181633 32 43 32
7.280128 1.622958 23.185120 19 44 27
7.326327 1.622921 23.184580 37 22 38
7.370503 1.622438 23.177681 41 30 39
7.413815 1.621772 23.168171 36 20 20
7.454257 1.620491 23.149866 35 33 28
7.494536 1.619190 23.131283 18 20 18
7.535072 1.617960 23.113718 27 35 35
7.576613 1.616960 23.099430 44 21 30
7.621403 1.616661 23.095160 43 38 26
7.664565 1.616023 23.086040 40 27 29
7.706944 1.615228 23.074682 15 26 41
7.750443 1.614676 23.066795 40 27 42
7.795529 1.614459 23.063696 26 15 15
7.842741 1.614682 23.066885 39 32 44
7.892732 1.615471 23.078163 39 21 33
7.944942 1.616703 23.095762 36 21 35
7.995776 1.617643 23.109180 33 18 20
8.041751 1.617593 23.108479 27 38 23
8.083756 1.616751 23.096447 34 30 27
8.124049 1.615578 23.079685 22 17 40
8.165488 1.614645 23.066351 15 28 15
4.142805 1.675741 23.274185 30 19 29
4.180530 1.672212 23.225164 15 43 42
4.218365 1.668804 23.177830 16 24 22
4.260720 1.667238 23.156086 33 18 23
4.306112 1.666882 23.151140 31 26 40
4.351552 1.666552 23.146553 40 22 43
4.398866 1.666939 23.151926 43 25 42
4.446573 1.667465 23.159233 41 39 27
4.494770 1.668162 23.168919 44 39 33
4.541625 1.668352 23.171556 23 33 43
4.585509 1.667458 23.159134 18 39 20
4.627890 1.666041 23.139452 33 28 42
4.668529 1.664030 23.111530 40 27 18
4.711273 1.662802 23.094477 21 35 35
4.752950 1.661225 23.072575 32 34 19
4.791544 1.658611 23.036268 41 35 20
4.831331 1.656456 23.006336 120 120 120
4.866996 1.652942 22.957527 120 120 120
4.903426 1.649751 22.913204 120 120 120
4.940920 1.646973 22.874632 37 23 24
4.978760 1.644361 22.838348 31 43 24
5.021270 1.643325 22.823956 16 16 33
5.065909 1.642997 22.819408 30 35 40
5.113370 1.643583 22.827545 30 35 40
5.162744 1.644768 22.843998 30 35 40
5.211546 1.645751 22.857658 30 35 40
5.259225 1.646366 22.866194 30 35 40
5.307175 1.647054 22.875755 44 30 15
5.354161 1.647434 22.881029 43 40 44
5.400707 1.647673 22.884354 42 28 15
5.447805 1.648076 22.889938 35 22 32
5.494452 1.648336 22.893549 30 29 43
5.540343 1.648366 22.893978 15 27 30
5.585250 1.648106 22.890368 21 27 32
5.629796 1.647745 22.885349 27 40 42
5.674672 1.647485 22.881741 28 16 33
5.720069 1.647380 22.880278 28 35 26
5.766015 1.647433 22.881012 17 16 42
5.812484 1.647633 22.883797 17 36 41
5.859221 1.647906 22.887583 41 16 17
5.905736 1.648112 22.890450 17 24 41
5.951839 1.648201 22.891687 18 32 38
5.997959 1.648294 22.892975 31 25 27
6.043949 1.648350 22.893745 21 34 16
6.089768 1.648358 22.893866 27 38 26
6.135582 1.648365 22.893963 24 25 15
6.181331 1.648355 22.893818 42 35 25
6.226348 1.648151 22.890984 42 29 34
6.270601 1.647749 22.885406 19 18 35
6.315227 1.647450 22.881256 30 17 43
6.360805 1.647403 22.880592 32 37 44
6.407284 1.647587 22.883156 41 44 30
6.456004 1.648341 22.893631 17 16 15
6.505185 1.649202 22.905582 19 20 36
6.555528 1.650343 22.921425 30 35 38
6.606696 1.651674 22.939917 23 40 39
6.656243 1.652584 22.952560 40 36 28
6.708731 1.654208 22.975105 16 39 40
6.760811 1.655709 22.995956 38 22 19
6.812794 1.657166 23.016197 41 19 24
6.865389 1.658752 23.038219 36 38 32
6.915079 1.659619 23.050264 24 35 17
6.964506 1.660412 23.061279 41 16 40
7.011676 1.660660 23.064722 16 18 25
7.057828 1.660665 23.064798 19 43 26
7.105067 1.660925 23.068399 17 27 16
7.152070 1.661126 23.071194 25 22 40
7.199280 1.661372 23.074615 37 42 39
7.246843 1.661696 23.079117 20 26 32
7.293102 1.661719 23.079437 17 31 19
7.337306 1.661277 23.073290 25 15 27
7.380493 1.660611 23.064041 44 17 24
7.420607 1.659266 23.045364 40 19 20
7.460464 1.657881 23.026123 39 20 42
7.500383 1.656526 23.007311 35 33 28
7.541055 1.655353 22.991020 21 40 34
7.585033 1.654916 22.984947 23 42 20
7.627584 1.654175 22.974649 21 29 33
7.669914 1.653395 22.963816 40 39 40
7.713373 1.652866 22.956469 17 21 30
7.757707 1.652529 22.951796 18 29 16
7.803915 1.652594 22.952690 19 30 32
7.853433 1.653354 22.963253 36 37 19
7.905979 1.654740 22.982498 35 24 44
7.957361 1.655867 22.998154 16 20 19
8.003563 1.655910 22.998743 33 25 26
8.045437 1.655061 22.986963 38 17 42
8.085173 1.653785 22.969242 29 29 16
8.125578 1.652660 22.953609 15 26 34
4.089637 1.719506 23.236574 18 37 21
4.124499 1.714679 23.171341 31 16 20
4.162134 1.711100 23.122967 21 33 44
4.200001 1.707693 23.076927 22 44 21
4.242339 1.706158 23.056192 29 44 21
4.287820 1.705907 23.052794 40 36 26
4.333518 1.705746 23.050627 41 21 25
4.381036 1.706298 23.058083 19 44 23
4.428880 1.706964 23.067081 36 26 42
4.476943 1.707700 23.077026 28 19 16
4.523563 1.707876 23.079405 39 27 21
4.567331 1.706982 23.067329 36 22 38
4.609607 1.705554 23.048033 43 40 28
4.650128 1.703512 23.020437 29 15 34
4.692618 1.702224 23.003027 19 28 43
4.734153 1.700618 22.981323 31 26 22
4.772995 1.698085 22.947090 17 31 22
4.813143 1.696060 22.919729 120 120 120
4.848893 1.692538 22.872135 120 120 120
4.884929 1.689181 22.826773 120 120 120
4.921845 1.686188 22.786322 39 33 25
4.959235 1.683410 22.748783 20 16 34
5.001445 1.682304 22.733841 22 33 34
5.045851 1.681950 22.729057 34 21 27
5.093258 1.682594 22.737761 38 33 23
5.142534 1.683838 22.754574 30 35 40
5.190936 1.684777 22.767262 29 20 22
5.238086 1.685297 22.774286 42 24 40
5.285546 1.685907 22.782528 23 15 18
5.332262 1.686271 22.787445 33 34 20
5.378618 1.686516 22.790752 44 39 39
5.425464 1.686909 22.796066 44 44 19
5.471887 1.687165 22.799528 37 31 30
5.517494 1.687167 22.799561 41 41 33
5.562076 1.686859 22.795393 18 43 33
5.606334 1.686458 22.789974 22 31 16
5.651006 1.686187 22.786314 22 30 30
5.696278 1.686098 22.785110 18 34 24
5.742248 1.686216 22.786699 19 28 26
5.788812 1.686504 22.790600 19 44 38
5.835637 1.686864 22.795456 35 28 17
5.882141 1.687126 22.798998 31 20 41
5.928073 1.687221 22.800282 34 30 19
5.974093 1.687339 22.801882 29 39 34
6.020070 1.687444 22.803295 21 43 44
6.065805 1.687480 22.803778 20 39 32
6.111376 1.687469 22.803640 17 19 43
6.156762 1.687409 22.802822 29 41 42
6.201242 1.687103 22.798685 17 38 31
6.244923 1.686585 22.791691 23 25 19
6.289016 1.686186 22.786291 40 28 37
6.334206 1.686083 22.784912 29 27 44
6.380519 1.686280 22.787567 23 36 40
6.429021 1.687048 22.797947 32 37 31
6.477896 1.687902 22.809492 38 33 22
6.527980 1.689058 22.825106 37 27 39
6.578993 1.690436 22.843725 36 31 31
6.628459 1.691400 22.856754 28 15 31
6.681041 1.693141 22.880278 27 25 39
6.733216 1.694755 22.902096 29 32 18
6.785372 1.696343 22.923553 24 26 40
6.838207 1.698078 22.947002 21 21 33
6.888003 1.699041 22.960011 20 32 42
6.937768 1.699983 22.972742 41 22 38
6.985231 1.700352 22.977734 30 26 25
7.031710 1.700479 22.979445 25 40 19
7.079378 1.700890 22.984995 41 34 16
7.126601 1.701189 22.989037 44 16 31
7.174101 1.701550 22.993914 26 20 26
7.221762 1.701944 22.999241 34 27 29
7.268039 1.702009 23.000124 29 30 30
7.312381 1.701623 22.994909 36 44 23
7.355614 1.700986 22.986294 22 28 22
7.395716 1.699637 22.968061 15 38 42
7.435477 1.698226 22.949003 43 37 39
7.475165 1.696816 22.929953 36 34 27
7.515473 1.695564 22.913027 23 32 16
7.559032 1.695056 22.906158 15 30 15
7.601199 1.694243 22.895178 31 21 43
7.643402 1.693448 22.884436 40 26 21
7.686661 1.692896 22.876968 16 44 37
7.730360 1.692446 22.870888 17 40 21
7.775814 1.692383 22.870041 16 38 42
7.825027 1.693134 22.880196 32 21 22
7.877906 1.694666 22.900890 20 40 36
7.929808 1.695970 22.918520 25 20 24
7.976278 1.696105 22.920338 21 41 28
8.018117 1.695259 22.908907 25 43 25
8.057487 1.693903 22.890587 35 43 15
8.097239 1.692643 22.873556 19 38 32
8.137734 1.691552 22.858805 44 37 22
4.072550 1.758601 23.139486 42 30 21
4.107302 1.753680 23.074732 18 18 42
4.145290 1.750234 23.029390 39 42 18
4.183486 1.746950 22.986187 40 15 24
4.225810 1.745443 22.966358 24 35 15
4.271210 1.745226 22.963497 16 16 20
4.317019 1.745178 22.962870 43 44 42
4.364621 1.745848 22.971689 25 43 37
4.412384 1.746569 22.981167 29 39 41
4.460092 1.747252 22.990164 21 44 40
4.506295 1.747339 22.991301 21 44 20
4.549817 1.746395 22.978876 17 39 24
4.591976 1.744951 22.959881 40 43 20
4.632349 1.742864 22.932423 16 27 22
4.674554 1.741500 22.914478 35 21 29
4.715918 1.739853 22.892805 38 39 19
4.754957 1.737388 22.860371 31 30 26
4.795439 1.735492 22.835423 120 120 120
4.831294 1.731973 22.789124 120 120 120
4.867025 1.728476 22.743107 120 120 120
4.903459 1.725291 22.701200 38 44 25
4.940459 1.722362 22.662655 21 20 20
4.982371 1.721183 22.647142 15 38 15
5.026531 1.720794 22.642033 22 38 40
5.073862 1.721489 22.651169 30 32 26
5.122991 1.722776 22.668100 22 32 33
5.170918 1.723639 22.679466 23 43 31
5.217473 1.724035 22.684666 43 37 28
5.264394 1.724543 22.691355 20 42 42
5.310854 1.724893 22.695955 22 32 37
5.357057 1.725154 22.699394 17 34 43
5.403669 1.725541 22.704491 16 34 38
5.449869 1.725792 22.707788 21 30 42
5.495221 1.725772 22.707525 20 40 36
5.539538 1.725430 22.703024 20 38 15
5.583546 1.724998 22.697340 25 43 39
5.627985 1.724705 22.693487 27 29 35
5.673068 1.724613 22.692270 33 31 23
5.718950 1.724763 22.694244 32 29 39
5.765502 1.725111 22.698828 25 38 22
5.812311 1.725530 22.704340 24 43 18
5.858683 1.725814 22.708075 28 16 23
5.904373 1.725894 22.709127 16 22 43
5.950163 1.726001 22.710545 15 22 30
5.996005 1.726123 22.712139 15 17 25
6.041512 1.726146 22.712450 33 22 25
6.086627 1.726058 22.711294 27 35 17
6.131486 1.725900 22.709206 42 41 38
6.175355 1.725467 22.703510 35 27 31
6.218556 1.724855 22.695461 22 30 44
6.262263 1.724391 22.689358 16 24 43
6.307129 1.724251 22.687513 41 36 15
6.353272 1.724460 22.690258 27 29 17
6.401557 1.725242 22.700556 44 22 38
6.450121 1.726089 22.711693 23 43 42
6.499956 1.727261 22.727118 32 39 27
6.550845 1.728695 22.745991 26 31 28
6.600258 1.729723 22.759510 34 20 25
6.652965 1.731594 22.784126 41 43 19
6.705251 1.733330 22.806976 28 18 35
6.757592 1.735058 22.829704 17 32 31
6.810704 1.736958 22.854712 26 24 16
6.860634 1.738027 22.868780 32 20 38
6.910865 1.739158 22.883659 33 33 32
6.958755 1.739689 22.890642 35 37 34
7.005727 1.739984 22.894531 20 20 44
7.054018 1.740602 22.902657 40 32 19
7.101588 1.741034 22.908348 23 39 42
7.149484 1.741541 22.915014 20 37 24
7.197262 1.742012 22.921215 37 19 24
7.243571 1.742125 22.922693 40 39 27
7.288120 1.741815 22.918617 23 26 31
7.331473 1.741225 22.910854 44 39 32
7.371731 1.739912 22.893574 26 28 40
7.411569 1.738516 22.875214 27 36 28
7.451181 1.737085 22.856382 30 21 23
7.491235 1.735774 22.839130 32 31 43
7.534390 1.735193 22.831484 22 39 25
7.576132 1.734295 22.819674 22 31 40
7.618115 1.733463 22.808727 15 25 30
7.661068 1.732861 22.800797 27 41 34
7.704075 1.732277 22.793121 29 42 19
7.748777 1.732079 22.790520 27 42 43
7.797480 1.732773 22.799648 22 27 24
7.850247 1.734357 22.820486 31 43 38
7.902367 1.735780 22.839211 32 35 33
7.949318 1.736058 22.842869 33 40 42
7.991676 1.735335 22.833361 24 15 39
8.031132 1.733994 22.815716 38 28 19
8.070359 1.732619 22.797625 27 36 35
8.110038 1.731356 22.781006 38 29 31
4.051741 1.795658 23.021255 17 21 18
4.086353 1.790649 22.957039 30 34 38
4.124466 1.787269 22.913700 20 19 29
4.162777 1.784047 22.872400 34 27 29
4.204992 1.782551 22.853218 22 44 16
4.250231 1.782355 22.850702 31 22 30
4.296006 1.782386 22.851097 38 30 28
4.343552 1.783142 22.860800 18 30 42
4.391029 1.783856 22.869944 19 37 21
4.438188 1.784426 22.877260 30 40 31
4.483791 1.784366 22.876484 44 40 39
4.526910 1.783328 22.863180 23 21 40
4.568877 1.781862 22.844385 19 41 17
4.609042 1.779729 22.817041 30 34 36
4.650914 1.778291 22.798597 36 21 41
4.692094 1.776618 22.777157 34 25 32
4.731339 1.774252 22.746824 37 15 33
4.772164 1.772518 22.724588 120 120 120
4.808180 1.769047 22.680096 120 120 120
4.843655 1.765444 22.633902 120 120 120
4.879656 1.762098 22.591000 26 42 32
4.916288 1.759039 22.551781 28 19 19
4.957873 1.757791 22.535786 28 40 19
5.001814 1.757394 22.530693 38 23 25
5.049145 1.758184 22.540825 28 44 18
5.098179 1.759548 22.558313 44 39 35
5.145591 1.760334 22.568382 40 36 38
5.191429 1.760572 22.571430 20 25 20
5.237753 1.760969 22.576523 32 32 44
5.283968 1.761323 22.581060 16 17 32
5.330051 1.761627 22.584961 32 23 39
5.376463 1.762034 22.590179 25 22 44
5.422447 1.762295 22.593531 23 31 31
5.467560 1.762271 22.593224 16 36 41
5.511621 1.761912 22.588610 30 35 40
5.555373 1.761460 22.582819 18 30 17
5.599566 1.761154 22.578894 36 31 32
5.644420 1.761059 22.577681 18 23 25
5.690135 1.761232 22.579903 37 17 31
5.736562 1.761621 22.584890 38 21 38
5.783264 1.762088 22.590874 29 22 33
5.829528 1.762415 22.595068 32 43 18
5.875060 1.762518 22.596386 26 30 25
5.920706 1.762653 22.598116 39 29 32
5.966444 1.762813 22.600166 26 31 17
6.011733 1.762839 22.600498 29 20 19
6.056381 1.762678 22.598438 27 31 32
6.100665 1.762414 22.595055 28 28 43
6.143988 1.761879 22.588192 22 32 38
6.186848 1.761219 22.579737 24 19 20
6.230310 1.760740 22.573586 44 44 36
6.274932 1.760592 22.571697 21 40 29
6.320886 1.760818 22.574594 38 32 36
6.368901 1.761611 22.584757 21 31 15
6.417103 1.762444 22.595432 44 26 42
6.466604 1.763619 22.610502 36 30 16
6.517280 1.765097 22.629446 24 23 39
6.566573 1.766182 22.643354 19 16 16
6.619289 1.768166 22.668798 23 24 32
6.671567 1.770008 22.692406 43 23 41
6.723959 1.771854 22.716078 17 16 39
6.777187 1.773894 22.742237 19 44 42
6.827126 1.775053 22.757086 37 26 15
6.877629 1.776341 22.773605 29 38 32
6.925794 1.777013 22.782217 33 17 16
6.973101 1.777457 22.787912 36 42 32
7.021869 1.778265 22.798275 34 44 33
7.069699 1.778828 22.805481 15 19 18
7.117908 1.779477 22.813808 17 26 33
7.165754 1.780028 22.820871 24 22 15
7.212037 1.780186 22.822901 20 24 42
7.256707 1.779947 22.819834 31 17 39
7.300079 1.779394 22.812748 26 38 35
7.340374 1.778103 22.796194 24 26 30
7.380222 1.776720 22.778463 36 32 43
7.419655 1.775255 22.759678 44 30 21
7.459235 1.773843 22.741571 38 39 24
7.501758 1.773143 22.732601 27 25 36
7.542873 1.772121 22.719498 23 23 41
7.584566 1.771246 22.708282 42 29 20
7.627178 1.770595 22.699936 34 26 36
7.669471 1.769878 22.690742 15 24 39
7.713427 1.769551 22.686550 15 30 25
7.761252 1.770110 22.693718 27 23 24
7.813110 1.771577 22.712528 31 21 23
7.864823 1.772995 22.730701 44 39 23
7.912416 1.773473 22.736828 32 39 33
7.955986 1.773048 22.731388 15 41 28
7.995986 1.771838 22.715870 28 42 22
8.034565 1.770328 22.696512 25 31 29
8.073152 1.768837 22.677393 28 40 35
4.039075 1.835943 22.949287 43 39 28
4.073735 1.830892 22.886150 18 21 31
4.111950 1.827533 22.844168 28 20 36
4.150302 1.824309 22.803858 39 21 34
4.192397 1.822781 22.784765 19 33 37
4.237427 1.822549 22.781864 43 29 23
4.283026 1.822564 22.782055 21 26 29
4.330397 1.823325 22.791563 24 22 22
4.377503 1.823960 22.799496 38 41 20
4.424165 1.824398 22.804974 39 19 35
4.469268 1.824191 22.802387 27 42 25
4.512024 1.823040 22.788000 26 21 20
4.553838 1.821535 22.769192 18 38 19
4.593846 1.819345 22.741812 25 30 16
4.635505 1.817845 22.723063 35 32 24
4.676577 1.816146 22.701830 28 40 28
4.715916 1.813814 22.672674 35 18 39
4.756910 1.812156 22.651955 120 120 120
4.793058 1.808701 22.608765 120 120 120
4.828468 1.805035 22.562937 120 120 120
4.864314 1.801598 22.519970 28 20 29
4.900796 1.798457 22.480715 26 25 25
4.942199 1.797163 22.464540 41 41 18
4.986046 1.796773 22.459667 39 16 29
5.033423 1.797651 22.470638 42 41 23
5.082432 1.799091 22.488638 19 32 18
5.129525 1.799833 22.497917 22 24 29
5.174884 1.799960 22.499496 26 35 20
5.220838 1.800289 22.503611 17 25 22
5.266935 1.800661 22.508268 38 25 28
5.313006 1.801019 22.512737 24 18 25
5.359344 1.801460 22.518251 30 35 40
5.405221 1.801740 22.521755 30 35 40
5.450240 1.801732 22.521654 30 35 40
5.494202 1.801378 22.517220 30 35 40
5.537831 1.800921 22.511509 30 35 40
5.581880 1.800606 22.507580 30 35 40
5.626562 1.800500 22.506248 30 35 40
5.672097 1.800666 22.508322 24 37 24
5.718339 1.801052 22.513145 20 22 34
5.764883 1.801526 22.519075 41 44 42
5.811058 1.801879 22.523481 44 26 43
5.856533 1.802010 22.525126 33 44 42
5.902113 1.802172 22.527149 44 19 30
5.947780 1.802358 22.529470 23 30 23
5.992904 1.802377 22.529713 22 22 34
6.037226 1.802157 22.526962 32 22 23
6.081111 1.801811 22.522635 25 19 29
6.124168 1.801226 22.515322 32 33 21
6.166991 1.800581 22.507265 39 18 38
6.210491 1.800142 22.501780 17 19 41
6.255071 1.800020 22.500256 39 26 35
6.300911 1.800260 22.503252 38 28 36
6.348758 1.801066 22.513325 27 25 29
6.396735 1.801897 22.523716 38 36 20
6.446013 1.803081 22.538507 39 41 34
6.496540 1.804595 22.557432 15 44 29
6.545744 1.805723 22.571531 39 26 20
6.598401 1.807781 22.597263 31 17 26
6.650601 1.809687 22.621092 28 27 26
6.702940 1.811605 22.645067 20 20 34
6.756135 1.813727 22.671593 20 25 44
6.806006 1.814935 22.686686 20 25 31
6.856587 1.816315 22.703932 35 20 37
6.904837 1.817062 22.713280 31 26 38
6.952284 1.817590 22.719881 36 15 38
7.001278 1.818514 22.731421 17 24 35
7.049234 1.819157 22.739464 31 36 28
7.097593 1.819896 22.748695 37 15 39
7.145438 1.820494 22.756172 27 16 17
7.191684 1.820679 22.758493 37 40 29
7.236379 1.820473 22.755909 19 33 30
7.279725 1.819931 22.749142 23 27 40
7.320021 1.818639 22.732985 23 28 41
7.359900 1.817259 22.715742 16 22 38
7.399231 1.815762 22.697029 36 39 18
7.438469 1.814261 22.678259 30 22 41
7.480530 1.813462 22.668274 27 21 29
7.521175 1.812331 22.654142 31 17 22
7.562634 1.811409 22.642618 42 35 21
7.605006 1.810716 22.633947 16 34 21
7.646907 1.809919 22.623985 16 43 16
7.690499 1.809529 22.619116 26 36 22
7.737552 1.809954 22.624422 20 28 30
7.788219 1.811214 22.640171 43 37 34
7.839185 1.812528 22.656603 17 23 37
7.887313 1.813176 22.664694 35 28 27
7.932207 1.813076 22.663448 38 35 43
7.972997 1.812045 22.650558 16 16 43
8.011213 1.810444 22.630545 28 41 32
8.049024 1.808769 22.609617 15 37 40
4.021247 1.873535 22.847992 27 28 43
4.056114 1.868547 22.787157 24 36 15
4.094415 1.865234 22.746752 27 17 17
4.132813 1.862037 22.707764 18 19 23
4.174800 1.860509 22.689129 44 29 15
4.219595 1.860252 22.685995 43 35 16
4.264998 1.860265 22.686161 28 16 19
4.312154 1.861035 22.695549 35 33 29
4.358656 1.861510 22.701336 32 22 18
4.404436 1.861669 22.703279 38 43 38
4.448649 1.861170 22.697189 40 16 27
4.490808 1.859830 22.680851 38 27 29
4.532430 1.858296 22.662148 34 33 39
4.572196 1.856040 22.634636 40 26 40
4.613519 1.854454 22.615290 38 24 42
4.654339 1.852698 22.593880 40 18 26
4.693564 1.850347 22.565212 29 17 17
4.734525 1.848719 22.545355 120 120 120
4.770824 1.845319 22.503885 120 120 120
4.806427 1.841715 22.459940 120 120 120
4.842415 1.838324 22.418589 42 31 22
4.878903 1.835184 22.380291 32 34 30
4.920078 1.833847 22.363989 21 20 15
4.963660 1.833424 22.358828 24 24 34
5.010773 1.834301 22.369522 38 31 37
5.059479 1.835740 22.387074 34 26 19
5.106213 1.836445 22.395672 32 27 23
5.151233 1.836526 22.396664 27 44 35
5.196947 1.836852 22.400633 21 24 28
5.242937 1.837268 22.405712 18 20 21
5.288962 1.837690 22.410856 30 35 40
5.335229 1.838188 22.416927 30 35 40
5.380976 1.838500 22.420732 30 35 40
5.425907 1.838531 22.421104 30 35 40
5.469774 1.838203 22.417105 30 35 40
5.513288 1.837763 22.411741 30 35 40
5.557179 1.837454 22.407978 30 35 40
5.601636 1.837337 22.406544 30 35 40
5.646934 1.837494 22.408466 30 35 40
5.692933 1.837876 22.413122 29 22 35
5.739252 1.838354 22.418953 26 36 38
5.785295 1.838737 22.423622 30 25 37
5.830685 1.838908 22.425713 36 21 27
5.876003 1.839054 22.427492 36 28 42
5.921239 1.839173 22.428936 32 36 31
5.965860 1.839100 22.428043 30 18 34
6.009678 1.838782 22.424173 21 32 17
6.053174 1.838371 22.419163 39 32 32
6.095952 1.837750 22.411587 27 39 26
6.138668 1.837120 22.403898 23 33 30
6.182130 1.836720 22.399021 21 36 27
6.226600 1.836623 22.397842 24 36 28
6.272266 1.836878 22.400951 31 34 34
6.319875 1.837694 22.410904 16 26 40
6.367541 1.838515 22.420919 21 24 42
6.416502 1.839696 22.435322 20 18 25
6.466788 1.841238 22.454126 16 40 32
6.515822 1.842405 22.468353 24 44 42
6.568325 1.844530 22.494263 20 19 42
6.620348 1.846492 22.518190 41 39 23
6.672523 1.848469 22.542309 33 17 26
6.725563 1.850658 22.569004 39 40 20
6.775261 1.851905 22.584204 34 22 20
6.825815 1.853367 22.602037 34 25 40
6.874066 1.854189 22.612059 17 21 23
6.921619 1.854813 22.619669 44 40 32
6.970868 1.855880 22.632689 24 29 30
7.019003 1.856639 22.641945 42 22 17
7.067607 1.857512 22.652588 36 15 22
7.115505 1.858189 22.660845 36 20 25
7.161760 1.858431 22.663797 18 39 18
7.206604 1.858307 22.662275 31 40 23
7.250006 1.857814 22.656269 33 30 30
7.290485 1.856583 22.641256 35 43 25
7.330592 1.855273 22.625284 28 17 38
7.369940 1.853789 22.607178 19 17 36
7.408816 1.852204 22.587852 40 17 23
7.450234 1.851270 22.576468 27 30 25
7.490167 1.849981 22.560743 29 36 15
7.531214 1.848981 22.548544 19 26 39
7.573105 1.848198 22.539003 34 34 28
7.614232 1.847240 22.527313 31 36 21
7.657114 1.846716 22.520924 16 27 15
7.702856 1.846884 22.522972 36 26 29
7.751795 1.847811 22.534286 33 30 42
7.801566 1.848926 22.547878 20 43 38
7.849918 1.849693 22.557236 15 21 16
7.896093 1.849942 22.560265 16 30 44
7.937704 1.849124 22.550295 19 34 23
7.975613 1.847458 22.529982 24 34 31
8.012732 1.845629 22.507673 38 36 21
4.008437 1.913117 22.775208 37 32 22
4.043493 1.908165 22.716253 43 19 30
4.081815 1.904847 22.676748 20 24 42
4.120226 1.901643 22.638603 34 28 30
4.162132 1.900104 22.620285 36 31 24
4.206789 1.899840 22.617147 22 33 34
4.252150 1.899897 22.617819 42 34 35
4.299271 1.900730 22.627743 22 32 24
4.345347 1.901089 22.632017 29 35 33
4.390352 1.900977 22.630680 30 42 20
4.433762 1.900184 22.621235 36 27 19
4.475438 1.898671 22.603222 19 21 37
4.516965 1.897126 22.584827 20 18 27
4.556579 1.894815 22.557322 36 19 24
4.597671 1.893159 22.537605 24 16 25
4.638271 1.891334 22.515879 36 22 16
4.677256 1.888892 22.486807 32 34 26
4.718005 1.887202 22.466692 120 120 120
4.754397 1.883818 22.426403 120 120 120
4.790346 1.880323 22.384796 120 120 120
4.826690 1.877046 22.345789 15 39 23
4.863320 1.873940 22.308807 40 39 22
4.904351 1.872570 22.292503 32 28 23
4.947646 1.872082 22.286692 28 38 44
4.994343 1.872879 22.296173 26 29 22
5.042658 1.874262 22.312647 15 39 37
5.089229 1.874979 22.321180 32 38 43
5.134273 1.875126 22.322927 37 17 26
5.180054 1.875537 22.327818 37 30 33
5.226031 1.876011 22.333466 30 35 40
5.272041 1.876489 22.339155 30 35 40
5.318303 1.877048 22.345812 30 35 40
5.363984 1.877394 22.349932 30 35 40
5.408887 1.877465 22.350773 30 35 40
5.452717 1.877165 22.347200 30 35 40
5.496153 1.876735 22.342085 30 35 40
5.539927 1.876427 22.338415 30 35 40
5.584214 1.876296 22.336857 30 35 40
5.629316 1.876439 22.338554 30 35 40
5.675117 1.876810 22.342981 30 35 40
5.721243 1.877283 22.348604 33 20 30
5.767165 1.877682 22.353354 42 38 24
5.812488 1.877881 22.355722 24 42 30
5.857455 1.877963 22.356697 31 29 24
5.902101 1.877941 22.356441 30 26 37
5.946092 1.877713 22.353731 17 35 23
5.989467 1.877296 22.348759 43 32 30
6.032788 1.876867 22.343660 28 25 37
6.075395 1.876225 22.336010 18 21 31
6.117957 1.875578 22.328312 23 27 24
6.161292 1.875176 22.323521 22 37 23
6.205609 1.875076 22.322334 29 26 21
6.251118 1.875335 22.325422 40 22 44
6.298522 1.876155 22.335184 25 18 24
6.345944 1.876969 22.344872 28 20 34
6.394671 1.878155 22.358990 36 38 25
6.444760 1.879722 22.377638 22 17 40
6.493651 1.880920 22.391899 39 44 44
6.546017 1.883101 22.417866 19 32 42
6.597892 1.885112 22.441809 43 25 19
6.649921 1.887140 22.465950 39 15 28
6.702799 1.889380 22.492615 22 27 43
6.752325 1.890651 22.507751 37 38 29
6.802799 1.892169 22.525824 32 16 37
6.850991 1.893037 22.536154 37 43 17
6.898576 1.893727 22.544365 38 38 23
6.948004 1.894910 22.558455 22 19 26
6.996299 1.895771 22.568707 15 20 22
7.045139 1.896768 22.580572 38 31 22
7.093109 1.897519 22.589518 37 43 27
7.139433 1.897824 22.593143 29 24 23
7.184500 1.897792 22.592768 40 35 21
7.228048 1.897363 22.587650 15 33 44
7.268816 1.896213 22.573963 24 28 39
7.309240 1.894988 22.559383 19 17 31
7.348711 1.893533 22.542057 41 27 23
7.387388 1.891892 22.522524 36 40 31
7.428320 1.890845 22.510059 40 18 41
7.467663 1.889409 22.492960 27 16 17
7.508356 1.888329 22.480106 29 26 29
7.549778 1.887445 22.469578 31 34 37
7.590129 1.886304 22.456003 27 30 28
7.632293 1.885625 22.447920 24 35 37
7.676853 1.885543 22.446938 40 25 43
7.724448 1.886202 22.454790 21 43 33
7.773221 1.887140 22.465958 24 26 27
7.821379 1.887919 22.475227 28 27 20
7.868119 1.888349 22.480341 30 23 30
7.910131 1.887645 22.471964 37 21 24
7.947881 1.885938 22.451641 18 19 34
7.984768 1.884046 22.429125 22 36 37
3.996490 1.952830 22.707327 23 19 42
4.031898 1.947996 22.651114 30 40 32
4.070219 1.944660 22.612328 44 26 37
4.108652 1.941451 22.575012 26 28 39
4.150572 1.939941 22.557457 25 33 16
4.195137 1.939687 22.554501 23 30 16
4.240379 1.939748 22.555208 23 30 30
4.287321 1.940577 22.564850 39 44 33
4.332842 1.940752 22.566887 27 42 20
4.377037 1.940336 22.562048 22 32 31
4.419644 1.939232 22.549204 22 32 42
4.460803 1.937520 22.529306 37 43 39
4.502213 1.935951 22.511063 16 34 26
4.541616 1.933559 22.483246 33 25 34
4.582418 1.931804 22.462831 16 23 31
4.622716 1.929872 22.440371 29 15 31
4.661318 1.927276 22.410181 36 16 24
4.701718 1.925465 22.389133 120 120 120
4.738174 1.922090 22.349878 120 120 120
4.774590 1.918761 22.311169 120 120 120
4.811463 1.915675 22.275291 41 36 43
4.848351 1.912652 22.240143 24 33 17
4.889276 1.911262 22.223982 30 35 40
4.932237 1.910686 22.217283 17 19 34
4.978374 1.911340 22.224882 36 26 33
5.026165 1.912611 22.239668 41 35 37
5.072588 1.913344 22.248192 32 17 18
5.117774 1.913602 22.251190 29 35 41
5.163700 1.914130 22.257328 39 28 26
5.209646 1.914656 22.263445 30 35 40
5.255590 1.915173 22.269451 30 35 40
5.301828 1.915787 22.276588 30 35 40
5.347443 1.916167 22.281013 30 35 40
5.392343 1.916287 22.282410 30 35 40
5.436181 1.916031 22.279432 30 35 40
5.479611 1.915636 22.274841 30 35 40
5.523348 1.915355 22.271566 30 35 40
5.567516 1.915226 22.270065 30 35 40
5.612497 1.915376 22.271812 30 35 40
5.658164 1.915756 22.276236 30 35 40
5.704146 1.916236 22.281818 39 42 24
5.749994 1.916665 22.286798 20 39 31
5.795256 1.916892 22.289446 21 35 38
5.839865 1.916902 22.289562 27 36 20
5.883887 1.916721 22.287451 33 36 17
5.927247 1.916328 22.282885 36 36 25
5.970267 1.915832 22.277117 38 43 15
6.013532 1.915421 22.272341 35 41 40
6.056090 1.914793 22.265038 34 15 19
6.098558 1.914146 22.257511 19 25 25
6.141791 1.913747 22.252867 26 30 43
6.186014 1.913659 22.251848 32 16 40
6.231402 1.913931 22.255009 31 29 20
6.278650 1.914766 22.264717 18 30 16
6.325883 1.915584 22.274235 33 43 19
6.374402 1.916778 22.288118 26 27 20
6.424297 1.918366 22.306585 23 17 19
6.473020 1.919585 22.320757 43 17 37
6.525169 1.921796 22.346468 21 34 20
6.576826 1.923834 22.370157 42 18 40
6.628625 1.925884 22.394005 18 36 43
6.681241 1.928143 22.420273 25 22 27
6.730543 1.929422 22.435143 25 19 44
6.780826 1.930964 22.453068 38 43 33
6.828857 1.931848 22.463346 34 34 37
6.876386 1.932579 22.471849 36 30 34
6.925884 1.933851 22.486635 24 16 40
6.974279 1.934800 22.497673 41 21 29
7.023303 1.935910 22.510586 28 37 16
7.071339 1.936736 22.520187 17 28 41
7.117749 1.937109 22.524523 27 20 36
7.163023 1.937170 22.525229 25 34 37
7.206691 1.936798 22.520908 41 36 35
7.247771 1.935740 22.508604 23 38 40
7.288557 1.934617 22.495546 23 37 17
7.328222 1.933212 22.479210 38 44 27
7.366799 1.931539 22.459753 36 34 33
7.407333 1.930396 22.446463 31 26 35
7.446146 1.928821 22.428152 44 24 40
7.486470 1.927654 22.414581 22 19 22
7.527402 1.926657 22.402983 27 15 24
7.567019 1.925336 22.387630 32 29 43
7.608530 1.924511 22.378031 31 43 26
7.651977 1.924181 22.374203 32 39 22
7.698344 1.924586 22.378906 32 29 17
7.746128 1.925338 22.387653 20 39 25
7.793831 1.926062 22.396067 29 20 16
7.840762 1.926587 22.402176 29 25 17
7.883015 1.925964 22.394928 42 43 24
7.920843 1.924272 22.375261 25 32 40
7.957761 1.922380 22.353260 26 44 17
3.980852 1.990426 22.618475 36 21 36
4.016798 1.985833 22.566282 23 36 40
4.055043 1.982466 22.528019 20 26 28
4.093504 1.979277 22.491779 42 43 38
4.135548 1.977871 22.475805 28 26 33
4.180063 1.977664 22.473455 26 36 31
4.225042 1.977679 22.473627 30 41 35
4.271539 1.978397 22.481787 24 41 42
4.316240 1.978277 22.480419 20 38 27
4.359507 1.977508 22.471685 19 24 36
4.401217 1.976056 22.455187 17 22 24
4.441716 1.974096 22.432911 17 37 44
4.482902 1.972477 22.414511 38 36 15
4.521928 1.969949 22.385780 32 42 35
4.562260 1.968034 22.364019 36 36 34
4.602119 1.965954 22.340382 42 15 26
4.640245 1.963181 22.308870 17 36 36
4.680291 1.961265 22.287098 120 120 120
4.716822 1.957926 22.249163 120 120 120
4.753719 1.954800 22.213638 120 120 120
4.791129 1.951941 22.181152 30 35 40
4.828278 1.949030 22.148064 30 35 40
4.869068 1.947627 22.132128 30 35 40
4.911629 1.946952 22.124456 30 35 40
4.957119 1.947439 22.129993 30 35 40
5.004254 1.948559 22.142715 18 29 42
5.050343 1.949255 22.150625 22 41 18
5.095498 1.949582 22.154341 19 42 33
5.141369 1.950174 22.161072 30 28 21
5.187144 1.950721 22.167280 30 35 40
5.232908 1.951254 22.173340 30 35 40
5.278991 1.951896 22.180635 30 35 40
5.324449 1.952298 22.185205 30 35 40
5.369304 1.952474 22.187206 30 35 40
5.413151 1.952284 22.185045 30 35 40
5.456607 1.951957 22.181328 30 35 40
5.500343 1.951735 22.178804 30 35 40
5.544412 1.951633 22.177649 30 35 40
5.589334 1.951831 22.179897 30 35 40
5.634926 1.952258 22.184748 30 35 40
5.680813 1.952779 22.190674 26 36 33
5.726617 1.953265 22.196192 39 43 34
5.771802 1.953533 22.199238 20 23 36
5.816110 1.953503 22.198895 43 22 19
5.859594 1.953198 22.195431 26 21 44
5.902414 1.952678 22.189526 27 15 24
5.945123 1.952130 22.183296 36 24 39
5.988306 1.951744 22.178909 42 39 41
6.030851 1.951158 22.172245 15 30 22
6.073286 1.950544 22.165276 35 20 22
6.116495 1.950187 22.161215 22 25 40
6.160702 1.950150 22.160797 22 18 41
6.206007 1.950459 22.164310 20 17 40
6.253135 1.951333 22.174236 19 38 25
6.300179 1.952168 22.183729 38 35 39
6.348459 1.953372 22.197409 30 31 29
6.398123 1.954982 22.215706 19 15 34
6.446626 1.956217 22.229744 37 40 18
6.498489 1.958449 22.255100 31 17 24
6.549840 1.960496 22.278366 19 17 17
6.601316 1.962554 22.301744 36 29 18
6.653594 1.964820 22.327496 31 44 30
6.702612 1.966099 22.342039 42 43 25
6.752664 1.967664 22.359816 32 29 29
6.800502 1.968566 22.370071 42 24 38
6.847938 1.969342 22.378883 19 21 26
6.897456 1.970702 22.394339 41 40 29
6.945888 1.971736 22.406092 40 18 21
6.995043 1.972961 22.420010 34 32 36
7.043116 1.973867 22.430305 17 39 17
7.089563 1.974309 22.435328 25 24 17
7.134929 1.974446 22.436884 33 37 34
7.178583 1.974110 22.433073 15 43 25
7.219866 1.973131 22.421944 38 32 16
7.260987 1.972120 22.410454 15 16 15
7.300845 1.970780 22.395229 36 37 44
7.339284 1.969076 22.375866 37 26 17
7.379369 1.967832 22.361725 40 38 30
7.417587 1.966107 22.342131 26 20 32
7.457463 1.964840 22.327732 35 42 22
7.497843 1.963721 22.315008 15 17 23
7.536732 1.962226 22.298023 36 32 37
7.577634 1.961270 22.287159 34 44 37
7.619970 1.960694 22.280615 36 15 40
7.665009 1.960816 22.282003 17 17 30
7.711710 1.961360 22.288179 34 33 38
7.758935 1.962029 22.295790 27 26 27
7.806067 1.962668 22.303049 20 21 40
7.848650 1.962163 22.297302 22 32 22
7.886789 1.960558 22.279064 23 18 30
7.923785 1.958689 22.257824 33 28 26
3.970907 2.030577 22.561972 15 18 35
4.007315 2.026170 22.513004 33 32 21
4.045454 2.022727 22.474743 31 36 15
4.083926 2.019524 22.439156 15 20 23
4.126148 2.018225 22.424717 27 44 21
4.170694 2.018078 22.423086 26 26 36
4.215416 2.018018 22.422426 15 39 41
4.261459 2.018586 22.428734 24 21 19
4.305525 2.018215 22.424608 15 19 31
4.348223 2.017217 22.413519 27 33 36
4.389415 2.015548 22.394974 21 26 40
4.429472 2.013396 22.371069 35 21 37
4.470464 2.011709 22.352318 23 35 32
4.509163 2.009033 22.322590 38 39 25
4.549117 2.006963 22.299591 28 32 23
4.588620 2.004737 22.274855 25 43 32
4.626383 2.001800 22.242228 21 34 20
4.666184 1.999793 22.219923 120 120 120
4.702754 1.996452 22.182802 120 120 120
4.739953 1.993438 22.149313 120 120 120
4.777718 1.990716 22.119066 30 35 40
4.815047 1.987864 22.087374 30 35 40
4.855769 1.986451 22.071678 30 35 40
4.898063 1.985701 22.063347 30 35 40
4.943107 1.986070 22.067440 30 35 40
4.989759 1.987072 22.078581 16 16 34
5.035559 1.987721 22.085785 36 41 25
5.080632 1.988073 22.089705 15 41 36
5.126374 1.988680 22.096439 30 35 40
5.171958 1.989215 22.102386 30 35 40
5.217530 1.989736 22.108177 30 35 40
5.263442 1.990377 22.115301 30 35 40
5.308755 1.990783 22.119814 30 35 40
5.353575 1.990999 22.122210 30 35 40
5.397443 1.990860 22.120668 30 35 40
5.440961 1.990595 22.117727 30 35 40
5.484758 1.990436 22.115959 30 35 40
5.528806 1.990370 22.115225 30 35 40
5.573770 1.990632 22.118135 30 35 40
5.619389 1.991122 22.123579 30 35 40
5.665284 1.991701 22.130016 30 35 40
5.711105 1.992246 22.136065 29 25 21
5.756235 1.992543 22.139366 35 17 31
5.800422 1.992512 22.139017 34 34 26
5.843683 1.992165 22.135162 36 28 36
5.886289 1.991601 22.128904 20 43 25
5.928904 1.991050 22.122776 39 30 32
5.972076 1.990692 22.118799 20 21 22
6.014690 1.990155 22.112829 22 36 36
6.057169 1.989581 22.106455 37 17 25
6.100429 1.989270 22.103004 28 38 19
6.144711 1.989295 22.103277 43 26 28
6.190010 1.989646 22.107180 33 32 17
6.237124 1.990572 22.117462 34 40 32
6.284095 1.991439 22.127096 33 42 20
6.332247 1.992665 22.140722 25 29 39
6.381775 1.994305 22.158939 20 18 16
6.430128 1.995557 22.172853 15 27 26
6.481768 1.997805 22.197836 23 23 32
6.532872 1.999859 22.220654 35 31 33
6.584093 2.001920 22.243559 22 31 42
6.636112 2.004195 22.268831 42 16 19
6.684929 2.005479 22.283098 36 19 20
6.734790 2.007057 22.300629 24 37 30
6.782474 2.007969 22.310768 19 38 37
6.829806 2.008766 22.319626 25 20 24
6.879251 2.010171 22.335232 25 31 40
6.927639 2.011250 22.347223 25 30 37
6.976797 2.012538 22.361530 23 23 16
7.024864 2.013496 22.372177 21 21 33
7.071301 2.013978 22.377535 21 18 40
7.116625 2.014139 22.379324 34 26 32
7.160173 2.013799 22.375540 42 19 16
7.201498 2.012841 22.364901 22 27 21
7.242781 2.011884 22.354263 19 29 20
7.282758 2.010577 22.339748 23 17 35
7.321143 2.008850 22.320557 38 31 35
7.361004 2.007547 22.306072 18 24 17
7.398899 2.005726 22.285839 33 34 18
7.438488 2.004383 22.270922 18 34 18
7.478537 2.003179 22.257549 36 33 27
7.517080 2.001589 22.239882 36 32 43
