ply
format ascii 1.0
element vertex 1236
property float x
property float y
property float z
property uchar red
property uchar green
property uchar blue
end_header
-17.271090 5.722965 51.097900 30 23 31
-17.157455 5.719152 51.063854 19 28 15
-17.043668 5.715242 51.028946 29 43 15
-16.940230 5.714776 51.024788 38 30 15
-16.844251 5.716837 51.043186 29 32 28
-16.759319 5.722694 51.095486 33 28 24
-16.675807 5.729112 51.152782 43 22 32
-16.595827 5.736829 51.221687 41 38 38
-16.516375 5.744826 51.293091 21 34 17
-16.427029 5.749460 51.334465 37 20 26
-16.352350 5.759318 51.422485 25 34 21
-16.277024 5.769072 51.509571 17 39 34
-16.203264 5.779508 51.602753 26 28 38
-16.134358 5.791821 51.712685 42 18 40
-16.052328 5.799551 51.781704 27 26 17
-15.971046 5.807653 51.854046 44 36 38
-15.876661 5.811066 51.884514 37 17 35
-15.778931 5.813290 51.904377 16 24 38
-15.690313 5.818924 51.954678 43 38 16
-15.598854 5.823572 51.996181 18 38 19
-15.509267 5.828986 52.044521 18 36 36
-15.412678 5.831824 52.069859 35 39 44
-15.315002 5.834286 52.091843 33 16 24
-15.222175 5.838643 52.130737 34 27 27
-15.126392 5.841917 52.159973 25 17 31
-15.034945 5.846923 52.204670 39 29 33
-14.940941 5.850998 52.241051 41 31 31
-14.845846 5.854700 52.274105 39 18 40
-14.752545 5.859167 52.313988 39 24 35
-14.654429 5.861772 52.337246 17 17 24
-14.553742 5.863378 52.351589 16 19 28
-14.451195 5.864253 52.359402 31 29 38
-14.341085 5.862049 52.339725 31 29 26
-14.223339 5.856669 52.291687 15 15 38
-14.103836 5.850480 52.236431 33 23 30
-13.972129 5.839099 52.134811 16 26 32
-13.846240 5.829996 52.053535 40 20 43
-13.714599 5.818315 51.949238 17 37 20
-13.571134 5.801401 51.798222 30 35 19
-13.436969 5.788233 51.680649 17 21 34
-13.288490 5.768647 51.505775 22 21 28
-13.149958 5.753107 51.367023 42 18 16
-13.014889 5.738849 51.239719 21 15 28
-12.875915 5.722629 51.094902 27 29 18
-12.753702 5.713659 51.014809 27 26 19
-12.627329 5.702665 50.916649 37 29 26
-12.511797 5.696428 50.860962 37 38 37
-12.397693 5.690745 50.810219 22 23 43
-12.276470 5.681672 50.729214 44 23 42
-12.161086 5.675174 50.671192 29 21 37
-12.027638 5.660065 50.536293 39 44 20
-11.896422 5.645760 50.408569 37 28 15
-11.758505 5.628003 50.250023 30 35 40
-11.609367 5.604522 50.040375 30 35 40
-11.474007 5.587342 49.886986 30 35 40
-11.325039 5.563177 49.671223 30 35 40
-11.190499 5.545734 49.515484 30 35 40
-11.058607 5.529304 49.368782 30 35 40
-10.914947 5.506640 49.166428 30 35 40
-10.786397 5.491257 49.029079 30 35 40
-10.661607 5.477523 48.906452 30 35 40
-10.552856 5.471851 48.855816 30 35 40
-10.456825 5.472731 48.863667 30 35 40
-10.362772 5.474672 48.881001 120 120 120
-10.273405 5.479149 48.920975 32 38 18
-10.192427 5.488230 49.002052 30 40 25
-10.104791 5.493867 49.052383 40 20 40
-10.027486 5.505286 49.154343 29 15 25
-9.970779 5.528353 49.360291 21 27 35
-9.911816 5.550617 49.559082 18 30 33
-9.866130 5.580841 49.828938 38 35 23
-9.804008 5.602290 50.020451 23 20 39
-9.737216 5.621486 50.191837 39 40 29
-9.675551 5.644071 50.393494 28 31 17
-9.595696 5.656410 50.503662 40 16 35
-9.533206 5.679357 50.708542 19 25 27
-9.467283 5.700730 50.899372 33 38 43
-9.401018 5.722359 51.092487 36 38 19
-9.338535 5.746791 51.310631 19 33 40
-9.258419 5.760794 51.435661 38 42 23
-9.190204 5.782600 51.630360 29 30 44
-9.116322 5.801296 51.797283 31 28 41
-9.037779 5.817421 51.941257 28 38 22
-8.959825 5.834305 52.092007 29 29 15
-8.867389 5.842044 52.161110 35 28 30
-8.775060 5.850040 52.232498 42 28 20
-8.676058 5.853726 52.265408 38 16 27
-8.573747 5.855242 52.278942 24 18 39
-8.474504 5.858916 52.311752 21 26 39
-8.373235 5.861264 52.332718 37 31 17
-8.273502 5.864761 52.363937 44 35 29
-8.171997 5.867075 52.384598 40 18 39
-8.070996 5.869815 52.409065 29 23 27
-7.971601 5.873811 52.444744 37 42 17
-7.870639 5.876744 52.470924 27 24 42
-7.776365 5.884817 52.543007 29 23 24
-7.682409 5.893355 52.619240 19 31 27
-7.590325 5.903586 52.710590 23 36 23
-7.500144 5.915607 52.817917 30 42 28
-7.404356 5.923485 52.888260 17 33 28
-7.314430 5.936349 53.003113 18 27 38
-7.223201 5.948518 53.111771 24 18 18
-7.128725 5.958338 53.199444 34 32 30
-7.031805 5.966380 53.271248 40 31 32
-6.927323 5.968155 53.287102 36 27 17
-6.818105 5.965842 53.266445 26 32 22
-6.704386 5.959455 53.209415 24 19 33
-6.590308 5.952536 53.147644 25 34 26
-6.480645 5.949444 53.120037 40 23 16
-18.391787 5.922779 51.954201 28 34 44
-18.150008 5.878128 51.562523 44 33 41
-17.945452 5.845090 51.272720 24 33 22
-17.734244 5.809494 50.960472 43 17 36
-17.568046 5.788316 50.774700 42 43 41
-17.437035 5.778552 50.689056 35 33 25
-17.319036 5.773012 50.640457 23 36 39
-17.233463 5.778279 50.686657 41 20 33
-17.136849 5.779884 50.700737 32 29 30
-17.022356 5.775442 50.661774 43 24 27
-16.908564 5.771187 50.624443 15 34 21
-16.805113 5.770430 50.617809 40 16 30
-16.709844 5.772492 50.635891 23 43 28
-16.626347 5.778669 50.690083 24 21 31
-16.544984 5.785669 50.751484 40 40 34
-16.467014 5.793949 50.824116 36 42 17
-16.388609 5.802178 50.896301 42 35 39
-16.299473 5.806687 50.935852 28 23 24
-16.225084 5.816540 51.022278 28 19 37
-16.150413 5.826415 51.108902 25 19 25
-16.077489 5.837050 51.202194 37 27 34
-16.009636 5.849675 51.312935 17 16 24
-15.928784 5.857682 51.383175 33 16 40
-15.848299 5.865929 51.455517 22 16 19
-15.754120 5.869182 51.484051 33 25 28
-15.656696 5.871261 51.502289 31 30 16
-15.568960 5.877025 51.552849 30 42 33
-15.478813 5.881949 51.596043 18 44 31
-15.391050 5.887851 51.647820 33 28 36
-15.296387 5.891176 51.676983 40 35 39
-15.200508 5.894074 51.702408 16 33 24
-15.109097 5.898757 51.743484 32 21 22
-15.014136 5.902109 51.772884 36 32 37
-14.923612 5.907263 51.818096 39 16 40
-14.830548 5.911477 51.855064 25 20 36
-14.736481 5.915348 51.889019 30 38 31
-14.644304 5.920038 51.930157 31 28 33
-14.547272 5.922818 51.954544 18 29 37
-14.447951 5.924699 51.971046 43 39 37
-14.346539 5.925744 51.980213 28 31 18
-14.237870 5.923785 51.963028 17 30 30
-14.122163 5.918848 51.919716 30 20 42
-14.004563 5.913038 51.868752 38 19 17
-13.875260 5.902163 51.773357 19 43 20
-13.751159 5.893354 51.696087 18 19 27
-13.621417 5.881975 51.596275 26 39 37
-13.480515 5.865568 51.452347 43 26 30
-13.348514 5.852810 51.340439 37 24 43
-13.202635 5.833722 51.173004 28 20 30
-13.066127 5.818510 51.039558 27 36 22
-12.932886 5.804524 50.916874 31 15 37
-12.795825 5.788588 50.777084 29 43 37
-12.674865 5.779738 50.699459 35 37 42
-12.550329 5.769103 50.606167 16 20 26
-12.436588 5.763297 50.555237 40 34 20
-12.324239 5.758046 50.509174 39 26 35
-12.204668 5.749307 50.432514 24 37 42
-12.090349 5.742916 50.376453 42 15 28
-11.958494 5.728018 50.245773 34 22 35
-11.828792 5.713908 50.122002 19 36 30
-11.692573 5.696382 49.968262 30 35 40
-11.545648 5.673293 49.765724 30 35 40
-11.412094 5.656429 49.617798 30 35 40
-11.265032 5.632516 49.408035 30 35 40
-11.131837 5.615174 49.255917 30 35 40
-11.000923 5.598684 49.111263 30 35 40
-10.858327 5.575898 48.911385 30 35 40
-10.730468 5.560333 48.774853 30 35 40
-10.605949 5.546230 48.651142 30 35 40
-10.497357 5.540272 48.598873 30 35 40
-10.400966 5.540702 48.602646 30 35 40
-10.305973 5.541891 48.613079 120 120 120
-10.215811 5.545726 48.646721 36 27 23
-10.133262 5.553807 48.717606 33 31 20
-10.044512 5.558613 48.759766 37 43 21
-9.966074 5.569277 48.853306 15 23 39
-9.907834 5.591550 49.048683 34 40 35
-9.848097 5.613415 49.240486 17 19 20
-9.801261 5.643150 49.501320 18 20 24
-9.738535 5.664250 49.686401 26 43 23
-9.671470 5.683235 49.852936 37 20 15
-9.609437 5.705603 50.049149 28 16 15
-9.529817 5.717890 50.156933 42 24 38
-9.467306 5.740813 50.358013 40 16 36
-9.401448 5.762178 50.545418 27 32 28
-9.335364 5.783867 50.735676 18 37 36
-9.273077 5.808411 50.950974 22 23 44
-9.193512 5.822558 51.075069 17 31 31
-9.125839 5.844638 51.268757 42 43 16
-9.052427 5.863504 51.434246 32 40 17
-8.974679 5.879962 51.578613 42 41 23
-8.897908 5.897451 51.732025 17 32 16
-8.806829 5.905756 51.804878 21 44 44
-8.716343 5.914661 51.882996 31 29 16
-8.619100 5.919141 51.922287 26 18 41
-8.518439 5.921354 51.941704 21 15 15
-8.420595 5.925604 51.978981 40 38 41
-8.320134 5.928095 52.000835 28 35 39
-8.221506 5.931973 52.034851 17 40 16
-8.121244 5.934755 52.059258 29 33 35
-8.021367 5.937895 52.086800 42 24 31
-7.922904 5.942178 52.124367 16 29 36
-7.822547 5.945136 52.150314 29 22 25
-7.728784 5.953252 52.221512 21 33 26
-7.635285 5.961798 52.296474 33 26 37
-7.543712 5.972106 52.386890 43 28 33
-7.454289 5.984429 52.494991 27 24 16
-7.359396 5.992651 52.567112 42 18 28
-7.270173 6.005795 52.682411 32 19 39
-7.178821 6.017541 52.785450 44 26 37
-7.085072 6.027599 52.873672 44 30 33
-6.991108 6.037775 52.962936 24 20 15
-6.890313 6.042274 53.002407 43 30 24
-6.784371 6.042330 53.002895 24 31 18
-6.672041 6.036608 52.952705 22 20 18
-6.558576 6.029659 52.891743 42 36 40
-6.449855 6.026914 52.867664 15 35 19
-18.214012 5.968433 51.452011 22 42 22
-17.984039 5.926558 51.091019 23 36 39
-17.792744 5.897024 50.836411 30 31 38
-17.598036 5.866012 50.569069 34 29 36
-17.445969 5.848937 50.421875 18 31 29
-17.322978 5.841469 50.357494 23 42 26
-17.203861 5.835228 50.303688 27 32 42
-17.109115 5.837227 50.320927 22 31 15
-17.005951 5.836362 50.313465 17 22 34
-16.892251 5.831848 50.274555 17 26 27
-16.781055 5.828151 50.242680 25 21 17
-16.677528 5.827088 50.233517 30 16 36
-16.581485 5.828643 50.246925 42 24 28
-16.498172 5.834719 50.299305 39 38 42
-16.418361 5.842116 50.363071 25 32 25
-16.342412 5.850987 50.439545 15 43 24
-16.265506 5.859623 50.513992 38 32 18
-16.177334 5.864284 50.554169 18 38 27
-16.104037 5.874428 50.641624 25 25 32
-16.030440 5.884592 50.729240 27 31 40
-15.958465 5.895484 50.823135 41 17 36
-15.891693 5.908450 50.934914 33 31 24
-15.811805 5.916675 51.005821 22 35 35
-15.731536 5.924864 51.076416 18 26 30
-15.636968 5.927740 51.101204 28 24 27
-15.539045 5.929372 51.115280 32 17 28
-15.451316 5.934943 51.163300 22 28 37
-15.361860 5.939919 51.206200 29 23 25
-15.275141 5.946028 51.258862 18 32 40
-15.181709 5.949589 51.289558 38 26 30
-15.087277 5.952803 51.317268 34 43 18
-14.997088 5.957747 51.359890 40 39 16
-14.903059 5.961224 51.389858 16 32 37
-14.814138 5.966806 51.437981 36 15 34
-14.722941 5.971542 51.478813 33 35 37
-14.630844 5.975978 51.517056 25 29 39
-14.540507 5.981201 51.562080 34 39 37
-14.444731 5.984246 51.588326 38 30 32
-14.346855 5.986457 51.607391 32 42 27
-14.246573 5.987690 51.618019 23 24 32
-14.139189 5.985934 51.602879 21 22 32
-14.025385 5.981414 51.563915 27 17 19
-13.909619 5.975985 51.517109 33 41 33
-13.782578 5.965593 51.427528 17 16 37
-13.660187 5.957074 51.354088 32 27 43
-13.532292 5.946007 51.258682 34 28 29
-13.393922 5.930134 51.121841 36 31 29
-13.264035 5.917800 51.015518 30 35 40
-13.120751 5.899253 50.855625 23 23 37
-12.986217 5.884379 50.727409 43 32 40
-12.854752 5.870674 50.609261 37 17 32
-12.719636 5.855071 50.474747 42 16 23
-12.599980 5.846391 50.399921 40 23 36
-12.477263 5.836139 50.311546 17 30 31
-12.365260 5.830773 50.265285 31 27 44
-12.254612 5.825963 50.223820 16 21 22
-12.136746 5.817614 50.151844 16 19 38
-12.023552 5.811383 50.098133 37 35 24
-11.893585 5.796873 49.973045 29 25 34
-11.765658 5.783120 49.854485 30 35 40
-11.631533 5.766059 49.707405 30 35 40
-11.487316 5.743658 49.514294 30 35 40
-11.355965 5.727356 49.373760 30 35 40
-11.211565 5.704130 49.173531 30 35 40
-11.080370 5.687270 49.028187 30 35 40
-10.951074 5.671092 48.888721 30 35 40
-10.810298 5.648624 48.695034 30 35 40
-10.683569 5.633154 48.561676 30 35 40
-10.559811 5.618982 48.439499 30 35 40
-10.451652 5.612924 48.387276 30 35 40
-10.354985 5.612982 48.387779 30 35 40
-10.259165 5.613505 48.392288 30 35 40
-10.168136 5.616684 48.419693 31 17 29
-10.083799 5.623657 48.479805 27 38 29
-9.993657 5.627496 48.512897 19 18 35
-9.913702 5.637203 48.596577 35 40 28
-9.853436 5.658409 48.779388 22 19 22
-9.792520 5.679662 48.962601 38 42 29
-9.744080 5.708653 49.212524 33 27 20
-9.680559 5.729310 49.390606 22 35 36
-9.612951 5.747950 49.551296 23 35 18
-9.549959 5.769767 49.739372 40 37 35
-9.470005 5.781687 49.842133 40 39 18
-9.406647 5.804101 50.035355 21 32 37
-9.340193 5.825067 50.216091 24 41 37
-9.273667 5.846442 50.400364 28 31 34
-9.210803 5.870622 50.608807 41 39 34
-9.131276 5.884600 50.729313 30 30 39
-9.063419 5.906498 50.918083 34 38 23
-8.989896 5.925159 51.078957 42 24 40
-8.912436 5.941624 51.220898 23 23 26
-8.836422 5.959447 51.374546 38 40 37
-8.746553 5.968236 51.450310 16 16 24
-8.657682 5.977923 51.533821 37 22 16
-8.562028 5.983104 51.578484 44 39 21
-8.462936 5.985979 51.603268 24 15 34
-8.366464 5.990801 51.644836 29 29 18
-8.266908 5.993508 51.668175 43 28 33
-8.169593 5.997929 51.706284 43 15 17
-8.070789 6.001356 51.735828 34 17 39
-7.972286 6.005098 51.768089 23 19 39
-7.874989 6.009860 51.809139 27 39 17
-7.775368 6.012951 51.835789 26 19 17
-7.682379 6.021324 51.907967 44 17 31
-7.589587 6.030083 51.983475 19 41 36
-7.498763 6.040670 52.074741 22 38 33
-7.410342 6.053519 52.185505 19 17 43
-7.316458 6.062208 52.260414 18 23 15
-7.228061 6.075762 52.377254 25 43 20
-7.136712 6.087196 52.475826 16 35 25
-7.043625 6.097467 52.564369 17 29 19
-6.952279 6.109578 52.668777 27 26 39
-6.854683 6.116487 52.728333 24 21 15
-6.751617 6.118653 52.747005 38 42 31
-6.640544 6.113516 52.702728 41 17 15
-6.527617 6.106480 52.642071 27 31 24
-6.419652 6.103932 52.620102 32 36 38
-17.998608 5.999536 50.843525 19 27 42
-17.782288 5.961108 50.517864 19 33 22
-17.605697 5.935635 50.301991 16 31 36
-17.429375 5.909961 50.084412 36 34 22
-17.292828 5.897554 49.979271 24 31 15
-17.179051 5.892814 49.939102 20 20 41
-17.060604 5.886407 49.884808 26 15 17
-16.958093 5.885456 49.876743 37 35 17
-16.847475 5.881663 49.844601 37 15 34
-16.731654 5.875997 49.796589 22 29 23
-16.619450 5.871542 49.758831 30 23 15
-16.512984 5.869073 49.737904 39 44 29
-16.415089 5.869638 49.742695 34 25 34
-16.330692 5.875066 49.788696 20 23 17
-16.251774 5.882544 49.852066 15 44 34
-16.177706 5.891880 49.931190 36 39 28
-16.102205 5.900808 50.006847 34 19 28
-16.015337 5.905655 50.047928 39 22 17
-15.943680 5.916208 50.137360 23 35 43
-15.871690 5.926770 50.226868 34 15 16
-15.801476 5.938134 50.323174 38 15 20
-15.736899 5.951776 50.438778 30 44 24
-15.659029 5.960534 50.512997 40 23 32
-15.580133 5.969012 50.584846 33 38 16
-15.485869 5.971675 50.607414 24 19 17
-15.388087 5.973007 50.618706 26 27 29
-15.301206 5.978617 50.666245 22 44 35
-15.213080 5.983811 50.710266 35 40 27
-15.127572 5.990112 50.763664 33 42 18
-15.034972 5.993671 50.793823 21 38 41
-14.941499 5.996928 50.821426 30 35 40
-14.852451 6.002018 50.864559 43 43 17
-14.759634 6.005644 50.895290 35 15 23
-14.673728 6.012152 50.950443 42 18 26
-14.586514 6.018212 51.001797 30 23 36
-14.498548 6.024044 51.051224 22 16 27
-14.411642 6.030403 51.105114 40 19 27
-14.317605 6.033848 51.134304 30 17 33
-14.221790 6.036587 51.157516 22 16 29
-14.123151 6.038159 51.170837 18 36 15
-14.017446 6.036710 51.158562 29 40 41
-13.906150 6.032815 51.125553 42 39 19
-13.792675 6.027910 51.083981 44 16 44
-13.668244 6.018108 51.000912 29 35 26
-13.547694 6.009879 50.931179 37 41 35
-13.421628 5.999061 50.839500 30 35 40
-13.285768 5.983666 50.709038 30 35 40
-13.158012 5.971713 50.607738 30 35 40
-13.017178 5.953593 50.454178 30 35 40
-12.884562 5.938978 50.330318 30 35 40
-12.754769 5.925444 50.215626 21 35 18
-12.621444 5.910041 50.085094 16 36 28
-12.503050 5.901440 50.012199 30 27 24
-12.382238 5.891549 49.928379 42 24 20
-12.272151 5.886641 49.886791 25 28 41
-12.163503 5.882350 49.850422 35 34 32
-12.047634 5.874466 49.783611 36 43 31
-11.935844 5.868456 49.732681 34 17 37
-11.808340 5.854555 49.614872 19 35 20
-11.682761 5.841380 49.503223 26 24 21
-11.551506 5.825118 49.365410 30 35 40
-11.410979 5.803860 49.185253 30 35 40
-11.282587 5.788458 49.054726 30 35 40
-11.141943 5.766444 48.868172 30 35 40
-11.013603 5.750465 48.732758 30 35 40
-10.886848 5.735036 48.602001 30 35 40
-10.748979 5.713421 48.418823 30 35 40
-10.624143 5.698404 48.291561 30 35 40
-10.502028 5.684584 48.174438 30 35 40
-10.394931 5.678712 48.124680 30 35 40
-10.298489 5.678606 48.123779 30 35 40
-10.202366 5.678675 48.124367 120 120 120
-10.110738 5.681272 48.146370 42 38 23
-10.024869 5.687186 48.196487 33 27 24
-9.933462 5.690041 48.220688 40 29 36
-9.851997 5.698704 48.294102 29 28 38
-9.789679 5.718723 48.463757 29 37 37
-9.727567 5.739264 48.637833 16 29 35
-9.677454 5.767372 48.876030 39 33 36
-9.613111 5.787485 49.046486 18 39 26
-9.544926 5.805677 49.200649 33 20 23
-9.480900 5.826803 49.379688 15 25 44
-9.400595 5.838265 49.476818 35 42 23
-9.336151 5.859925 49.660378 27 18 37
-9.268874 5.880254 49.832657 35 43 43
-9.201565 5.901003 50.008503 15 40 26
-9.137685 5.924433 50.207062 27 22 37
-9.057914 5.937966 50.321743 23 26 43
-8.989259 5.959172 50.501457 34 27 17
-8.915162 5.977211 50.654331 43 29 28
-8.837461 5.993221 50.790009 44 39 18
-8.761435 6.010752 50.938576 16 18 32
-8.672289 6.019589 51.013466 18 40 43
-8.584396 6.029516 51.097595 30 27 15
-8.489997 6.035058 51.144562 25 16 26
-8.392189 6.038282 51.171883 43 36 44
-8.296591 6.043196 51.213524 42 19 27
-8.197635 6.045756 51.235222 23 17 19
-8.101328 6.050359 51.274227 41 44 27
-8.003939 6.054262 51.307304 15 19 27
-7.906918 6.058547 51.343620 43 36 40
-7.810860 6.063694 51.387238 32 31 15
-7.712146 6.066888 51.414307 23 32 16
-7.620067 6.075459 51.486938 38 27 28
-7.528098 6.084353 51.562313 37 16 35
-7.438146 6.095147 51.653790 38 29 20
-7.350906 6.108499 51.766941 18 41 16
-7.258285 6.117697 51.844891 37 42 39
-7.170815 6.131566 51.962425 23 17 16
-7.079399 6.142420 52.054405 22 22 39
-6.987007 6.152738 52.141846 19 39 36
-6.898701 6.167021 52.262886 44 40 25
-6.804965 6.176814 52.345882 17 16 18
-6.705273 6.181424 52.384945 34 16 43
-6.595655 6.176883 52.346470 19 20 40
-6.483374 6.169662 52.285275 22 27 25
-6.376383 6.167322 52.265438 40 17 28
-17.869500 6.057458 50.478813 20 23 42
-17.662446 6.021288 50.177402 22 20 33
-17.495876 5.998586 49.988216 25 26 43
-17.330883 5.976167 49.801388 34 28 18
-17.202904 5.966325 49.719376 44 19 31
-17.093378 5.962806 49.690052 35 36 29
-16.974302 5.955895 49.632462 26 24 44
-16.866549 5.952900 49.607498 21 19 34
-16.750308 5.946855 49.557125 24 20 35
-16.632170 5.940061 49.500507 41 19 32
-16.518134 5.934659 49.455490 36 39 17
-16.408264 5.930698 49.422482 21 29 22
-16.308068 5.930207 49.418388 22 16 20
-16.221775 5.934796 49.456631 23 22 23
-16.142607 5.942064 49.517200 33 43 17
-16.069417 5.951636 49.596966 22 42 43
-15.994737 5.960771 49.673096 31 40 32
-15.909047 5.965892 49.715771 34 23 29
-15.838899 5.976943 49.807858 25 43 44
-15.768229 5.987935 49.899460 44 35 17
-15.699491 5.999805 49.998379 34 34 43
-15.636777 6.014145 50.117874 25 41 37
-15.560518 6.023427 50.195221 21 21 17
-15.482805 6.032262 50.268848 25 28 39
-15.388960 6.034886 50.290718 15 32 41
-15.291318 6.036047 50.300388 18 26 16
-15.205057 6.041744 50.347870 17 26 42
-15.117781 6.047113 50.392605 43 22 42
-15.032674 6.053426 50.445213 30 35 40
-14.939951 6.056737 50.472809 30 35 40
-14.846480 6.059788 50.498230 30 35 40
-14.757861 6.064874 50.540619 30 35 40
-14.665874 6.068638 50.571980 30 35 40
-14.582726 6.076136 50.634464 37 32 19
-14.499337 6.083638 50.696983 22 30 34
-14.415351 6.090993 50.758278 30 30 35
-14.331536 6.098526 50.821049 40 25 43
-14.238764 6.102328 50.852730 15 15 32
-14.144464 6.105524 50.879368 34 27 31
-14.046954 6.107371 50.894760 16 27 30
-13.942328 6.106129 50.884407 42 23 36
-13.832697 6.102660 50.855503 15 39 40
-13.720692 6.098085 50.817379 17 31 44
-13.597765 6.088552 50.737930 18 25 31
-13.478197 6.080390 50.669914 30 35 40
-13.353000 6.069545 50.579544 30 35 40
-13.218352 6.054207 50.451725 30 35 40
-13.091652 6.042301 50.352509 30 35 40
-12.951955 6.024165 50.201374 30 35 40
-12.820216 6.009476 50.078968 30 35 40
-12.691198 5.995842 49.965347 30 35 40
-12.558646 5.980307 49.835896 23 32 23
-12.440871 5.971618 49.763485 23 39 44
-12.321060 5.961803 49.681694 22 28 31
-12.212026 5.957086 49.642384 34 26 26
-12.104534 5.953049 49.608746 44 32 21
-11.989910 5.945410 49.545082 20 18 41
-11.879012 5.939506 49.495884 34 18 36
-11.753247 5.926007 49.383392 43 25 37
-11.629380 5.913244 49.277035 39 40 42
-11.500246 5.897562 49.146351 30 35 40
-11.362441 5.877125 48.976040 30 35 40
-11.236218 5.862375 48.853123 30 35 40
-11.098523 5.841328 48.677734 30 35 40
-10.972502 5.826107 48.550892 30 35 40
-10.847902 5.811376 48.428135 30 35 40
-10.712582 5.790585 48.254875 30 35 40
-10.589383 5.776027 48.133560 30 35 40
-10.468916 5.762706 48.022549 30 35 40
-10.362914 5.757175 47.976456 30 35 40
-10.266933 5.757159 47.976322 30 35 40
-10.171066 5.757207 47.976727 120 120 120
-10.079309 5.759605 47.996708 24 26 16
-9.992715 5.765028 48.041897 25 30 27
-9.900620 5.767352 48.061264 30 21 15
-9.818243 5.775437 48.128643 34 35 16
-9.754675 5.794856 48.290470 37 27 27
-9.691773 5.815064 48.458866 23 23 16
-9.640556 5.842761 48.689678 30 17 24
-9.575712 5.862681 48.855675 16 27 17
-9.507123 5.880695 49.005791 40 21 36
-9.442266 5.901416 49.178471 16 40 18
-9.361523 5.912541 49.271172 32 44 34
-9.296031 5.933637 49.446972 42 25 22
-9.227912 5.953492 49.612431 31 15 41
-9.159718 5.973729 49.781078 28 25 15
-9.094710 5.996512 49.970932 32 34 26
-9.014404 6.009603 50.080021 27 23 33
-8.944670 6.030114 50.250954 32 18 24
-8.869715 6.047533 50.396111 21 24 40
-8.791344 6.062996 50.524967 31 44 20
-8.714628 6.079973 50.666443 39 36 44
-8.625486 6.088578 50.738152 19 41 38
-8.537590 6.098279 50.818989 39 25 28
-8.443551 6.103772 50.864765 35 17 25
-8.346179 6.106960 50.891335 25 25 22
-8.250692 6.111623 50.930195 37 34 23
-8.151870 6.113902 50.949184 44 40 36
-8.055974 6.118461 50.987175 22 35 39
-7.959381 6.122601 51.021675 18 33 31
-7.863287 6.127236 51.060303 41 30 26
-7.768016 6.132644 51.105370 18 32 44
-7.669936 6.135948 51.132904 34 16 34
-7.578533 6.144756 51.206303 19 37 37
-7.487147 6.153820 51.281830 39 40 18
-7.397835 6.164863 51.373856 29 30 32
-7.311420 6.178665 51.488876 22 42 30
-7.219648 6.188270 51.568913 34 42 19
-7.132758 6.202398 51.686653 16 36 31
-7.041311 6.212922 51.774349 17 31 41
-6.949284 6.223239 51.860325 31 26 42
-6.862656 6.238778 51.989815 39 40 33
-6.771106 6.250252 52.085430 36 29 30
-6.673310 6.256228 52.135235 34 17 43
-6.564494 6.251899 52.099159 25 16 18
-6.452583 6.244435 52.036957 25 32 30
-6.346141 6.242106 52.017548 34 30 36
-17.701080 6.100372 50.003052 25 33 27
-17.505473 6.067238 49.731457 27 41 26
-17.348055 6.047036 49.565872 16 42 16
-17.192227 6.027160 49.402950 17 20 40
-17.070545 6.019094 49.336834 15 43 23
-16.962652 6.015824 49.310036 29 15 27
-16.840699 6.007501 49.241810 20 40 34
-16.726828 6.001979 49.196552 43 24 29
-16.603636 5.993028 49.123184 24 31 16
-16.482278 5.984637 49.054398 36 30 19
-16.365766 5.977914 48.999298 40 19 26
-16.251665 5.971997 48.950798 28 37 28
-16.148856 5.970183 48.935928 20 21 31
-16.060666 5.973784 48.965446 27 20 17
-15.981680 5.980874 49.023560 29 26 40
-15.910255 5.990898 49.105724 37 33 20
-15.837666 6.000606 49.185299 28 44 37
-15.754419 6.006372 49.232559 32 15 29
-15.687274 6.018388 49.331051 24 39 41
-15.619006 6.030123 49.427235 44 22 28
-15.552583 6.042723 49.530518 40 22 29
-15.492719 6.058050 49.656151 31 44 27
-15.418713 6.068010 49.737785 17 15 19
-15.342701 6.077304 49.813965 38 32 28
-15.249422 6.079835 49.834713 37 16 17
-15.152023 6.080746 49.842182 29 29 20
-15.066689 6.086543 49.889698 19 18 20
-14.980674 6.092141 49.935581 30 35 40
-14.896466 6.098553 49.988140 30 35 40
-14.803914 6.101613 50.013222 30 35 40
-14.710981 6.104557 50.037350 30 35 40
-14.623801 6.109944 50.081509 30 35 40
-14.533743 6.114195 50.116356 30 35 40
-14.454155 6.122941 50.188038 30 35 40
-14.374704 6.131867 50.261204 21 33 20
-14.294783 6.140717 50.333744 29 35 28
-14.214701 6.149623 50.406742 38 21 15
-14.124056 6.154053 50.443058 30 33 23
-14.031972 6.157916 50.474720 36 29 44
-13.935971 6.160103 50.492649 26 39 29
-13.832586 6.159035 50.483891 29 23 33
-13.724547 6.155863 50.457893 28 39 20
-13.613859 6.151447 50.421700 20 16 23
-13.492794 6.142242 50.346245 31 25 30
-13.374897 6.134351 50.281567 30 35 40
-13.251680 6.123883 50.195759 30 35 40
-13.119815 6.109227 50.075630 30 35 40
-12.995539 6.097907 49.982841 30 35 40
-12.858603 6.080425 49.839546 30 35 40
-12.728679 6.066011 49.721401 30 35 40
-12.601326 6.052605 49.611519 30 35 40
-12.471016 6.037555 49.488159 28 36 28
-12.354978 6.029229 49.419910 35 39 16
-12.237697 6.020157 49.345551 18 31 27
-12.130909 6.016142 49.312637 27 26 16
-12.025752 6.012876 49.285870 36 35 35
-11.913664 6.006062 49.230015 31 18 29
-11.804528 6.000635 49.185532 44 15 29
-11.681738 5.988118 49.082932 19 19 39
-11.560560 5.976222 48.985424 24 40 42
-11.434544 5.961600 48.865574 30 35 40
-11.300685 5.942602 48.709850 30 35 40
-11.177467 5.928917 48.597683 30 35 40
-11.043904 5.909457 48.438175 30 35 40
-10.921169 5.895498 48.323757 30 35 40
-10.799610 5.881930 48.212543 30 35 40
-10.667814 5.862492 48.053215 30 35 40
-10.546874 5.848721 47.940338 30 35 40
-10.428598 5.836188 47.837605 30 35 40
-10.324023 5.831161 47.796402 30 35 40
-10.228535 5.831221 47.796890 30 35 40
-10.132687 5.831074 47.795692 120 120 120
-10.040447 5.833022 47.811653 41 30 17
-9.952389 5.837459 47.848026 26 17 44
-9.858979 5.838813 47.859123 23 37 16
-9.774895 5.845771 47.916153 43 44 22
-9.709029 5.863869 48.064499 43 18 28
-9.644599 5.883205 48.222996 17 44 33
-9.591275 5.909775 48.440781 25 38 17
-9.525254 5.928984 48.598232 44 17 17
-9.455662 5.946344 48.740524 29 25 31
-9.389288 5.966110 48.902542 24 42 41
-9.307763 5.976564 48.988228 19 31 31
-9.240503 5.996497 49.151611 27 18 37
-9.170971 6.015368 49.306297 44 25 17
-9.101255 6.034528 49.463341 43 40 26
-9.034233 6.055915 49.638645 40 40 28
-8.952875 6.068060 49.738194 34 31 37
-8.881159 6.087087 49.894154 43 31 28
-8.804713 6.103267 50.026779 20 32 32
-8.725101 6.117599 50.144257 22 15 19
-8.647012 6.133345 50.273323 31 19 19
-8.557554 6.141303 50.338551 40 26 15
-8.469188 6.150244 50.411835 40 27 15
-8.375237 6.155295 50.453236 32 42 41
-8.278175 6.158155 50.476677 18 18 44
-8.182623 6.162222 50.510017 23 21 31
-8.084022 6.164067 50.525139 28 17 36
-7.988506 6.168340 50.560165 36 40 27
-7.892748 6.172533 50.594536 22 18 17
-7.797662 6.177368 50.634167 20 37 19
-7.703187 6.182821 50.678860 40 36 44
-7.605860 6.186100 50.705734 27 39 33
-7.515257 6.195009 50.778763 32 36 41
-7.424756 6.204248 50.854492 33 25 40
-7.336377 6.215541 50.947060 24 40 35
-7.250984 6.229719 51.063271 19 21 40
-7.160249 6.239645 51.144634 42 43 22
-7.074111 6.253924 51.261673 32 16 20
-6.982809 6.263991 51.344185 20 24 31
-6.891420 6.274278 51.428509 43 26 27
-6.806939 6.291262 51.567719 21 37 31
-6.718140 6.304716 51.677998 41 33 23
-6.622736 6.312295 51.740124 39 25 32
-6.515054 6.308227 51.706779 37 20 18
-6.403799 6.300512 51.643539 42 34 43
-6.298300 6.298300 51.625408 26 18 22
-17.587880 6.160726 49.683277 23 41 15
-17.398838 6.129136 49.428516 39 17 43
-17.243093 6.108981 49.265980 21 38 19
-17.088107 6.088866 49.103756 34 21 38
-16.967104 6.080696 49.037872 19 25 26
-16.857846 6.076666 49.005367 15 30 26
-16.732184 6.066640 48.924515 44 43 39
-16.614263 6.059319 48.865479 33 19 24
-16.486274 6.048219 48.775959 32 41 44
-16.362368 6.038493 48.697525 41 29 15
-16.244130 6.030755 48.635120 21 42 26
-16.127247 6.023430 48.576046 24 42 36
-16.022975 6.020754 48.554470 15 35 40
-15.934313 6.023948 48.580223 17 38 18
-15.856219 6.031200 48.638710 15 30 25
-15.787064 6.041963 48.725506 23 18 24
-15.717317 6.052631 48.811543 25 32 34
-15.636848 6.059279 48.865150 43 37 15
-15.573179 6.072560 48.972260 35 28 17
-15.507569 6.085249 49.074585 38 26 42
-15.443636 6.098761 49.183556 39 44 31
-15.386725 6.115237 49.316425 32 37 37
-15.314812 6.125925 49.402618 39 33 38
-15.240592 6.135823 49.482441 33 19 30
-15.148016 6.138412 49.503319 23 16 40
-15.051084 6.139258 49.510143 26 44 29
-14.967102 6.145433 49.559940 24 34 17
-14.882624 6.151484 49.608746 30 35 40
-14.799664 6.158250 49.663303 30 35 40
-14.707445 6.161227 49.687313 30 35 40
-14.615022 6.164159 49.710960 30 35 40
-14.529494 6.170059 49.758541 30 35 40
-14.441423 6.174953 49.798012 30 35 40
-14.364314 6.184635 49.876091 30 35 40
-14.286727 6.194245 49.953590 34 25 36
-14.208664 6.203783 50.030506 29 42 32
-14.130946 6.213607 50.109737 42 19 28
-14.042138 6.218661 50.150494 40 44 20
-13.951784 6.223098 50.186272 38 35 15
-13.856791 6.225515 50.205765 30 27 15
-13.753981 6.224429 50.197010 43 25 34
-13.646315 6.221114 50.170277 23 25 41
-13.535747 6.216417 50.132397 38 32 24
-13.415535 6.207188 50.057968 30 35 40
-13.298825 6.199452 49.995583 30 35 40
-13.177469 6.189417 49.914654 30 35 40
-13.048216 6.175492 49.802353 30 35 40
-12.926363 6.164881 49.716782 30 35 40
-12.792153 6.148167 49.581989 30 35 40
-12.663933 6.134092 49.468487 30 35 40
-12.538200 6.121011 49.362991 30 35 40
-12.410208 6.106610 49.246857 30 35 40
-12.296041 6.098837 49.184166 19 27 15
-12.181374 6.090687 49.118443 28 42 34
-12.076708 6.087446 49.092308 30 40 32
-11.973684 6.084987 49.072475 35 19 40
-11.863950 6.079049 49.024586 33 30 21
-11.756379 6.074129 48.984913 29 30 16
-11.636091 6.062501 48.891140 41 22 39
-11.517029 6.051321 48.800972 40 27 44
-11.393353 6.037503 48.689541 40 42 19
-11.262467 6.019594 48.545116 30 35 40
-11.141411 6.006674 48.440918 30 35 40
-11.010910 5.988390 48.293465 30 35 40
-10.890640 5.975395 48.188671 30 35 40
-10.771313 5.962691 48.086220 30 35 40
-10.642080 5.944225 47.937298 30 35 40
-10.522695 5.930974 47.830433 30 35 40
-10.405873 5.918937 47.733360 30 35 40
-10.302166 5.914206 47.695213 30 35 40
-10.206794 5.914217 47.695301 120 120 120
-10.110606 5.913751 47.691540 120 120 120
-10.017677 5.915200 47.703224 31 22 26
-9.928059 5.918650 47.731052 29 41 33
-9.833282 5.919063 47.734379 31 33 37
-9.747565 5.924990 47.782181 18 41 35
-9.679559 5.941908 47.918610 39 37 15
-9.613691 5.960488 48.068455 32 24 27
-9.558432 5.986089 48.274910 20 42 32
-9.491261 6.004675 48.424801 41 41 15
-9.420715 6.021488 48.560387 23 20 22
-9.352938 6.040439 48.713219 32 42 44
-9.270715 6.050361 48.793236 40 32 38
-9.201927 6.069356 48.946419 21 40 24
-9.131160 6.087440 49.092258 37 35 20
-9.060059 6.105692 49.239449 35 23 25
-8.991138 6.125831 49.401859 16 34 27
-8.908650 6.137070 49.492500 29 41 26
-8.834988 6.154710 49.634762 17 40 25
-8.757046 6.169737 49.755943 40 26 35
-8.676158 6.183009 49.862976 39 23 22
-8.596585 6.197538 49.980145 25 40 25
-8.506635 6.204840 50.039032 19 38 24
-8.417503 6.212919 50.104187 25 41 15
-8.323272 6.217384 50.140194 26 42 39
-8.226187 6.219800 50.159676 25 15 27
-8.130395 6.223265 50.187622 16 16 19
-8.031942 6.224755 50.199635 38 20 24
-7.936601 6.228725 50.231651 43 16 26
-7.841327 6.232850 50.264915 39 16 41
-7.746840 6.237715 50.304157 29 15 32
-7.652790 6.243066 50.347305 34 43 44
-7.555916 6.246224 50.372772 37 25 24
-7.465851 6.255173 50.444942 33 27 24
-7.376039 6.264581 50.520817 28 28 30
-7.288401 6.276123 50.613895 29 37 40
-7.203666 6.290525 50.730042 20 26 39
-7.113547 6.300570 50.811047 28 32 35
-7.027866 6.314894 50.926563 16 37 28
-6.936709 6.324646 51.005211 34 19 27
-6.845842 6.334958 51.088371 24 18 32
-6.762831 6.352962 51.233566 16 37 42
-6.675921 6.367802 51.353241 25 33 44
-6.582187 6.376493 51.423332 28 18 37
-6.475313 6.372530 51.391373 25 15 37
-6.364653 6.364653 51.327850 37 31 22
-6.260028 6.362652 51.311707 37 43 26
-17.490982 6.225604 49.409554 39 26 44
-17.308304 6.195586 49.171318 37 35 17
-17.154154 6.175495 49.011868 20 42 37
-16.998188 6.154516 48.845367 22 43 34
-16.874576 6.145077 48.770451 22 30 35
-16.761192 6.139274 48.724396 43 34 36
-16.631432 6.127370 48.629917 41 27 37
-16.511110 6.118823 48.562088 35 25 29
-16.379839 6.106094 48.461063 39 34 35
-16.253946 6.095230 48.374840 23 16 31
-16.134157 6.086538 48.305859 33 23 18
-16.014978 6.077973 48.237885 40 27 23
-15.909543 6.074553 48.210735 30 34 25
-15.820214 6.077277 48.232361 19 44 29
-15.742486 6.084519 48.289833 29 38 40
-15.674776 6.095746 48.378937 44 32 43
-15.607112 6.107131 48.469292 39 37 17
-15.528876 6.114495 48.527737 24 22 18
-15.467754 6.128733 48.640736 38 30 19
-15.404022 6.142110 48.746906 34 18 38
-15.341631 6.156196 48.858696 22 19 33
-15.286440 6.173370 48.994999 33 20 31
-15.215723 6.184455 49.082977 30 22 20
-15.142303 6.194579 49.163322 41 31 27
-15.049967 6.197045 49.182899 39 16 21
-14.953075 6.197656 49.187748 29 26 28
-14.869416 6.203796 49.236477 30 35 40
-14.785521 6.209919 49.285069 30 35 40
-14.703265 6.216817 49.339817 30 35 40
-14.611587 6.219797 49.363468 30 35 40
-14.520169 6.222929 49.388329 30 35 40
-14.436501 6.229449 49.440071 30 35 40
-14.350489 6.235040 49.484444 30 35 40
-14.275425 6.245498 49.567448 30 35 40
-14.198984 6.255496 49.646797 30 35 40
-14.121971 6.265382 49.725250 34 31 31
-14.046082 6.275909 49.808800 23 33 21
-13.959026 6.281562 49.853664 15 18 33
-13.870271 6.286526 49.893063 39 36 18
-13.776211 6.289140 49.913807 17 18 38
-13.673946 6.288019 49.904911 33 16 22
-13.566725 6.284586 49.877666 40 15 21
-13.456390 6.279649 49.838482 19 16 19
-13.337323 6.270533 49.766132 38 29 16
-13.222118 6.263109 49.707211 30 35 40
-13.103007 6.253708 49.632603 30 35 40
-12.976821 6.240761 49.529850 30 35 40
-12.857660 6.231020 49.452538 30 35 40
-12.726532 6.215283 49.327644 30 35 40
-12.600216 6.201669 49.219593 30 35 40
-12.476324 6.189042 49.119385 30 35 40
-12.351049 6.175525 49.012100 17 21 21
-12.239053 6.168483 48.956211 23 35 22
-12.127380 6.161492 48.900726 21 22 43
-12.025104 6.159200 48.882538 30 39 29
-11.924413 6.157689 48.870544 33 43 40
-11.817388 6.152855 48.832184 30 40 31
-11.711578 6.148578 48.798241 19 43 28
-11.593933 6.137965 48.714005 39 29 41
-11.477051 6.127578 48.631573 40 27 15
-11.355620 6.114565 48.528290 27 26 34
-11.227551 6.097722 48.394615 31 20 40
-11.108479 6.085514 48.297733 30 35 40
-10.980767 6.068319 48.161259 30 35 40
-10.862729 6.056212 48.065174 30 35 40
-10.745432 6.044306 47.970680 30 35 40
-10.618583 6.026763 47.831455 30 35 40
-10.500695 6.014034 47.730431 30 35 40
-10.385286 6.002505 47.638927 30 35 40
-10.282516 5.998134 47.604240 120 120 120
-10.187345 5.998156 47.604416 120 120 120
-10.090958 5.997456 47.598858 120 120 120
-9.997446 5.998467 47.606884 38 19 35
-9.906398 6.000991 47.626915 32 44 29
-9.810390 6.000530 47.623253 26 43 15
-9.723136 6.005467 47.662434 31 22 29
-9.653015 6.021187 47.787201 34 17 43
-9.585680 6.038978 47.928398 37 35 32
-9.528330 6.063483 48.122879 27 44 28
-9.459811 6.081307 48.264343 29 43 20
-9.388122 6.097440 48.392380 44 41 16
-9.318858 6.115500 48.535717 19 40 17
-9.235926 6.124877 48.610138 37 38 19
-9.165626 6.142920 48.753330 34 42 35
-9.093675 6.160231 48.890724 15 39 15
-9.021264 6.177605 49.028610 19 22 42
-8.950559 6.196541 49.178898 34 36 27
-8.867035 6.206924 49.261303 17 25 44
-8.791638 6.223294 49.391224 32 19 25
-8.712442 6.237316 49.502510 20 27 23
-8.630471 6.249652 49.600410 23 36 29
-8.549533 6.263030 49.706589 19 24 44
-8.459051 6.269649 49.759121 15 17 21
-8.369083 6.276812 49.815968 29 31 43
-8.274456 6.280611 49.846119 28 25 42
-8.177219 6.282498 49.861092 31 22 31
-8.081142 6.285333 49.883595 41 32 41
-7.982839 6.286486 49.892746 32 21 19
-7.887507 6.290038 49.920933 23 40 19
-7.792431 6.293887 49.951481 23 44 18
-7.698219 6.298543 49.988434 22 31 26
-7.604315 6.303577 50.028389 31 18 44
-7.507777 6.306533 50.051849 37 22 43
-7.418110 6.315418 50.122368 37 18 19
-7.328914 6.324953 50.198040 20 34 32
-7.241941 6.336698 50.291256 22 18 39
-7.157725 6.351221 50.406517 24 40 17
-7.068106 6.361295 50.486469 44 35 34
-6.982895 6.375687 50.600689 43 33 27
-6.892100 6.385328 50.677208 38 24 34
-6.801847 6.395767 50.760056 15 44 21
-6.719955 6.414503 50.908752 43 22 28
-6.634382 6.430247 51.033707 36 41 43
-6.541852 6.439635 51.108215 16 41 37
-6.435689 6.435689 51.076897 23 16 37
-6.325610 6.427636 51.012985 36 32 39
-6.221775 6.425767 50.998154 22 17 18
-17.362771 6.278064 49.047375 19 18 34
-17.191183 6.251339 48.838589 43 28 19
-17.046298 6.234075 48.703709 16 27 37
-16.895104 6.214291 48.549149 33 19 41
-16.769266 6.203659 48.466087 25 19 24
-16.650366 6.195485 48.402225 31 33 43
-16.516598 6.181651 48.294147 44 24 18
-16.394125 6.171906 48.218014 25 42 25
-16.259807 6.157560 48.105938 15 33 35
-16.132078 6.145554 48.012138 26 22 41
-16.010654 6.135819 47.936089 36 24 43
-15.888755 6.125785 47.857697 16 34 31
-15.781649 6.121367 47.823177 34 27 32
-15.690413 6.123088 47.836624 22 22 27
-15.611830 6.129798 47.889050 31 24 42
-15.544096 6.140877 47.975605 34 25 28
-15.476812 6.152273 48.064632 38 28 30
-15.399868 6.159947 48.124588 33 40 20
-15.339533 6.174403 48.237526 31 36 16
-15.276125 6.187797 48.342167 25 37 36
-15.213688 6.201758 48.451237 42 17 38
-15.158190 6.218745 48.583942 17 29 21
-15.087396 6.229634 48.669018 19 40 25
-15.013064 6.239195 48.743713 39 26 22
-14.920021 6.241055 48.758240 33 18 26
-14.822279 6.240959 48.757496 22 21 23
-14.737069 6.246175 48.798241 29 32 41
-14.652286 6.251642 48.840954 30 35 40
-14.569740 6.258144 48.891747 30 35 40
-14.478914 6.261152 48.915249 30 35 40
-14.389246 6.264706 48.943012 30 35 40
-14.307590 6.271820 48.998596 30 35 40
-14.223629 6.278016 49.046997 30 35 40
-14.150900 6.289289 49.135071 30 35 40
-14.076237 6.299854 49.217613 20 16 26
-14.000961 6.310292 49.299160 24 36 27
-13.927228 6.321579 49.387333 32 21 25
-13.841955 6.327751 49.435555 18 18 22
-13.755087 6.333277 49.478729 26 20 22
-13.662284 6.336132 49.501030 36 40 16
-13.561296 6.335204 49.493782 35 28 22
-13.455818 6.332149 49.469917 16 38 32
-13.347072 6.327501 49.433601 21 23 43
-13.230668 6.319125 49.368164 26 24 39
-13.117980 6.312412 49.315716 30 35 40
-13.001892 6.303948 49.249592 30 35 40
-12.879632 6.292339 49.158901 30 35 40
-12.763659 6.283647 49.090996 30 35 40
-12.636240 6.269142 48.977673 30 35 40
-12.512371 6.256186 48.876450 30 35 40
-12.390812 6.244188 48.782722 30 35 40
-12.268753 6.231748 48.685528 18 44 31
-12.159251 6.225537 48.637005 31 40 23
-12.051085 6.219915 48.593086 24 27 40
-11.951672 6.218756 48.584034 40 31 36
-11.853820 6.218397 48.581230 41 40 32
-11.750104 6.214931 48.554150 26 40 20
-11.646492 6.211462 48.527050 18 21 34
-11.532221 6.202203 48.454712 24 31 30
-11.418204 6.192924 48.382221 20 24 21
-11.299672 6.181017 48.289196 25 16 37
-11.175077 6.165560 48.168434 17 44 31
-11.058382 6.154230 48.079922 32 35 40
-10.933915 6.138338 47.955769 19 22 30
-10.818408 6.127240 47.869061 27 41 38
-10.703477 6.116272 47.783379 30 35 40
-10.579499 6.099892 47.655403 20 19 24
-10.463530 6.087872 47.561501 19 41 21
-10.350054 6.077096 47.477310 17 29 42
-10.248594 6.073241 47.447193 120 120 120
-10.153952 6.073392 47.448376 120 120 120
-10.057626 6.072529 47.441631 120 120 120
-9.963681 6.073101 47.446098 31 22 34
-9.871331 6.074666 47.458324 29 19 17
-9.774194 6.073286 47.447544 43 44 17
-9.685380 6.077101 47.477352 15 15 20
-9.612957 6.091379 47.588898 38 27 44
-9.543923 6.108111 47.719616 17 27 43
-9.484135 6.131158 47.899673 44 30 44
-9.413976 6.147903 48.030491 20 44 22
-9.340894 6.163064 48.148937 33 32 15
-9.269915 6.179943 48.280807 25 24 20
-9.186274 6.188647 48.348808 33 22 15
-9.114444 6.205579 48.481087 37 21 42
-9.041289 6.221962 48.609081 20 19 24
-8.967695 6.238396 48.737473 33 31 31
-8.895420 6.256120 48.875935 32 28 39
-8.811169 6.265720 48.950939 33 37 25
-8.734467 6.280965 49.070042 35 25 39
-8.654458 6.294151 49.173058 18 27 44
-8.571836 6.305719 49.263428 24 25 19
-8.489946 6.318099 49.360149 22 38 35
-8.399172 6.324083 49.406895 25 38 26
-8.308698 6.330437 49.456535 33 23 31
-8.213990 6.333679 49.481869 26 32 32
-8.116863 6.335113 49.493069 19 24 23
-8.020689 6.337334 49.510426 42 32 25
-7.922661 6.338129 49.516632 33 23 32
-7.827338 6.341135 49.540115 17 40 34
-7.732425 6.344554 49.566826 34 29 28
-7.638434 6.348828 49.600220 21 38 19
-7.544622 6.353366 49.635674 22 41 36
-7.448452 6.356012 49.656345 36 39 16
-7.359152 6.364672 49.723999 42 43 37
-7.270551 6.374182 49.798298 29 26 41
-7.184287 6.386033 49.890884 23 35 34
-7.100713 6.400643 50.005020 29 44 22
-7.011807 6.410795 50.084339 41 40 34
-6.927316 6.425336 50.197941 35 32 44
-6.837165 6.434979 50.273273 42 30 39
-6.747818 6.445677 50.356853 34 24 37
-6.667339 6.465298 50.510143 36 42 30
-6.583363 6.482081 50.641254 15 27 24
-6.492266 6.492266 50.720829 40 15 20
-6.387013 6.488395 50.690582 42 38 24
-6.277644 6.480148 50.626160 23 34 34
-6.174555 6.478221 50.611103 38 16 24
-17.121215 6.323176 48.639816 38 38 23
-16.986217 6.309166 48.532047 34 25 37
-16.840532 6.291003 48.392334 36 20 27
-16.712398 6.279225 48.301727 35 17 30
-16.588414 6.268877 48.222134 16 30 16
-16.452385 6.253830 48.106388 23 23 24
-16.329695 6.243707 48.028515 21 19 42
-16.194512 6.228659 47.912758 19 20 30
-16.066137 6.216065 47.815884 33 16 42
-15.943903 6.205711 47.736237 33 22 31
-15.820495 6.194772 47.652092 35 18 36
-15.712252 6.189675 47.612885 26 21 41
-15.619124 6.190507 47.619282 23 37 39
-15.539048 6.196553 47.665791 38 22 36
-15.470063 6.207124 47.747108 21 43 30
-15.401573 6.218026 47.830971 22 16 16
-15.324468 6.225565 47.888962 35 36 23
-15.262969 6.239578 47.996758 28 19 25
-15.198431 6.252519 48.096302 36 16 36
-15.134536 6.265891 48.199158 34 19 31
-15.076997 6.282082 48.323708 42 34 25
-15.004958 6.292402 48.403091 27 41 32
-14.928625 6.301043 48.469563 18 33 25
-14.834415 6.302203 48.478481 35 37 41
-14.735443 6.301341 48.471851 16 18 18
-14.647797 6.305343 48.502640 44 26 28
-14.561168 6.309840 48.537228 30 35 40
-14.477618 6.315739 48.582611 30 35 40
-14.387485 6.318828 48.606369 30 35 40
-14.299429 6.322877 48.637512 30 35 40
-14.219003 6.330378 48.695217 30 35 40
-14.136066 6.336857 48.745056 30 35 40
-14.064564 6.348588 48.835293 30 35 40
-13.990933 6.359515 48.919346 31 22 33
-13.916663 6.370303 49.002335 20 35 44
-13.844017 6.381994 49.092258 19 17 34
-13.759623 6.388396 49.141510 32 20 42
-13.673852 6.394248 49.186520 37 30 33
-13.581888 6.397266 49.209740 33 16 25
-13.482049 6.396593 49.204559 39 41 19
-13.378337 6.394058 49.185062 29 36 42
-13.271316 6.389893 49.153023 18 19 31
-13.157431 6.382336 49.094891 35 43 41
-13.046838 6.376274 49.048264 30 30 35
-12.933002 6.368524 48.988644 30 35 40
-12.813465 6.357826 48.906357 30 35 40
-12.699518 6.349759 48.844299 30 35 40
-12.574567 6.336022 48.738632 30 35 40
-12.452405 6.323487 48.642208 30 35 40
-12.332440 6.311879 48.552914 35 19 30
-12.212498 6.300098 48.462296 37 36 19
-12.104638 6.294412 48.418552 32 16 35
-11.998723 6.289653 48.381947 35 44 22
-11.901197 6.289250 48.378849 40 24 39
-11.805216 6.289664 48.382034 21 15 28
-11.703693 6.287108 48.362366 20 30 23
-11.601596 6.284198 48.339985 42 26 23
-11.489580 6.275821 48.275547 29 34 34
-11.377499 6.267266 48.209740 36 31 15
-11.260858 6.256032 48.123325 18 38 41
-11.138389 6.241338 48.010296 15 29 33
-11.023079 6.230436 47.926430 32 40 37
-10.900419 6.215151 47.808853 25 16 39
-10.786296 6.204507 47.726974 30 16 16
-10.672673 6.193962 47.645863 15 25 24
-10.550383 6.178152 47.524246 25 43 38
-10.435637 6.166512 47.434711 40 43 33
-10.323423 6.156170 47.355152 18 30 26
-10.222901 6.152672 47.328247 120 120 120
-10.128767 6.152989 47.330685 120 120 120
-10.032692 6.152122 47.324017 120 120 120
-9.938666 6.152507 47.326981 32 37 34
-9.845772 6.153607 47.335442 20 24 36
-9.748219 6.151788 47.321449 37 40 24
-9.658600 6.154991 47.346081 24 32 34
-9.584891 6.168494 47.449955 39 35 28
-9.514845 6.184649 47.574226 44 17 25
-9.453505 6.206847 47.744976 30 16 38
-9.382240 6.222914 47.868572 25 20 24
-9.308215 6.237463 47.980488 36 31 37
-9.236175 6.253660 48.105080 17 42 26
-9.152174 6.262014 48.169338 43 40 42
-9.079572 6.278428 48.295597 30 30 36
-9.005834 6.294400 48.418461 26 16 18
-8.931761 6.310483 48.542179 38 28 24
-8.858886 6.327776 48.675198 32 39 19
-8.774501 6.337140 48.747231 26 19 19
-8.697501 6.352108 48.862366 41 26 18
-8.617459 6.365169 48.962837 28 28 36
-8.534870 6.376627 49.050976 44 28 23
-8.452800 6.388744 49.144188 19 35 23
-8.362037 6.394499 49.188454 20 35 17
-8.271482 6.400552 49.235012 38 33 40
-8.176890 6.403589 49.258373 39 24 27
-8.079938 6.404829 49.267914 24 30 35
-7.983821 6.406770 49.282845 33 25 19
-7.886004 6.407378 49.287525 31 23 19
-7.790612 6.409997 49.307671 25 36 37
-7.695644 6.413037 49.331051 37 15 18
-7.601572 6.416912 49.360859 29 26 15
-7.507639 6.421007 49.392361 29 41 43
-7.411633 6.423415 49.410885 22 34 44
-7.322428 6.431863 49.475868 33 25 29
-7.234084 6.441308 49.548523 38 19 37
-7.148158 6.453198 49.639988 29 18 20
-7.064930 6.467894 49.753029 44 35 41
-6.976474 6.478155 49.831959 43 24 38
-6.892537 6.492970 49.945923 25 16 25
-6.802977 6.502846 50.021889 21 33 39
-6.714309 6.513882 50.106781 26 21 22
-6.634631 6.534107 50.262360 24 31 44
-6.551427 6.551427 50.395596 15 25 21
-6.461031 6.561984 50.476803 23 21 43
-6.356355 6.558145 50.447266 25 43 39
-6.247399 6.549693 50.382252 16 26 20
-17.011642 6.379366 48.328529 28 36 21
-16.885764 6.368345 48.245041 32 24 21
-16.746666 6.352184 48.122604 23 24 41
-16.618939 6.340173 48.031616 24 32 31
-16.493060 6.328732 47.944942 19 30 31
-16.357262 6.313329 47.828251 42 36 37
-16.235403 6.303157 47.751186 40 15 35
-16.100360 6.287715 47.634201 35 35 31
-15.971869 6.274663 47.535324 26 28 43
-15.848884 6.263631 47.451748 44 22 38
-15.724143 6.251768 47.361877 44 27 18
-15.614856 6.245942 47.317745 21 22 33
-15.519204 6.245533 47.314648 41 15 40
-15.436871 6.250512 47.352364 28 38 30
-15.365485 6.260012 47.424335 31 23 40
-15.294307 6.269716 47.497849 38 37 43
-15.215948 6.276579 47.549839 16 21 19
-15.152072 6.289539 47.648026 27 16 26
-15.085716 6.301628 47.739609 34 23 36
-15.019944 6.314117 47.834217 30 20 18
-14.959716 6.329111 47.947807 21 28 19
-14.886057 6.338579 48.019539 43 41 16
-14.807369 6.346015 48.075874 17 17 44
-14.712168 6.346425 48.078979 28 19 19
-14.611976 6.344674 48.065712 21 34 34
-14.520966 6.346912 48.082668 41 26 39
-14.431416 6.349823 48.104721 43 28 41
-14.346287 6.354731 48.141903 30 35 40
-14.257389 6.358025 48.166855 30 35 40
-14.171775 6.362838 48.203316 30 35 40
-14.093003 6.370810 48.263710 30 35 40
-14.011320 6.377566 48.314896 30 35 40
-13.941207 6.389720 48.406967 29 36 32
-13.868783 6.400977 48.492249 15 42 40
-13.795700 6.412086 48.576408 43 19 35
-13.724404 6.424189 48.668098 30 42 16
-13.641214 6.430858 48.718620 37 36 41
-13.556861 6.437071 48.765686 27 18 18
-13.465974 6.440248 48.789761 18 27 44
-13.367545 6.439839 48.786659 22 17 21
-13.266016 6.437920 48.772118 43 22 30
-13.161178 6.434353 48.745102 42 38 40
-13.050330 6.427775 48.695263 44 18 31
-12.942307 6.422498 48.655289 30 15 16
-12.831280 6.415640 48.603333 39 28 26
-12.715252 6.406158 48.531498 36 15 39
-12.604060 6.398984 48.477154 30 35 40
-12.482295 6.386291 48.380989 42 23 42
-12.362244 6.374282 48.290016 19 27 38
-12.244262 6.363160 48.205757 28 18 27
-12.127021 6.352249 48.123100 31 20 25
-12.021285 6.347239 48.085140 41 35 24
-11.918491 6.343713 48.058430 44 44 23
-11.823668 6.344407 48.063690 44 36 43
-11.730459 6.345986 48.075653 19 38 37
-11.632196 6.344834 48.066925 37 24 40
-11.532405 6.342823 48.051689 35 26 44
-11.423185 6.335548 47.996574 18 39 24
-11.312981 6.327599 47.936359 29 43 38
-11.198273 6.316975 47.855869 20 22 18
-11.078708 6.303403 47.753052 24 38 22
-10.965777 6.293403 47.677292 32 31 23
-10.846070 6.279304 47.570484 27 34 22
-10.734007 6.269420 47.495605 23 36 17
-10.622345 6.259596 47.421185 15 37 34
-10.502615 6.244798 47.309074 28 34 28
-10.389746 6.233848 47.226120 26 20 34
-10.279857 6.224501 47.155308 42 37 30
-10.181184 6.221834 47.135109 120 120 120
-10.088477 6.222799 47.142414 120 120 120
-9.993697 6.222490 47.140079 120 120 120
-9.900253 6.223016 47.144062 34 16 29
-9.807521 6.224004 47.151543 26 28 33
-9.710091 6.222000 47.136364 36 42 31
-9.619992 6.224701 47.156822 35 24 34
-9.545150 6.237425 47.253220 36 33 17
