ply
format ascii 1.0
element vertex 1280
property float x
property float y
property float z
property uchar red
property uchar green
property uchar blue
end_header
10.560003 2.208628 34.509815 18 32 31
10.593756 2.201300 34.395313 24 40 43
10.640395 2.196727 34.323856 34 30 44
10.673333 2.189402 34.209400 31 21 26
10.712398 2.183419 34.115917 44 42 21
10.751440 2.177507 34.023544 23 26 42
10.784282 2.170422 33.912838 24 34 16
10.830643 2.166129 33.845760 18 25 24
10.863201 2.159146 33.736649 22 21 27
10.905196 2.154113 33.658012 25 43 40
10.941065 2.147939 33.561550 31 34 42
10.959288 2.138398 33.412464 33 22 28
10.987412 2.130892 33.295189 18 34 42
10.988023 2.118173 33.096455 21 44 23
10.997635 2.107331 32.927052 39 33 20
11.005618 2.096308 32.754814 40 24 37
11.003181 2.083443 32.553791 15 34 23
11.026829 2.075638 32.431850 35 41 20
11.033591 2.064766 32.261963 41 23 30
11.054875 2.056721 32.136265 39 21 31
6.527275 2.626830 39.800457 44 22 19
6.573325 2.613491 39.598343 18 37 18
6.605314 2.594945 39.317345 24 38 25
6.650508 2.581962 39.120636 43 27 39
6.685734 2.565456 38.870548 21 35 41
6.732248 2.553611 38.691082 19 41 34
6.787124 2.545171 38.563202 34 31 31
6.842832 2.537230 38.442879 20 37 15
6.913784 2.535054 38.409912 21 30 25
6.981998 2.531934 38.362629 40 35 18
7.053741 2.530146 38.335548 22 30 41
7.124118 2.527913 38.301712 40 35 32
7.186582 2.522949 38.226501 44 41 23
7.249996 2.518420 38.157875 20 26 41
7.305790 2.511365 38.050991 26 22 34
7.367773 2.506562 37.978210 28 20 23
7.425610 2.500460 37.885765 17 39 35
7.472064 2.490688 37.737698 38 30 35
7.523549 2.482771 37.617744 27 23 41
7.561100 2.470458 37.431187 29 20 43
7.606103 2.460798 37.284817 30 15 36
7.650142 2.451016 37.136612 35 22 43
7.686599 2.439017 36.954803 18 24 18
7.736496 2.431470 36.840458 120 120 120
7.771016 2.419279 36.655735 120 120 120
7.809792 2.408627 36.494354 120 120 120
7.851556 2.399087 36.349796 40 35 24
7.890655 2.388914 36.195667 29 33 37
7.945905 2.383771 36.117748 15 16 37
8.005095 2.379893 36.058987 39 35 16
8.077085 2.379855 36.058414 40 15 25
8.153653 2.381155 36.078110 27 44 18
8.222028 2.380061 36.061527 21 25 43
8.288481 2.378434 36.036873 17 34 17
8.353072 2.376305 36.004620 23 35 19
8.420795 2.375096 35.986301 26 30 22
8.487606 2.373652 35.964432 43 27 29
8.550606 2.371176 35.926914 18 28 24
8.615053 2.369140 35.896053 40 30 43
8.674762 2.365844 35.846123 42 30 17
8.735923 2.362996 35.802963 25 15 32
8.797556 2.360320 35.762424 23 44 16
8.858134 2.357407 35.718281 23 24 35
8.923703 2.355858 35.694813 42 43 39
8.988763 2.354200 35.669693 42 18 40
9.057412 2.353501 35.659103 30 41 29
9.126630 2.352959 35.650898 26 19 37
9.192939 2.351682 35.631546 15 41 23
9.260050 2.350628 35.615578 21 32 26
9.322441 2.348401 35.581837 16 34 20
9.386405 2.346601 35.554565 24 22 29
9.447012 2.343995 35.515083 39 20 20
9.501525 2.339928 35.453453 33 22 18
9.558663 2.336562 35.402454 22 39 36
9.606522 2.330994 35.318096 17 24 39
9.657527 2.326266 35.246449 25 34 28
9.708299 2.321550 35.174995 22 42 15
9.755934 2.316157 35.093288 34 15 22
9.812768 2.313010 35.045601 16 41 23
9.863425 2.308461 34.976685 24 36 36
9.918307 2.304959 34.923615 18 27 25
9.974770 2.301870 34.876820 30 43 42
10.027961 2.298074 34.819309 17 22 26
10.087880 2.295862 34.785793 37 42 21
10.146504 2.293388 34.748302 37 43 24
10.212364 2.292571 34.735931 36 43 27
10.276556 2.291394 34.718094 32 36 29
10.331717 2.288233 34.670193 40 29 29
10.387190 2.285182 34.623966 25 32 33
10.427855 2.278935 34.529320 25 40 38
10.469889 2.273068 34.440426 23 34 29
10.508200 2.266475 34.340523 28 38 26
10.541085 2.258804 34.224300 19 41 33
10.586679 2.253938 34.150578 33 32 15
10.617927 2.246100 34.031818 33 26 38
10.655587 2.239709 33.934990 36 43 39
10.692847 2.233316 33.838123 41 16 34
10.722646 2.225455 33.719013 41 42 44
10.766191 2.220527 33.644348 31 34 29
10.798061 2.213267 33.534351 38 40 15
10.841948 2.208545 33.462803 27 40 28
10.880784 2.202858 33.376637 18 41 16
10.901038 2.193501 33.234871 21 17 39
10.929780 2.185956 33.120544 30 23 27
10.931833 2.173196 32.927208 19 38 27
10.942663 2.162323 32.762463 41 36 29
10.951968 2.151279 32.595142 27 37 35
10.951411 2.138441 32.400623 41 21 44
10.976285 2.130691 32.283192 24 23 38
10.984580 2.119831 32.118656 23 18 30
11.006819 2.111773 31.996567 24 34 20
6.423326 2.696211 39.650162 27 17 27
6.467817 2.681778 39.437908 39 17 19
6.511386 2.667315 39.225216 20 15 36
6.543567 2.648587 38.949806 26 38 44
6.590537 2.636215 38.767864 18 22 44
6.628853 2.620709 38.539845 40 33 43
6.677767 2.609702 38.377972 18 35 20
6.734986 2.602154 38.266968 24 26 40
6.793712 2.595351 38.166924 36 44 39
6.866417 2.593980 38.146759 26 39 23
6.934191 2.590797 38.099949 33 25 33
7.002552 2.587900 38.057346 23 16 25
7.068948 2.584347 38.005096 33 37 16
7.129693 2.578825 37.923897 34 24 15
7.193338 2.574458 37.859673 44 34 37
7.249463 2.567518 37.757622 30 41 37
7.311339 2.562737 37.687313 21 40 21
7.369022 2.556599 37.597050 43 21 41
7.415316 2.546674 37.451092 33 19 25
7.466397 2.538575 37.331985 21 16 17
7.503477 2.525923 37.145927 20 30 32
7.547847 2.515949 36.999249 36 27 15
7.591258 2.505852 36.850769 37 17 21
7.627110 2.493478 36.668797 39 21 36
7.676414 2.485696 36.554352 120 120 120
7.711680 2.473558 36.375847 120 120 120
7.751983 2.463247 36.224220 120 120 120
7.795614 2.454175 36.090805 36 25 15
7.836445 2.444396 35.946995 19 23 32
7.892370 2.439460 35.874409 41 29 43
7.952009 2.435751 35.819862 17 41 21
8.023559 2.435723 35.819458 28 19 23
8.099436 2.436998 35.838211 32 19 36
8.167746 2.435994 35.823448 16 19 34
8.234257 2.434476 35.801117 25 35 40
8.299184 2.432519 35.772343 15 35 42
8.367075 2.431458 35.756729 31 17 23
8.434036 2.430146 35.737442 33 17 36
8.497289 2.427797 35.702896 41 26 24
8.561680 2.425809 35.673668 20 29 33
8.621538 2.422581 35.626190 31 36 40
8.682817 2.419801 35.585316 23 22 34
8.744410 2.417154 35.546383 22 22 30
8.804771 2.414211 35.503109 31 38 43
8.869815 2.412590 35.479259 23 29 25
8.934383 2.410865 35.453899 36 26 28
9.002583 2.410140 35.443241 37 30 40
9.071407 2.409593 35.435184 39 19 40
9.137394 2.408305 35.416256 37 37 28
9.204210 2.407255 35.400806 42 30 27
9.266252 2.404981 35.367374 19 34 26
9.329918 2.403161 35.340599 15 20 44
9.389960 2.400441 35.300602 37 21 15
9.443376 2.396080 35.236477 30 41 36
9.499239 2.392401 35.182365 36 37 28
9.546012 2.386503 35.095631 33 21 34
9.596554 2.381626 35.023918 22 42 16
9.647028 2.376804 34.952999 42 44 38
9.694170 2.371236 34.871117 42 23 44
9.750486 2.367975 34.823166 21 22 18
9.800137 2.363154 34.752258 33 25 25
9.853810 2.359363 34.696514 18 32 25
9.908904 2.355963 34.646519 39 24 34
9.960618 2.351813 34.585480 38 29 34
10.019418 2.349381 34.549717 34 34 25
10.077060 2.346713 34.510479 25 30 19
10.142313 2.345841 34.497662 30 41 23
10.206204 2.344669 34.480419 24 26 20
10.261088 2.341456 34.433182 38 33 32
10.316320 2.338366 34.387733 19 43 43
10.357176 2.332079 34.295284 30 27 36
10.399570 2.326219 34.209110 30 25 25
10.438205 2.319601 34.111782 15 18 37
10.471221 2.311828 33.997471 16 35 15
10.516525 2.306851 33.924274 42 36 39
10.547210 2.298751 33.805161 24 25 32
10.584168 2.292113 33.707542 31 17 18
10.620415 2.285406 33.608910 30 25 38
10.648547 2.277048 33.485996 27 22 34
10.690387 2.271707 33.407459 33 40 22
10.722234 2.264323 33.298862 24 39 33
10.767816 2.259912 33.234001 18 19 30
10.808940 2.254626 33.156258 33 21 36
10.830660 2.245381 33.020306 33 16 33
10.859577 2.237731 32.907810 27 30 32
10.862391 2.224827 32.718044 36 25 30
10.873850 2.213838 32.556438 22 42 25
10.883920 2.202698 32.392620 17 38 39
10.884629 2.189807 32.203045 38 31 44
10.910354 2.182071 32.089275 22 30 29
10.919823 2.171193 31.929306 25 32 26
10.942791 2.163110 31.810440 30 18 27
10.970284 2.156010 31.706024 16 44 41
6.388218 2.760341 39.433445 41 44 36
6.430607 2.744771 39.211018 40 26 36
6.472370 2.729313 38.990181 27 24 38
6.504867 2.710361 38.719448 16 33 42
6.553370 2.698447 38.549236 43 30 40
6.593865 2.683550 38.336422 29 28 17
6.644221 2.672963 38.185181 17 40 37
6.702657 2.665830 38.083279 17 20 44
6.763072 2.659635 37.994789 20 39 22
6.836726 2.658727 37.981812 28 43 21
6.903749 2.655288 37.932686 15 26 23
6.969360 2.651387 37.876957 44 20 36
7.032661 2.646700 37.810005 17 17 32
7.091913 2.640606 37.722942 26 44 15
7.155631 2.636285 37.661217 32 15 27
7.211854 2.629322 37.561741 19 15 42
7.273544 2.624475 37.492496 24 31 29
7.331090 2.618247 37.403522 20 23 43
7.377313 2.608141 37.259155 37 35 29
7.428229 2.599880 37.141144 30 40 33
7.465255 2.586969 36.956707 23 20 33
7.509456 2.576774 36.811058 20 22 33
7.552740 2.566465 36.663788 22 35 43
7.588475 2.553814 36.483051 27 37 32
7.637521 2.545840 36.369148 120 120 120
7.673414 2.533675 36.195351 120 120 120
7.714767 2.523522 36.050312 120 120 120
7.759638 2.514697 35.924248 36 21 18
7.801757 2.505151 35.787876 25 22 43
7.858289 2.500365 35.719494 35 23 39
7.917866 2.496625 35.666065 24 27 17
7.988195 2.496311 35.661583 24 24 24
8.062815 2.497332 35.676174 27 19 23
8.131198 2.496420 35.663147 25 37 33
8.198547 2.495210 35.645855 27 16 36
8.264213 2.493513 35.621609 30 38 30
8.332161 2.492527 35.607525 22 27 42
8.398932 2.491209 35.588696 17 21 44
8.462131 2.488862 35.555172 19 43 36
8.526357 2.486854 35.526489 42 24 24
8.586021 2.483560 35.479427 34 23 35
8.647120 2.480731 35.439018 31 40 37
8.708394 2.477998 35.399975 22 23 26
8.768240 2.474907 35.355808 26 36 40
8.832683 2.473151 35.330730 39 19 38
8.896572 2.471270 35.303856 25 22 24
8.964218 2.470454 35.292198 27 34 38
9.032544 2.469836 35.283375 43 36 42
9.098051 2.468463 35.263763 34 31 31
9.164530 2.467373 35.248192 36 25 42
9.226111 2.464992 35.214165 37 42 19
9.289341 2.463083 35.186897 38 27 43
9.348801 2.460211 35.145870 23 41 42
9.401231 2.455545 35.079220 16 43 36
9.456098 2.451581 35.022587 39 31 28
9.502176 2.445413 34.934471 33 21 37
9.552658 2.440460 34.863716 18 32 33
9.603231 2.435602 34.794315 26 17 41
9.650150 2.429894 34.712769 15 42 31
9.706048 2.426512 34.664455 24 22 19
9.754988 2.421451 34.592155 19 31 30
9.807878 2.417435 34.534782 17 44 38
9.862092 2.413799 34.482838 25 39 44
9.912885 2.409382 34.419739 33 43 40
9.970980 2.406788 34.382690 36 37 16
10.027995 2.403971 34.342449 43 19 37
10.092781 2.403043 34.329185 15 22 29
10.156456 2.401865 34.312351 38 37 34
10.211249 2.398616 34.265938 37 18 17
10.266464 2.395508 34.221546 17 32 30
10.307858 2.389239 34.131981 16 38 24
10.350888 2.383428 34.048973 36 40 41
10.390302 2.376866 33.955235 24 38 29
10.424274 2.369153 33.845047 27 15 29
10.470085 2.364213 33.774467 28 16 34
10.501384 2.356080 33.658283 37 31 41
10.538626 2.349375 33.562504 26 41 16
10.574894 2.342540 33.464855 41 42 29
10.602861 2.333963 33.342331 28 15 36
10.644204 2.328420 33.263138 38 19 34
10.676199 2.320913 33.155899 17 16 29
10.722500 2.316589 33.094135 15 22 33
10.764401 2.311374 33.019634 24 30 20
10.786451 2.301986 32.885521 27 44 15
10.815105 2.294113 32.773045 20 20 15
10.817945 2.280892 32.584171 26 42 23
10.829506 2.269657 32.423672 38 33 27
10.839844 2.258301 32.261440 24 18 37
10.841082 2.245195 32.074207 40 29 39
10.867197 2.237364 31.962343 35 42 44
10.877276 2.226343 31.804901 24 24 18
10.900605 2.218146 31.687805 37 18 27
10.928409 2.210950 31.584997 32 24 44
6.336796 2.816354 39.116024 21 35 20
6.377117 2.799710 38.884861 39 27 24
6.417333 2.783421 38.658630 29 38 37
6.450524 2.764510 38.395977 42 39 29
6.500846 2.753300 38.240273 37 22 31
6.544051 2.739370 38.046806 39 26 15
6.596582 2.729620 37.911388 22 37 21
6.656420 2.723081 37.820568 31 40 21
6.717392 2.717147 37.738159 16 41 32
6.790122 2.716049 37.722900 40 19 29
6.855193 2.711944 37.665894 43 39 19
6.918302 2.707162 37.599468 25 35 27
6.979136 2.701601 37.522236 26 32 38
7.036851 2.694964 37.430058 24 16 21
7.100203 2.690603 37.369492 30 38 17
7.156111 2.683542 37.271412 23 34 17
7.217300 2.678586 37.202579 36 15 21
7.274538 2.672279 37.114990 17 29 37
7.320702 2.662074 36.973244 19 28 33
7.371538 2.653754 36.857689 34 43 26
7.408773 2.640751 36.677094 36 33 36
7.452980 2.630463 36.534214 15 42 26
7.496347 2.620082 36.390034 36 23 26
7.532253 2.607318 36.212753 33 36 32
7.581177 2.599261 36.100842 120 120 120
7.618320 2.587354 35.935471 120 120 120
7.661455 2.577686 35.801189 120 120 120
7.708342 2.569447 35.686768 29 19 16
7.752603 2.560493 35.562397 29 34 19
7.810210 2.556069 35.500954 39 22 18
7.869677 2.552328 35.448997 41 41 43
7.937997 2.551499 35.437489 35 29 15
8.010426 2.551994 35.444363 40 41 43
8.078458 2.551092 35.431831 20 22 25
8.146659 2.550259 35.420258 34 32 43
8.213088 2.548889 35.401241 22 39 39
8.280979 2.547993 35.388798 23 21 30
8.347434 2.546675 35.370483 17 29 43
8.410481 2.544347 35.338154 17 23 26
8.474391 2.542317 35.309963 23 24 28
8.533666 2.538942 35.263081 28 22 39
8.594331 2.536032 35.222668 36 43 37
8.654964 2.533160 35.182781 19 23 43
8.713910 2.529845 35.136734 18 42 20
8.777403 2.527892 35.109612 39 21 15
8.840139 2.525754 35.079918 23 40 16
8.906820 2.524768 35.066219 41 28 30
8.974235 2.524004 35.055607 42 42 23
9.038868 2.522475 35.034370 16 22 22
9.104736 2.521311 35.018215 43 35 26
9.165229 2.518689 34.981789 18 42 31
9.227115 2.516486 34.951195 33 29 33
9.285232 2.513296 34.906887 16 21 27
9.336453 2.508301 34.837513 25 16 37
9.390576 2.504154 34.779911 27 16 18
9.436210 2.497820 34.691948 20 33 43
9.486595 2.492828 34.622608 36 19 18
9.537156 2.487954 34.554913 17 31 44
9.583807 2.482137 34.474125 29 37 16
9.639190 2.478649 34.425678 33 34 25
9.687357 2.473368 34.352329 29 22 24
9.739334 2.469127 34.293430 16 24 22
9.792592 2.465268 34.239834 38 39 21
9.842489 2.460622 34.175308 31 28 33
9.899919 2.457911 34.137653 43 23 15
9.956357 2.454992 34.097115 27 23 25
10.020616 2.454028 34.083729 21 37 44
10.084022 2.452870 34.067642 34 27 25
10.138775 2.449637 34.022736 22 15 16
10.193991 2.446558 33.979969 29 16 16
10.236155 2.440408 33.894554 34 42 16
10.280017 2.434741 33.815845 35 40 32
10.320492 2.428351 33.727097 26 38 27
10.355740 2.420822 33.622532 15 21 17
10.402203 2.415995 33.555492 24 29 39
10.434411 2.407941 33.443626 23 25 32
10.472078 2.401241 33.350567 42 26 16
10.508545 2.394352 33.254890 18 36 44
10.536795 2.385689 33.134575 34 33 44
10.578002 2.380050 33.056255 39 37 37
10.610404 2.372513 32.951565 32 30 32
10.657176 2.368261 32.892517 27 39 42
10.699692 2.363122 32.821140 39 38 22
10.722421 2.353702 32.690308 27 44 39
10.751304 2.345739 32.579708 17 43 16
10.755260 2.332466 32.395363 40 33 43
10.767987 2.321243 32.239483 42 37 16
10.779657 2.309927 32.082314 42 42 44
10.782476 2.296859 31.900818 39 15 32
10.809426 2.289055 31.792429 35 26 29
10.820676 2.278037 31.639402 31 15 37
10.844748 2.269831 31.525431 30 44 41
10.872990 2.262588 31.424828 44 22 21
6.298186 2.876949 38.877689 30 33 17
6.337453 2.859582 38.643005 43 40 39
6.377133 2.842818 38.416462 32 17 21
6.411018 2.823901 38.160824 38 24 28
6.462546 2.813108 38.014977 33 15 44
6.507682 2.799816 37.835358 15 33 44
6.562104 2.790780 37.713242 25 27 39
6.622914 2.784634 37.630196 44 31 22
6.683120 2.778376 37.545620 41 24 24
6.753584 2.776474 37.519913 32 16 44
6.816665 2.771611 37.454201 27 35 26
6.879013 2.766560 37.385941 35 40 25
6.939494 2.760874 37.309105 20 34 34
6.996579 2.753972 37.215843 22 21 22
7.059388 2.749446 37.154675 43 37 23
7.114809 2.742166 37.056297 27 15 34
7.175521 2.737054 36.987221 42 37 37
7.232451 2.730619 36.900261 32 22 29
7.278542 2.720263 36.760315 26 21 22
7.329376 2.711869 36.646881 23 41 23
7.366850 2.698747 36.469555 43 43 34
7.411144 2.688356 36.329136 25 24 34
7.454669 2.677891 36.187714 33 42 40
7.490789 2.664992 36.013409 15 41 20
7.539669 2.656836 35.903187 120 120 120
7.577977 2.645143 35.745174 120 120 120
7.622771 2.635912 35.620426 120 120 120
7.671523 2.628207 35.516312 24 17 42
7.717782 2.619798 35.402672 15 43 38
7.776452 2.615716 35.347511 16 19 16
7.835758 2.611919 35.296207 35 33 43
7.902185 2.610543 35.277611 38 31 40
7.972426 2.610440 35.276222 25 27 31
8.039775 2.609401 35.262173 16 41 37
8.108441 2.608803 35.254089 34 33 27
8.175225 2.607615 35.238037 18 24 29
8.242989 2.606757 35.226448 17 39 35
8.309149 2.605411 35.208260 17 33 16
8.371971 2.603050 35.176350 43 27 40
8.435587 2.600973 35.148277 32 40 40
8.494449 2.597476 35.101028 28 21 38
8.554678 2.594451 35.060154 27 23 25
8.614707 2.591416 35.019135 30 32 41
8.672846 2.587865 34.971153 40 26 34
8.735542 2.585721 34.942169 28 36 20
8.797293 2.583332 34.909893 32 43 34
8.863139 2.582174 34.894249 24 16 25
8.929746 2.581255 34.881821 27 32 39
8.993621 2.579566 34.858997 38 44 34
9.058987 2.578327 34.842258 22 41 38
9.118365 2.575416 34.802921 37 23 39
9.178711 2.572821 34.767845 34 38 15
9.235438 2.569257 34.719692 17 20 22
9.285919 2.564022 34.648952 28 43 43
9.340025 2.559859 34.592686 21 31 26
9.385742 2.553474 34.506405 17 26 35
9.436080 2.548430 34.438248 41 16 43
9.486587 2.543505 34.371693 19 35 29
9.533125 2.537594 34.291817 39 30 28
9.588223 2.534030 34.243652 29 26 18
9.636042 2.528607 34.170361 30 24 19
9.687546 2.524220 34.111076 31 31 29
9.740338 2.520227 34.057125 37 17 30
9.789928 2.515468 33.992805 18 17 21
9.847133 2.512717 33.955631 28 20 28
9.903464 2.509782 33.915974 19 16 23
9.967517 2.508831 33.903118 16 18 33
10.030850 2.507713 33.888008 38 21 44
10.085739 2.504512 33.844761 27 41 22
10.141015 2.501450 33.803383 16 42 29
10.183770 2.495361 33.721092 26 21 23
10.228226 2.489766 33.645481 42 35 31
10.269401 2.483450 33.560135 33 32 34
10.305500 2.475997 33.459415 24 39 38
10.352383 2.471214 33.394783 34 25 24
10.385184 2.463153 33.285847 15 39 21
10.423078 2.456394 33.194515 37 15 27
10.459716 2.449427 33.100368 19 29 33
10.488431 2.440704 32.982487 24 22 21
10.529919 2.435044 32.905998 24 27 41
10.562816 2.427479 32.803776 30 39 28
10.609739 2.423212 32.746109 22 33 43
10.652575 2.418069 32.676609 31 43 18
10.676078 2.408627 32.549019 16 25 16
10.705567 2.400642 32.441113 31 37 22
10.711150 2.387425 32.262501 28 44 43
10.725547 2.376319 32.112415 29 29 36
10.738938 2.365123 31.961124 25 20 36
10.743485 2.352124 31.785460 28 23 34
10.771244 2.344329 31.680128 17 20 22
10.783500 2.333272 31.530701 19 21 24
10.808197 2.325019 31.419176 17 17 42
10.836695 2.317675 31.319927 21 20 26
6.261573 2.937528 38.651684 21 21 38
6.300558 2.919771 38.418037 22 30 35
6.340359 2.902815 38.194935 26 44 27
6.374998 2.883928 37.946415 42 36 22
6.427307 2.873384 37.807686 29 30 18
6.473741 2.860490 37.638031 32 32 18
6.529650 2.852031 37.526726 42 30 41
6.590905 2.846073 37.448326 19 31 15
6.649322 2.839036 37.355743 27 35 42
6.716595 2.835896 37.314415 36 17 20
6.777297 2.830080 37.237896 24 30 26
6.839433 2.824983 37.170834 24 36 17
6.900319 2.819485 37.098488 31 40 33
6.956927 2.812375 37.004929 30 22 44
7.018914 2.807566 36.941654 17 20 24
7.073578 2.799958 36.841553 36 26 20
7.133662 2.794630 36.771454 44 31 34
7.190256 2.788058 36.684978 36 43 21
7.236372 2.777597 36.547333 37 23 27
7.287374 2.769202 36.436871 15 23 35
7.325390 2.756087 36.264305 30 30 41
7.370013 2.745691 36.127514 40 17 38
7.413983 2.735256 35.990208 36 26 20
7.450704 2.722372 35.820690 44 19 42
7.499838 2.714227 35.713512 120 120 120
7.539388 2.702800 35.563152 120 120 120
7.585633 2.693963 35.446884 120 120 120
7.635923 2.686714 35.351498 23 40 38
7.683905 2.678793 35.247272 30 34 16
7.743467 2.675016 35.197578 28 31 19
7.802659 2.671181 35.147114 21 38 29
7.867516 2.669336 35.122841 31 44 44
7.935898 2.668709 35.114594 40 40 43
8.002570 2.667523 35.098991 16 40 39
8.071476 2.667096 35.093372 37 19 18
8.138450 2.666044 35.079525 34 24 38
8.206035 2.665208 35.068527 17 33 32
8.271926 2.663841 35.050533 23 34 44
8.334531 2.661447 35.019039 24 34 26
8.397900 2.659335 34.991249 20 35 33
8.456327 2.655706 34.943501 27 16 19
8.516069 2.652546 34.901920 21 21 18
8.575434 2.649321 34.859489 31 29 15
8.632733 2.645515 34.809406 15 38 20
8.694665 2.643178 34.778660 29 25 20
8.755406 2.640519 34.743675 42 30 27
8.820375 2.639167 34.725887 18 35 19
8.886125 2.638068 34.711426 28 29 42
8.949157 2.636186 34.686653 25 43 43
9.013962 2.634851 34.669086 26 15 15
9.072101 2.631602 34.626339 24 29 29
9.130728 2.628543 34.586090 31 39 22
9.185960 2.624560 34.533684 41 31 17
9.235809 2.619110 34.461975 33 15 28
9.290141 2.615003 34.407928 18 29 36
9.336111 2.608619 34.323936 20 39 20
9.386382 2.603522 34.256870 28 27 24
9.436727 2.598519 34.191040 36 35 18
9.483100 2.592502 34.111870 38 36 22
9.537886 2.588855 34.063877 26 19 15
9.585392 2.583297 33.990753 31 25 25
9.636510 2.578784 33.931374 24 38 18
9.688956 2.574688 33.877468 33 18 15
9.738379 2.569850 33.813816 23 34 36
9.795472 2.567089 33.777489 34 26 21
9.851731 2.564149 33.738804 23 24 22
9.915511 2.563193 33.726227 20 18 41
9.978641 2.562083 33.711624 38 39 26
10.033548 2.558891 33.669624 32 19 34
10.088845 2.555841 33.629482 39 16 35
10.132126 2.549807 33.550087 35 29 42
10.177131 2.544283 33.477406 25 30 18
10.219007 2.538054 33.395447 17 36 44
10.255958 2.530691 33.298565 36 15 30
10.303274 2.525964 33.236366 43 44 43
10.336832 2.517946 33.130871 43 18 27
10.375181 2.511190 33.041977 37 19 27
10.412263 2.504215 32.950199 17 19 35
10.441880 2.495544 32.836102 25 24 15
10.484001 2.489950 32.762505 26 36 43
10.517342 2.482354 32.662552 43 42 16
10.563836 2.477937 32.604431 40 33 35
10.606344 2.472645 32.534798 27 15 23
10.630422 2.463147 32.409824 44 24 23
10.660707 2.455193 32.305172 20 36 22
10.668180 2.442113 32.133072 27 23 44
10.684456 2.431194 31.989389 16 40 40
10.699776 2.420187 31.844572 29 29 44
10.706294 2.407332 31.675425 24 27 15
10.734984 2.399585 31.573483 27 22 19
10.748433 2.388541 31.428165 37 40 34
10.773893 2.380279 31.319456 16 37 27
10.802765 2.372862 31.221865 31 36 20
6.215387 2.992594 38.366589 40 36 38
6.254141 2.974530 38.135006 19 18 18
6.293895 2.957372 37.915031 31 31 37
6.329247 2.938579 37.674088 37 18 39
6.382247 2.928325 37.542629 20 15 26
6.429872 2.915872 37.382977 38 24 31
6.487163 2.908038 37.282543 20 23 17
6.548716 2.902272 37.208614 35 42 16
6.605270 2.894444 37.108261 30 24 30
6.669295 2.890028 37.051640 16 20 35
6.727161 2.883069 36.962425 33 21 16
6.788315 2.877655 36.893017 35 18 32
6.848780 2.872069 36.821396 34 31 34
6.904295 2.864548 36.724976 16 36 37
6.965227 2.859409 36.659092 15 15 44
7.018916 2.851435 36.556854 34 38 28
7.078156 2.845857 36.485340 19 22 34
7.134343 2.839177 36.399708 30 42 42
7.180552 2.828702 36.265415 22 42 25
7.231866 2.820428 36.159332 41 34 27
7.270738 2.807513 35.993752 37 19 33
7.315902 2.797256 35.862263 34 37 36
7.360557 2.787007 35.730858 44 27 42
7.398346 2.774380 35.568974 30 32 15
7.448075 2.766428 35.467026 120 120 120
7.489042 2.755402 35.325672 120 120 120
7.536547 2.746966 35.217510 120 120 120
7.588052 2.740130 35.129871 17 22 28
7.637504 2.732685 35.034420 22 41 32
7.697757 2.729205 34.989803 34 38 16
7.757123 2.725476 34.941998 18 21 22
7.821099 2.723418 34.915619 19 36 26
7.888371 2.722535 34.904297 19 31 32
7.954755 2.721364 34.889278 15 28 16
8.023789 2.721111 34.886040 40 40 41
8.090948 2.720232 34.874775 32 19 27
8.158415 2.719472 34.865021 20 24 16
8.224099 2.718134 34.847878 17 16 43
8.286597 2.715775 34.817635 33 29 29
8.349754 2.713670 34.790642 36 22 16
8.407787 2.709948 34.742920 15 42 30
8.467005 2.706666 34.700840 15 26 17
8.525636 2.703250 34.657055 22 19 28
8.582029 2.699186 34.604954 19 26 21
8.643096 2.696646 34.572384 25 32 22
8.702707 2.693695 34.534554 44 17 19
8.766658 2.692123 34.514400 22 33 28
8.831421 2.690824 34.497738 15 18 24
8.893500 2.688733 34.470932 20 41 25
8.957673 2.687302 34.452587 20 41 41
9.014477 2.683699 34.406403 29 28 39
9.071296 2.680156 34.360970 37 29 28
9.124899 2.675722 34.304131 40 28 15
9.173853 2.670002 34.230793 37 33 27
9.228117 2.665900 34.178211 32 22 19
9.274053 2.659471 34.095783 39 29 35
9.324136 2.654316 34.029694 21 35 35
9.374192 2.649228 33.964462 24 21 37
9.420174 2.643070 33.885517 17 41 20
9.474417 2.639302 33.837204 26 31 38
9.521286 2.633547 33.763424 36 31 28
9.571721 2.628853 33.703243 44 43 22
9.623515 2.624595 33.648655 20 18 39
9.672434 2.619617 33.584839 36 33 22
9.729165 2.616810 33.548843 18 37 21
9.784964 2.613792 33.510151 37 37 29
9.848076 2.612755 33.496857 16 36 38
9.910653 2.611591 33.481937 19 32 38
9.965266 2.608358 33.440491 23 16 26
10.020392 2.605302 33.401306 34 40 33
10.064159 2.599352 33.325031 36 25 20
10.109785 2.593958 33.255871 26 42 17
10.152501 2.587892 33.178108 34 30 17
10.190432 2.580694 33.085819 18 30 37
10.238210 2.576066 33.026485 18 30 30
10.272704 2.568176 32.925335 17 21 30
10.311706 2.561507 32.839828 27 18 36
10.349395 2.554598 32.751251 40 23 36
10.379993 2.546036 32.641487 42 25 24
10.422649 2.540521 32.570778 32 25 40
10.456112 2.532847 32.472397 24 24 29
10.501705 2.528188 32.412670 16 39 17
10.543427 2.522660 32.341801 17 32 20
10.567836 2.513083 32.219013 32 18 34
10.598915 2.505198 32.117924 22 40 31
10.608345 2.492322 31.952847 17 42 37
10.626447 2.481625 31.815710 19 37 18
10.643810 2.470885 31.678007 25 37 34
10.652685 2.458312 31.516819 15 16 19
10.682725 2.450743 31.419781 35 27 39
10.697962 2.439886 31.280590 21 27 22
10.724633 2.431748 31.176258 32 37 22
10.754239 2.424366 31.081615 29 22 15
6.186517 3.055070 38.188374 18 33 27
6.225492 3.036826 37.960320 34 31 18
6.265354 3.019448 37.743099 16 30 30
6.301058 3.000504 37.506298 42 42 42
6.354188 2.990206 37.377579 22 35 28
6.402111 2.977726 37.221577 21 36 40
6.459890 2.970064 37.125805 21 40 31
6.521300 2.964227 37.052841 41 36 21
6.576422 2.955695 36.946190 40 44 40
6.638364 2.950384 36.879803 18 18 25
6.694299 2.942549 36.781860 30 39 16
6.754672 2.936814 36.710175 25 33 26
6.814689 2.931049 36.638111 22 16 18
6.869309 2.923110 36.538879 21 44 35
6.929442 2.917660 36.470745 33 29 42
6.982362 2.909318 36.366470 44 18 27
7.040965 2.903491 36.293636 44 16 27
7.096885 2.896688 36.208595 41 32 37
7.143223 2.886151 36.076885 24 27 32
7.194862 2.877945 35.974312 37 17 40
7.234488 2.865144 35.814297 42 20 42
7.280172 2.854969 35.687119 38 25 24
7.325471 2.844843 35.560539 35 16 15
7.364274 2.832413 35.405163 32 36 26
7.414662 2.824633 35.307915 120 120 120
7.456502 2.813774 35.172180 120 120 120
7.504437 2.805397 35.067463 120 120 120
7.556215 2.798598 34.982479 33 38 23
7.606138 2.791243 34.890541 40 39 36
7.666539 2.787832 34.847904 44 27 17
7.726221 2.784224 34.802795 15 28 17
7.790364 2.782273 34.778412 35 32 40
7.857711 2.781490 34.768631 23 39 38
7.924226 2.780430 34.755379 33 33 39
7.993175 2.780235 34.752934 39 19 29
8.060347 2.779430 34.742874 36 40 36
8.127777 2.778727 34.734089 41 30 24
8.193413 2.777428 34.717850 42 24 38
8.255932 2.775103 34.688789 41 19 16
8.319018 2.773006 34.662575 30 39 15
8.376865 2.769212 34.615147 40 30 15
8.435777 2.765829 34.572857 15 35 21
8.493953 2.762261 34.528263 36 21 15
8.549824 2.758008 34.475098 31 16 16
8.610394 2.755326 34.441578 22 32 42
8.669336 2.752170 34.402126 22 37 20
8.732667 2.750446 34.380577 39 28 30
8.796812 2.749004 34.362545 20 31 32
8.858301 2.746760 34.334499 21 17 23
8.922088 2.745258 34.315723 42 29 26
8.978094 2.741403 34.267536 38 22 37
9.033853 2.737531 34.219139 34 22 37
9.086480 2.732776 34.159698 33 38 17
9.134852 2.726822 34.085270 31 36 20
9.188984 2.722662 34.033276 32 23 36
9.234797 2.716117 33.951458 21 34 30
9.284683 2.710856 33.885704 36 27 32
9.334472 2.705644 33.820549 16 43 38
9.380078 2.699303 33.741287 27 42 25
9.433891 2.695397 33.692467 17 36 22
9.480232 2.689427 33.617844 44 31 18
9.530163 2.684553 33.556911 23 15 22
9.581482 2.680135 33.501686 36 23 20
9.629985 2.674996 33.437447 25 35 22
9.686410 2.672113 33.401413 29 24 23
9.741743 2.668971 33.362133 26 15 35
9.804231 2.667818 33.347725 33 44 17
9.866239 2.666551 33.331890 15 25 19
9.920443 2.663206 33.290077 31 32 36
9.975347 2.660092 33.251156 35 44 15
10.019307 2.654121 33.176514 28 25 36
10.065273 2.648756 33.109451 15 19 30
10.108500 2.642745 33.034313 31 27 22
10.147004 2.635585 32.944817 33 40 16
10.195027 2.630975 32.887184 16 44 37
10.230174 2.623122 32.789021 16 24 36
10.269738 2.616494 32.706173 31 26 43
10.307946 2.609607 32.620083 35 25 38
10.339251 2.601069 32.513367 40 22 36
10.382249 2.595562 32.444527 29 19 16
10.415529 2.587709 32.346363 16 23 39
10.460098 2.582740 32.284252 18 28 19
10.500837 2.576892 32.211155 18 31 44
10.525165 2.567113 32.088917 41 26 20
10.556732 2.559208 31.990097 42 35 18
10.567317 2.546342 31.829269 40 39 20
10.586414 2.535668 31.695850 32 17 37
10.604991 2.524998 31.562473 17 42 34
10.615446 2.512532 31.406645 44 37 37
10.646513 2.505062 31.313274 42 29 20
10.663149 2.494304 31.178799 44 38 15
10.690806 2.486234 31.077925 30 17 35
10.721093 2.478865 30.985817 15 38 41
6.143441 3.109643 37.922474 40 42 43
6.183789 3.091894 37.706028 18 38 15
6.224718 3.074861 37.498302 38 38 33
6.261247 3.056085 37.269329 15 18 18
6.314251 3.045698 37.142654 40 37 43
6.361765 3.032935 36.987007 43 37 31
6.419082 3.025085 36.891277 17 18 24
6.479369 3.018797 36.814598 23 39 44
6.532409 3.009312 36.698929 25 18 22
6.592085 3.003061 36.622696 16 30 38
6.645894 2.994304 36.515900 15 19 21
6.705266 2.988216 36.441662 31 17 32
6.764659 2.982269 36.369137 17 36 44
6.818138 2.973869 36.266689 16 28 21
6.877220 2.968063 36.195892 29 20 15
6.929283 2.959381 36.090015 29 39 20
6.987190 2.953348 36.016441 15 23 23
7.042922 2.946528 35.933273 31 19 25
7.089672 2.936127 35.806423 30 21 22
7.141875 2.928169 35.709373 16 29 33
7.182631 2.915721 35.557579 42 19 32
7.229041 2.905791 35.436474 29 23 15
7.275136 2.895928 35.316193 23 15 27
7.315203 2.883878 35.169247 18 36 26
7.366338 2.876380 35.077801 120 120 120
7.409138 2.865799 34.948765 120 120 120
7.457515 2.857553 34.848202 120 120 120
7.509423 2.850799 34.765846 43 25 41
7.559522 2.843490 34.676704 34 26 19
7.619697 2.840069 34.634987 19 25 32
7.679245 2.836478 34.591194 23 28 15
7.743196 2.834563 34.567841 29 28 42
7.810315 2.833831 34.558914 20 15 17
7.876606 2.832814 34.546516 26 22 38
7.945219 2.832643 34.544430 35 44 38
8.012250 2.831916 34.535561 25 22 20
8.079572 2.831303 34.528084 33 30 16
8.145180 2.830105 34.513474 31 39 27
8.207842 2.827912 34.486732 35 31 28
8.270945 2.825906 34.462269 40 39 16
8.328739 2.822135 34.416279 29 32 42
8.387349 2.818699 34.374382 39 34 24
8.445043 2.815014 34.329445 39 18 40
8.500423 2.810624 34.275898 39 26 32
8.560463 2.807832 34.241852 32 30 25
8.618688 2.804494 34.201141 19 22 22
8.681326 2.802633 34.178448 43 43 15
8.744671 2.801027 34.158871 34 44 24
8.805153 2.798537 34.128502 39 27 31
8.868044 2.796845 34.107861 21 23 36
8.922944 2.792677 34.057037 33 31 38
8.977654 2.788514 34.006264 39 39 35
9.029444 2.783513 33.945278 17 35 23
9.077217 2.777357 33.870213 23 23 27
9.131091 2.773146 33.818855 35 33 37
9.176602 2.766476 33.737507 25 43 16
9.226119 2.761101 33.671967 27 26 15
9.275419 2.755740 33.606590 44 28 39
9.320341 2.749165 33.526405 44 26 29
9.373420 2.745073 33.476501 30 38 42
9.418879 2.738823 33.400280 28 17 39
9.468025 2.733725 33.338116 19 16 26
9.518580 2.729103 33.281750 29 25 36
9.566363 2.723756 33.216537 25 40 33
9.622248 2.720773 33.180164 29 33 22
9.676776 2.717451 33.139645 40 29 30
9.738258 2.716113 33.123325 38 40 41
9.799381 2.714693 33.106018 41 34 16
9.852910 2.711204 33.063457 33 33 37
9.907451 2.708037 33.024837 41 23 36
9.951739 2.702128 32.952778 40 30 43
9.998225 2.696890 32.888897 21 18 36
10.042360 2.691090 32.818169 44 43 40
10.082005 2.684170 32.733784 27 27 44
10.130715 2.679738 32.679726 21 19 44
10.167396 2.672200 32.587807 16 26 35
10.208305 2.665863 32.510525 17 43 40
10.247878 2.659259 32.429993 37 39 35
10.280975 2.651069 32.330109 35 27 40
10.325006 2.645783 32.265644 28 23 15
10.358526 2.637885 32.169334 17 25 34
10.401843 2.632565 32.104454 21 40 21
10.441181 2.626309 32.028164 21 22 33
10.465367 2.616342 31.906607 42 24 27
10.497484 2.608466 31.810558 23 37 17
10.509111 2.595624 31.653948 37 17 30
10.528919 2.584944 31.523710 36 39 24
10.548317 2.574292 31.393801 19 16 35
10.559894 2.561868 31.242290 37 18 34
10.591598 2.554444 31.151758 20 38 31
10.609305 2.543752 31.021360 34 23 32
10.637723 2.535736 30.923615 42 35 32
10.668592 2.528395 30.834080 25 18 37
6.111466 3.168909 37.725101 22 26 21
6.153570 3.151828 37.521767 39 29 38
6.195860 3.135255 37.324459 27 40 30
6.233061 3.116531 37.101555 44 21 30
6.285574 3.105813 36.973965 20 37 44
6.332155 3.092448 36.814857 24 25 36
6.388469 3.084089 36.715340 26 43 39
6.447419 3.077177 36.633060 33 22 17
6.498861 3.066878 36.510456 31 21 18
6.557204 3.060028 36.428909 31 28 21
6.609674 3.050619 36.316891 16 15 30
6.668266 3.044208 36.240574 18 25 42
6.727073 3.038033 36.167057 34 39 38
6.779670 3.029214 36.062073 37 44 24
6.837978 3.023106 35.989357 30 30 38
6.889472 3.014144 35.882668 27 26 31
6.946967 3.007965 35.809109 34 25 27
7.002693 3.001154 35.728024 17 27 33
7.049883 2.990859 35.605469 16 36 42
7.102596 2.983090 35.512981 24 41 39
7.144299 2.970897 35.367817 19 27 27
7.191328 2.961135 35.251606 39 37 42
7.238049 2.951438 35.136162 19 22 33
7.279036 2.939611 34.995365 20 40 21
7.330654 2.932262 34.907875 120 120 120
7.374061 2.921798 34.783306 120 120 120
7.422723 2.913592 34.685623 120 120 120
7.474598 2.906788 34.604618 25 44 40
7.524539 2.899364 34.516235 43 20 29
7.584240 2.895801 34.473816 20 26 41
7.643244 2.892038 34.429028 38 27 17
7.706703 2.890014 34.404926 30 36 20
7.773343 2.889207 34.395321 44 28 32
7.839147 2.888107 34.382225 23 27 41
7.907361 2.887906 34.379829 36 17 39
7.974134 2.887187 34.371269 39 24 38
8.041298 2.886620 34.364521 40 44 37
8.106885 2.885501 34.351208 20 43 17
8.169687 2.883419 34.326416 37 44 30
8.232859 2.881501 34.303577 25 22 30
8.290725 2.877772 34.259193 25 16 35
8.349193 2.874312 34.218002 27 29 17
8.406626 2.870555 34.173275 35 37 16
8.461748 2.866076 34.119953 26 39 31
8.521457 2.863209 34.085827 42 40 17
8.579224 2.859741 34.044540 38 29 42
8.641419 2.857792 34.021336 26 42 22
8.704137 2.856045 34.000534 25 40 16
8.763666 2.853287 33.967697 33 17 21
8.825597 2.851347 33.944603 27 37 30
8.879598 2.846894 33.891594 38 39 23
8.933796 2.842572 33.840137 41 23 32
8.985267 2.837453 33.779198 31 19 23
9.032650 2.831129 33.703918 41 43 17
9.086209 2.826821 33.652626 41 41 20
9.131333 2.819970 33.571075 25 30 38
9.180470 2.814451 33.505363 37 19 25
9.229272 2.808909 33.439392 41 36 36
9.273534 2.802075 33.358036 23 41 32
9.325934 2.797780 33.306908 22 26 24
9.370601 2.791243 33.229080 30 16 25
9.419075 2.785924 33.165756 24 43 32
9.469007 2.781107 33.108418 41 20 21
9.516156 2.775546 33.042210 34 19 29
9.571580 2.772458 33.005447 20 42 33
9.625428 2.768959 32.963795 42 41 17
9.686099 2.767457 32.945915 36 42 27
9.746528 2.765907 32.927460 17 16 37
9.799570 2.762295 32.884464 23 40 32
9.853869 2.759083 32.846230 21 30 23
9.898529 2.753233 32.776585 27 31 30
9.945524 2.748105 32.715538 15 32 20
9.990541 2.742501 32.648827 32 18 38
10.031448 2.735850 32.569637 24 37 18
10.081033 2.731635 32.519463 15 25 43
10.119500 2.724481 32.434296 41 37 39
10.161923 2.718476 32.362812 19 34 20
10.203134 2.712225 32.288399 43 30 36
10.238553 2.704524 32.196709 17 23 25
10.284176 2.699596 32.138050 32 40 16
10.318466 2.691774 32.044926 16 21 22
10.360901 2.686160 31.978090 32 44 32
10.398889 2.679468 31.898434 37 30 35
10.422729 2.669236 31.776613 40 16 39
10.455047 2.661285 31.681961 33 23 25
10.466892 2.648250 31.526783 19 36 42
10.486612 2.637351 31.397041 32 18 18
10.505884 2.626471 31.267513 26 36 28
10.517393 2.613790 31.116547 19 44 39
10.548935 2.606207 31.026279 18 43 25
10.566655 2.595319 30.896652 32 15 37
10.594917 2.587131 30.799177 23 39 24
10.626016 2.579726 30.711029 39 24 40
6.123604 3.211158 37.339050 32 17 33
6.167672 3.195300 37.154652 36 31 21
6.205883 3.176821 36.939777 42 44 24
6.258048 3.165836 36.812046 32 33 44
6.303430 3.151715 36.647846 29 22 37
6.358008 3.142464 36.540276 44 27 23
6.415030 3.134617 36.449036 30 39 43
6.465020 3.123549 36.320339 35 22 36
6.522706 3.116404 36.237255 39 42 20
6.574550 3.106656 36.123901 19 21 42
6.632667 3.100051 36.047104 18 28 15
6.691106 3.093737 35.973686 36 17 29
6.743155 3.084635 35.867847 44 29 24
6.800912 3.078308 35.794273 35 26 43
6.852096 3.069168 35.688000 31 38 29
6.909381 3.062922 35.615368 26 25 28
6.965222 3.056169 35.536846 44 17 43
7.012936 3.046023 35.418869 21 36 31
7.066156 3.038447 35.330780 25 35 40
7.108654 3.026457 35.191357 21 24 43
7.156110 3.016792 35.078972 34 27 35
7.203188 3.007156 34.966934 39 26 29
7.244777 2.995437 34.830658 26 29 37
7.296668 2.988159 34.746040 120 120 120
7.340351 2.977690 34.624298 120 120 120
7.389044 2.969429 34.528244 120 120 120
7.440633 2.962474 34.447376 31 25 28
7.490078 2.954802 34.358158 19 27 38
7.549086 2.951006 34.314026 36 26 32
7.607370 2.946999 34.267433 26 24 38
7.670313 2.944852 34.242470 23 36 24
7.736503 2.943979 34.232315 15 15 23
7.801761 2.942770 34.218250 36 41 22
7.869494 2.942506 34.215191 25 29 26
7.936002 2.941794 34.206905 23 25 18
8.003044 2.941290 34.201042 19 38 41
8.068694 2.940287 34.189381 30 16 26
8.131735 2.938358 34.166954 35 42 24
8.195077 2.936569 34.146152 18 22 44
8.253166 2.932943 34.103992 33 22 22
8.311597 2.929497 34.063923 38 33 34
8.368909 2.925716 34.019955 34 30 33
8.424018 2.921232 33.967815 21 36 22
8.483601 2.918359 33.934402 30 19 19
8.541205 2.914856 33.893669 19 40 29
8.603231 2.912905 33.870987 36 38 19
8.665543 2.911081 33.849777 33 38 38
8.724239 2.908080 33.814880 18 34 42
8.785200 2.905874 33.789230 33 33 17
8.838536 2.901199 33.734871 43 29 17
8.892644 2.896846 33.684258 36 35 43
8.944205 2.891736 33.624832 38 38 32
8.991502 2.885333 33.550381 18 23 29
9.044830 2.880946 33.499371 37 28 36
9.089665 2.873938 33.417885 35 17 38
9.138483 2.868283 33.352127 35 42 27
9.186848 2.862569 33.285683 18 36 31
9.230510 2.855482 33.203274 36 15 22
9.282283 2.850987 33.151012 34 44 23
9.326226 2.844168 33.071724 16 24 37
9.374104 2.838637 33.007408 22 29 35
9.423459 2.833628 32.949158 28 29 44
9.469962 2.827836 32.881813 20 28 28
9.524879 2.824619 32.844410 27 19 18
9.577996 2.820917 32.801357 34 23 30
9.637848 2.819234 32.781796 31 35 30
9.697549 2.817531 32.761990 32 20 31
9.749990 2.813755 32.718086 33 30 30
9.803945 2.810464 32.679817 26 41 19
9.848793 2.804623 32.611897 36 26 29
9.896137 2.799565 32.553082 44 31 31
9.941900 2.794129 32.489868 28 23 36
9.983836 2.787694 32.415051 30 16 29
10.034138 2.783664 32.368187 16 29 20
10.074199 2.776863 32.289101 34 37 41
10.118097 2.771199 32.223240 30 28 44
10.160830 2.765289 32.154526 16 43 33
10.198108 2.757979 32.069523 34 36 31
10.244789 2.753287 32.014965 33 32 44
10.279654 2.745498 31.924391 41 17 31
10.321519 2.739662 31.856539 27 15 22
10.358657 2.732652 31.775021 30 29 40
10.382464 2.722231 31.653852 27 39 15
10.415074 2.714231 31.560829 36 41 21
10.427024 2.700976 31.406700 26 41 34
10.446474 2.689811 31.276869 28 30 24
10.465307 2.678620 31.146746 18 19 36
10.476355 2.665581 30.995132 23 27 43
10.507468 2.657771 30.904318 19 30 18
10.524906 2.646614 30.774580 34 28 33
10.553145 2.638286 30.677746 23 28 31
6.083047 3.264074 37.091747 21 27 33
6.129356 3.249297 36.923832 32 33 34
6.169417 3.231599 36.722721 26 22 20
6.221960 3.220779 36.599766 39 35 44
6.266362 3.206046 36.432339 29 18 44
6.318577 3.195602 36.313660 44 40 35
6.372856 3.186428 36.209412 34 22 31
6.421109 3.174481 36.073647 16 40 37
6.478235 3.167137 35.990192 41 16 23
6.529716 3.157225 35.877560 28 25 17
6.587636 3.150609 35.802372 42 34 34
6.645992 3.144340 35.731140 23 38 21
6.697719 3.135103 35.626167 25 23 19
6.754946 3.128606 35.552345 16 35 34
6.805904 3.119372 35.447414 23 34 28
6.863021 3.113123 35.376396 20 19 21
6.918993 3.106487 35.300983 16 20 25
6.967321 3.096587 35.188492 21 16 28
7.021077 3.089274 35.105385 28 30 31
7.064293 3.077514 34.971748 36 18 29
7.111964 3.067906 34.862568 34 28 23
7.159140 3.058273 34.753105 44 43 25
7.201160 3.046645 34.620960 41 25 17
7.253245 3.039455 34.539261 120 120 120
7.297116 3.028992 34.420361 120 120 120
7.345739 3.020678 34.325882 120 120 120
7.396984 3.013586 34.245296 34 17 21
7.445903 3.005686 34.155518 26 33 37
7.504196 3.001678 34.109982 34 29 35
7.561837 2.997485 34.062328 36 44 21
7.624344 2.995278 34.037251 27 35 44
7.690174 2.994404 34.027317 35 28 33
7.754988 2.993153 34.013107 31 23 15
7.822253 2.992862 34.009796 40 21 19
7.888582 2.992221 34.002510 31 22 17
7.955582 2.991843 33.998215 19 27 32
8.021391 2.991027 33.988945 37 29 23
8.084787 2.989333 33.969692 26 37 23
8.148331 2.987721 33.951378 36 43 44
8.206679 2.984247 33.911896 24 37 29
8.265053 2.980839 33.873169 26 35 15
8.322196 2.977046 33.830067 44 43 33
8.377342 2.972605 33.779606 28 20 35
8.436848 2.969770 33.747391 19 20 29
8.494388 2.966294 33.707890 36 44 24
8.556299 2.964387 33.686218 21 29 24
8.618262 2.962527 33.665085 25 28 18
8.676235 2.959336 33.628819 16 23 17
8.736255 2.956886 33.600979 18 20 24
8.788990 2.952027 33.545765 28 22 15
8.842991 2.947664 33.496178 40 20 21
8.894690 2.942604 33.438683 22 24 34
8.942083 2.936206 33.365982 34 38 29
8.995358 2.931820 33.316139 40 33 15
9.040119 2.924745 33.235733 26 37 33
9.088746 2.919013 33.170605 35 24 44
9.136756 2.913168 33.104187 24 24 16
9.179950 2.905884 33.021404 19 36 33
9.231160 2.901222 32.968430 36 34 34
9.274429 2.894148 32.888046 33 40 35
9.321717 2.888419 32.822948 16 42 27
9.370452 2.883216 32.763817 35 21 28
9.416254 2.877189 32.695328 21 39 42
9.470563 2.873826 32.657112 36 16 44
9.522799 2.869884 32.612324 30 35 40
9.581706 2.867994 32.590836 34 23 31
9.640501 2.866095 32.569260 31 42 22
9.692083 2.862092 32.523769 39 25 40
9.745459 2.858668 32.484863 37 42 35
9.790192 2.852771 32.417854 40 35 42
9.837715 2.847760 32.360905 35 17 36
9.883984 2.842453 32.300602 37 35 26
9.926491 2.836140 32.228867 37 41 21
9.977068 2.832200 32.184090 37 42 34
10.018140 2.825629 32.109425 40 17 36
10.063246 2.820273 32.048553 37 34 34
10.106989 2.814605 31.984142 39 31 36
10.144821 2.807372 31.901953 43 19 34
10.191205 2.802581 31.847517 20 43 42
10.225871 2.794648 31.757362 29 27 40
10.267398 2.788676 31.689501 34 19 17
10.304468 2.781574 31.608797 31 37 17
10.328956 2.771183 31.490719 26 21 16
10.362386 2.763303 31.401169 17 27 42
10.375243 2.750064 31.250731 37 43 32
10.394995 2.738801 31.122740 20 42 32
10.413899 2.727450 30.993748 24 41 16
10.425075 2.714221 30.843416 19 32 39
10.456019 2.706264 30.752996 22 37 17
10.474011 2.695067 30.625763 21 41 25
10.504103 2.687096 30.535183 38 26 18
6.055678 3.323238 36.924866 41 38 38
6.103635 3.309199 36.768883 38 26 37
6.145358 3.292156 36.579514 32 15 31
6.198654 3.281641 36.462673 33 29 33
6.242585 3.266469 36.294102 41 29 43
6.292843 3.254919 36.165764 44 38 28
6.344899 3.244551 36.050564 28 29 39
6.392127 3.231974 35.910824 20 24 35
6.449320 3.224660 35.829556 26 20 20
6.501099 3.214829 35.720325 30 30 23
6.559223 3.208316 35.647953 40 18 35
6.617828 3.202175 35.579720 35 18 19
6.669678 3.192931 35.477013 28 34 21
6.726739 3.186350 35.403889 43 29 17
6.777731 3.177061 35.300682 15 16 27
6.834872 3.170817 35.231300 31 42 42
6.890987 3.164229 35.158096 17 24 31
6.939706 3.154412 35.049019 32 34 18
6.993773 3.147198 34.968864 26 16 40
7.037255 3.135410 34.837894 31 31 34
7.084809 3.125651 34.729454 16 27 44
7.131759 3.115817 34.620190 33 41 16
7.173755 3.104028 34.489204 24 33 34
7.225792 3.096768 34.408531 120 120 120
7.269573 3.086140 34.290440 120 120 120
7.317989 3.077659 34.196209 120 120 120
7.368915 3.070381 34.115349 34 27 34
7.417414 3.062235 34.024834 24 28 16
7.475232 3.058050 33.978329 26 34 36
7.532507 3.053719 33.930214 21 15 33
7.594840 3.051498 33.905537 20 24 29
7.660575 3.050672 33.896351 15 26 21
7.725197 3.049420 33.882442 35 18 24
7.792205 3.049124 33.879154 32 41 18
7.858499 3.048556 33.872841 20 16 24
7.925551 3.048289 33.869877 21 33 38
7.991538 3.047620 33.862450 23 26 19
8.055228 3.046095 33.845497 30 35 40
8.118939 3.044602 33.828911 16 17 17
8.177503 3.041220 33.791336 27 26 15
8.235880 3.037824 33.753605 33 44 36
8.292970 3.034014 33.711262 34 23 26
8.348255 3.029609 33.662319 42 23 16
8.407832 3.026820 33.631329 32 18 15
8.465526 3.023402 33.593357 28 32 30
8.527523 3.021563 33.572926 41 21 15
8.589445 3.019727 33.552521 39 29 36
8.647167 3.016454 33.516151 29 23 20
8.706709 3.013861 33.487343 25 42 31
8.759276 3.008912 33.432350 24 27 27
8.813390 3.004565 33.384052 17 42 41
8.865358 2.999557 33.328415 30 20 17
8.913044 2.993186 33.257626 38 21 37
8.966434 2.988811 33.209015 28 29 24
9.011353 2.981698 33.129974 15 41 36
9.059998 2.975912 33.065685 26 20 18
9.107905 2.969969 32.999657 29 20 30
9.150985 2.962549 32.917213 27 43 32
9.201958 2.957772 32.864136 19 18 37
9.244949 2.950516 32.783508 24 38 40
9.291986 2.944644 32.718262 42 30 35
9.340394 2.939285 32.658722 25 28 43
9.385805 2.933064 32.589600 30 35 40
9.439725 2.929570 32.550777 30 35 40
9.491390 2.925428 32.504761 30 35 40
9.549727 2.923386 32.482063 30 35 40
9.607940 2.921333 32.459255 30 35 40
9.658861 2.917106 32.412285 40 33 31
9.711730 2.913519 32.372433 41 33 17
9.756138 2.907458 32.305092 30 37 24
9.803578 2.902375 32.248611 23 20 27
9.849872 2.897021 32.189125 19 29 40
9.892272 2.890599 32.117767 43 38 18
9.942619 2.886567 32.072964 34 15 28
9.983733 2.879923 31.999146 34 28 32
10.029242 2.874623 31.940260 17 35 25
10.073115 2.868925 31.876945 32 34 33
10.110141 2.861361 31.792896 28 34 27
10.155244 2.856162 31.735136 18 39 29
10.189207 2.847915 31.643499 26 42 42
10.230851 2.841903 31.576700 36 31 28
10.268614 2.834893 31.498816 24 42 29
10.294057 2.824589 31.384319 18 21 41
10.328305 2.816811 31.297895 20 25 16
10.342130 2.803590 31.150995 27 40 32
10.362345 2.792249 31.024986 40 15 32
10.381503 2.780760 30.897329 16 28 21
10.392966 2.767358 30.748421 40 35 35
10.423879 2.759262 30.658466 29 31 41
10.442622 2.748058 30.533983 44 43 18
10.475106 2.740580 30.450890 27 32 15
6.062026 3.359677 36.518230 41 20 22
6.104935 3.343179 36.338898 22 33 21
6.158644 3.332913 36.227318 40 42 33
6.202251 3.317483 36.059601 15 26 15
6.251095 3.305177 35.925835 37 31 31
6.301560 3.293997 35.804317 24 16 40
6.348097 3.281039 35.663467 39 19 25
6.405244 3.273791 35.584690 38 30 26
6.457404 3.264182 35.480240 19 25 30
6.515869 3.257934 35.412331 44 31 34
6.574898 3.252100 35.348915 32 40 43
6.627214 3.243105 35.251141 19 26 15
6.684338 3.236627 35.180725 30 35 29
6.735643 3.227496 35.081474 18 18 26
6.792885 3.221368 35.014870 21 17 26
6.849109 3.214888 34.944435 23 39 21
6.898257 3.205251 34.839680 24 31 24
6.952547 3.198172 34.762737 17 34 40
6.996151 3.186366 34.634411 29 34 28
7.043394 3.176433 34.526443 22 31 31
7.089880 3.166354 34.416893 44 19 25
7.131617 3.154369 34.286621 32 24 24
7.183393 3.147010 34.206635 120 120 120
7.226846 3.136178 34.088894 120 120 120
7.274833 3.127498 33.994549 120 120 120
7.325235 3.120007 33.913124 23 22 28
7.373114 3.111589 33.821625 40 24 40
7.430306 3.107219 33.774117 32 34 17
7.487139 3.102778 33.725853 40 22 32
7.549257 3.100588 33.702042 40 33 44
7.614866 3.099857 33.694099 20 38 42
7.679253 3.098646 33.680935 30 37 42
7.745890 3.098356 33.677784 30 23 35
7.812163 3.097927 33.673115 40 24 19
7.879307 3.097847 33.672253 30 35 40
7.945570 3.097425 33.667667 30 35 40
8.009757 3.096209 33.654442 30 35 40
8.073755 3.094939 33.640644 30 35 40
8.132799 3.091808 33.606609 30 35 40
8.191292 3.088520 33.570869 20 26 32
8.248520 3.084813 33.530571 29 40 37
8.304290 3.080624 33.485039 20 40 29
8.364171 3.078015 33.456684 17 37 25
8.422480 3.074874 33.422539 43 27 33
8.484958 3.073292 33.405346 16 41 17
8.547151 3.071633 33.387310 37 28 37
8.604821 3.068386 33.352020 34 39 29
8.663851 3.065670 33.322502 37 27 28
8.716423 3.060729 33.268791 22 29 27
8.770953 3.056544 33.223309 41 31 24
8.823533 3.051748 33.171177 25 23 39
8.871885 3.045573 33.104050 30 33 16
8.925572 3.041306 33.057674 31 44 35
8.970827 3.034250 32.980980 44 41 17
9.019534 3.028457 32.918007 18 24 27
9.067282 3.022427 32.852470 24 27 31
9.110161 3.014873 32.770363 38 41 43
9.160773 3.009968 32.717045 40 35 20
9.203304 3.002496 32.635830 20 22 34
