ply
format ascii 1.0
element vertex 1289
property float x
property float y
property float z
property uchar red
property uchar green
property uchar blue
end_header
8.479798 2.534192 24.367235 30 43 25
4.451496 2.621437 24.730534 21 18 19
4.492803 2.616687 24.685728 42 29 34
4.538671 2.614669 24.666691 22 43 38
4.585870 2.613453 24.655216 43 42 27
4.630250 2.610673 24.628988 28 20 27
4.675736 2.608568 24.609135 31 32 24
4.718858 2.605203 24.577383 40 22 32
4.763395 2.602680 24.553581 43 39 41
4.807170 2.599796 24.526379 39 43 23
4.848546 2.595686 24.487606 28 22 31
4.891798 2.592653 24.458992 17 30 41
4.931163 2.587640 24.411699 40 36 29
4.972027 2.583504 24.372683 34 24 19
5.012439 2.579216 24.332228 35 21 21
5.050552 2.573839 24.281500 44 24 24
5.092178 2.570337 24.248465 120 120 120
5.131056 2.565528 24.203096 120 120 120
5.172142 2.561902 24.168886 120 120 120
5.214478 2.558957 24.141102 16 23 16
5.255951 2.555646 24.109865 27 21 38
5.300807 2.554025 24.094578 44 27 28
5.345677 2.552441 24.079628 35 32 41
5.392144 2.551640 24.072071 22 24 16
5.440079 2.551541 24.071144 17 19 43
5.488161 2.551513 24.070881 40 41 33
5.537051 2.551858 24.074137 40 25 27
5.586238 2.552333 24.078611 25 16 26
5.635354 2.552767 24.082710 19 29 32
5.684116 2.553035 24.085238 42 22 15
5.732397 2.553085 24.085703 33 30 36
5.780160 2.552904 24.084000 21 43 42
5.826383 2.552052 24.075964 25 42 37
5.872117 2.551002 24.066053 21 24 39
5.917233 2.549702 24.053791 22 34 20
5.961889 2.548227 24.039877 17 40 28
6.007689 2.547260 24.030754 40 28 43
6.052941 2.546078 24.019606 40 21 17
6.099331 2.545390 24.013115 17 23 16
6.145892 2.544783 24.007391 34 26 26
6.191487 2.543789 23.998013 15 40 34
6.237707 2.543065 23.991182 32 29 27
6.282944 2.541955 23.980703 21 16 43
6.328832 2.541122 23.972849 33 34 17
6.374563 2.540239 23.964521 35 32 37
6.419371 2.539005 23.952877 21 18 29
6.465038 2.538126 23.944586 38 38 28
6.509614 2.536835 23.932404 34 27 40
6.554280 2.535597 23.920729 30 20 37
6.600068 2.534809 23.913290 32 37 17
6.646917 2.534436 23.909773 16 41 36
6.695468 2.534713 23.912384 43 42 16
6.747231 2.536193 23.926352 44 38 23
6.800533 2.538227 23.945538 30 35 40
6.854489 2.540475 23.966743 30 35 40
6.907504 2.542345 23.984390 30 35 40
6.957549 2.543104 23.991549 30 35 40
7.008426 2.544155 24.001459 30 35 40
7.058883 2.545039 24.009806 21 19 21
7.108462 2.545598 24.015076 16 19 26
7.157924 2.546107 24.019880 20 37 21
7.206238 2.546204 24.020794 35 43 27
7.252083 2.545433 24.013519 41 25 19
7.295505 2.543827 23.998371 30 35 18
7.339454 2.542425 23.985144 18 26 22
7.386537 2.542120 23.982262 36 32 17
7.436530 2.542813 23.988806 25 27 26
7.488838 2.544285 24.002687 28 27 25
7.541376 2.545815 24.017120 33 40 31
7.594157 2.547407 24.032143 41 19 43
7.646002 2.548667 24.044031 16 20 21
7.695302 2.549069 24.047819 16 18 43
7.747545 2.550434 24.060699 22 42 31
7.801347 2.552293 24.078232 43 23 37
7.854640 2.553963 24.093987 31 27 24
7.906038 2.555000 24.103775 37 42 25
7.954252 2.555002 24.103794 39 23 22
8.001502 2.554696 24.100910 39 29 29
8.046579 2.553705 24.091555 39 17 15
8.093809 2.553404 24.088718 43 40 22
8.146326 2.554765 24.101557 30 33 29
8.201311 2.556879 24.121504 15 26 27
8.263235 2.561120 24.161507 40 39 19
8.324454 2.565093 24.198994 32 32 28
8.387494 2.569579 24.241312 32 39 23
8.450821 2.574101 24.283968 42 15 42
4.481568 2.659392 24.624001 42 32 26
4.526871 2.657076 24.602560 41 40 36
4.573035 2.655311 24.586208 30 17 30
4.616482 2.652022 24.555756 15 43 33
4.661293 2.649577 24.533123 37 19 23
4.703873 2.645929 24.499338 20 26 36
4.748228 2.643344 24.475403 23 42 28
4.792005 2.640492 24.449003 41 40 19
4.833245 2.636315 24.410328 20 30 28
4.876337 2.633222 24.381685 29 39 34
4.915637 2.628162 24.334835 28 17 25
4.956472 2.624015 24.296432 37 31 33
4.996914 2.619742 24.256866 42 29 33
5.035061 2.614359 24.207024 31 18 25
5.076647 2.610847 24.174511 120 120 120
5.115747 2.606135 24.130880 120 120 120
5.157104 2.602651 24.098618 120 120 120
5.199800 2.599900 24.073149 17 39 17
5.241751 2.596831 24.044727 38 44 22
5.286907 2.595391 24.031395 39 36 20
5.331969 2.593931 24.017878 41 31 44
5.378258 2.593088 24.010078 37 43 38
5.425974 2.592943 24.008734 16 15 28
5.474166 2.593026 24.009499 43 24 19
5.523265 2.593533 24.014196 42 35 15
5.572785 2.594228 24.020626 27 40 42
5.622114 2.594822 24.026129 26 22 20
5.671063 2.595232 24.029928 43 42 43
5.719596 2.595447 24.031916 26 27 43
5.767461 2.595357 24.031088 20 18 23
5.813813 2.594594 24.024019 40 40 19
5.859616 2.593600 24.014818 42 38 16
5.904687 2.592302 24.002794 16 36 15
5.949239 2.590798 23.988869 38 37 22
5.994841 2.589771 23.979362 15 27 18
6.039773 2.588474 23.967354 30 15 21
6.085860 2.587689 23.960079 21 16 28
6.132048 2.586958 23.953312 26 41 39
6.177163 2.585789 23.942492 39 34 15
6.222987 2.584933 23.934566 44 16 32
6.267699 2.583632 23.922516 39 31 44
6.313145 2.582650 23.913429 36 43 18
6.358460 2.581630 23.903984 40 32 23
6.402811 2.580237 23.891085 36 44 38
6.448177 2.579271 23.882135 36 16 18
6.492305 2.577827 23.868767 36 30 36
6.536568 2.576458 23.856089 31 30 40
6.581927 2.575537 23.847563 23 44 35
6.628222 2.574993 23.842524 29 43 19
6.676333 2.575157 23.844046 28 32 19
6.727522 2.576498 23.856461 30 35 40
6.780334 2.578437 23.874416 30 35 40
6.833845 2.580613 23.894564 30 35 40
6.886421 2.582408 23.911182 30 35 40
6.936208 2.583140 23.917959 30 35 40
6.986538 2.584062 23.926500 30 35 40
7.036342 2.584779 23.933136 30 35 40
7.085228 2.585151 23.936583 17 40 24
7.133993 2.585474 23.939575 16 39 23
7.181857 2.585469 23.939524 32 44 36
7.227328 2.584607 23.931549 41 26 15
7.270610 2.582980 23.916479 41 31 21
7.314502 2.581589 23.903601 17 16 15
7.361366 2.581258 23.900539 22 15 21
7.411082 2.581925 23.906717 37 30 39
7.463262 2.583437 23.920712 35 17 22
7.515772 2.585043 23.935579 41 31 28
7.568673 2.586762 23.951496 33 26 24
7.620806 2.588198 23.964800 37 35 27
7.670359 2.588746 23.969873 40 23 41
7.722920 2.590296 23.984222 19 18 31
7.776882 2.592294 24.002724 29 39 39
7.830169 2.594044 24.018923 26 40 26
7.881450 2.595112 24.028811 22 39 29
7.929372 2.595067 24.028399 24 19 29
7.976333 2.594711 24.025099 37 41 28
8.021249 2.593697 24.015717 32 19 19
8.068277 2.593375 24.012730 29 44 26
8.120585 2.594743 24.025398 41 25 31
8.175384 2.596887 24.045246 15 28 23
8.236145 2.600888 24.082294 34 15 40
8.294765 2.604171 24.112690 15 36 32
8.356345 2.608339 24.151285 23 37 34
4.518293 2.701153 24.555941 36 31 33
4.563565 2.698883 24.535295 35 21 39
4.606738 2.695432 24.503927 24 21 17
4.651731 2.693108 24.482796 36 22 29
4.694395 2.689497 24.449976 35 34 26
4.738612 2.686842 24.425837 34 41 35
4.782188 2.683881 24.398918 26 37 25
4.823245 2.679581 24.359823 20 44 23
4.866179 2.676398 24.330894 27 20 33
4.905387 2.671251 24.284096 24 40 29
4.946196 2.667066 24.246058 16 32 39
4.986657 2.662778 24.207075 27 26 38
5.024832 2.657363 24.157845 24 41 27
5.066407 2.653832 24.125750 120 120 120
5.105544 2.649103 24.082754 120 120 120
5.146902 2.645604 24.050945 120 120 120
5.189617 2.642861 24.026007 25 42 33
5.231643 2.639820 23.998363 18 32 16
5.276836 2.638418 23.985617 40 17 35
5.322068 2.637061 23.973278 21 32 25
5.368517 2.636325 23.966595 24 19 38
5.416422 2.636312 23.966471 36 19 35
5.464850 2.636550 23.968639 16 30 29
5.514072 2.637165 23.974224 40 16 27
5.563828 2.638022 23.982018 37 36 29
5.613338 2.638748 23.988623 37 33 31
5.662465 2.639285 23.993496 30 44 21
5.711231 2.639644 23.996767 44 17 15
5.759207 2.639637 23.996696 22 38 36
5.805719 2.638963 23.990576 17 23 40
5.851625 2.638028 23.982069 44 27 34
5.896716 2.636743 23.970390 17 25 34
5.941239 2.635227 23.956608 38 41 20
5.986725 2.634159 23.946901 33 34 38
6.031458 2.632779 23.934357 38 31 27
6.077353 2.631924 23.926586 36 40 40
6.123296 2.631104 23.919127 37 43 42
6.168110 2.629814 23.907404 16 22 17
6.213692 2.628870 23.898815 21 27 41
6.258085 2.627440 23.885820 28 38 39
6.303265 2.626361 23.876005 21 19 19
6.348356 2.625260 23.865999 25 28 16
6.392479 2.623779 23.852535 43 18 26
6.437720 2.622775 23.843407 44 44 41
6.481671 2.621264 23.829674 41 43 33
6.525774 2.619836 23.816692 28 30 39
6.570950 2.618857 23.807789 22 19 22
6.617011 2.618242 23.802197 17 15 15
6.664919 2.618361 23.803284 41 28 35
6.715827 2.619649 23.814989 28 43 18
6.768362 2.621549 23.832260 30 35 40
6.821624 2.623702 23.851833 30 35 40
6.873992 2.625483 23.868029 30 35 40
6.923676 2.626222 23.874746 30 35 40
6.973822 2.627125 23.882952 30 35 40
7.023399 2.627802 23.889112 18 44 17
7.072039 2.628123 23.892025 18 25 23
7.120509 2.628376 23.894327 22 21 25
7.168150 2.628322 23.893833 22 26 41
7.213505 2.627435 23.885777 21 23 22
7.256868 2.625840 23.871275 20 17 25
7.300830 2.624482 23.858923 22 28 18
7.347555 2.624127 23.855698 31 18 42
7.397003 2.624743 23.861300 25 34 41
7.448893 2.626212 23.874659 33 37 17
7.501138 2.627787 23.888975 39 15 31
7.553893 2.629520 23.904724 21 28 17
7.606083 2.631035 23.918499 28 35 18
7.655827 2.631691 23.924459 22 27 41
7.708597 2.633372 23.939741 17 27 19
7.762708 2.635487 23.958977 26 35 39
7.815976 2.637293 23.975388 33 42 38
7.866954 2.638308 23.984617 24 24 31
7.914374 2.638125 23.982952 44 19 31
7.961058 2.637700 23.979092 35 26 28
8.006101 2.636740 23.970364 22 39 18
8.053292 2.636495 23.968132 23 40 41
8.105519 2.637891 23.980825 39 28 39
8.160088 2.640028 24.000257 43 39 30
8.219974 2.643851 24.035011 44 20 34
8.276453 2.646540 24.059458 41 31 35
4.505588 2.742532 24.486893 30 29 34
4.550032 2.739804 24.462536 21 22 16
4.592780 2.736124 24.429682 17 21 21
4.637695 2.733799 24.408922 33 31 42
4.680137 2.730080 24.375713 18 36 44
4.724017 2.727267 24.350601 31 41 31
4.767214 2.724122 24.322521 27 35 28
4.807870 2.719603 24.282173 34 24 33
4.850496 2.716277 24.252478 29 32 27
4.889449 2.710982 24.205193 27 33 19
4.930112 2.706728 24.167215 29 34 42
4.970514 2.702415 24.128708 39 26 33
5.008629 2.696954 24.079947 35 36 44
5.050134 2.693405 24.048258 120 120 120
5.089314 2.688694 24.006197 120 120 120
5.130716 2.685235 23.975309 120 120 120
5.173514 2.682563 23.951452 32 31 21
5.215658 2.679604 23.925035 15 38 18
5.260872 2.678262 23.913054 27 38 19
5.306244 2.677024 23.901999 35 30 20
5.352768 2.676384 23.896284 39 33 27
5.400787 2.676496 23.897285 31 36 42
5.449448 2.676922 23.901087 20 15 26
5.498811 2.677682 23.907875 39 40 21
5.548841 2.678751 23.917418 42 23 39
5.598527 2.679637 23.925331 33 31 25
5.647821 2.680322 23.931444 27 18 34
5.696859 2.680875 23.936382 19 17 34
5.744966 2.680984 23.937359 19 18 17
5.791713 2.680462 23.932699 34 39 19
5.837796 2.679644 23.925392 15 20 40
5.882965 2.678423 23.914492 21 16 24
5.927504 2.676937 23.901226 41 33 42
5.972849 2.675837 23.891397 19 19 20
6.017362 2.674383 23.878420 36 15 29
6.063028 2.673461 23.870190 36 20 39
6.108681 2.672548 23.862036 36 37 20
6.153154 2.671137 23.849434 39 19 38
6.198442 2.670098 23.840160 37 43 36
6.242500 2.668550 23.826336 30 20 36
6.287395 2.667380 23.815889 33 39 37
6.332263 2.666216 23.805500 43 19 42
6.376208 2.664684 23.791822 28 19 24
6.421368 2.663678 23.782843 32 39 41
6.465245 2.662160 23.769283 42 23 18
6.509279 2.660727 23.756495 43 38 40
6.554362 2.659741 23.747688 29 31 24
6.600270 2.659102 23.741980 33 33 27
6.647997 2.659199 23.742846 17 21 18
6.698590 2.660433 23.753864 33 38 38
6.750760 2.662271 23.770281 30 35 40
6.803660 2.664370 23.789021 30 35 40
6.855755 2.666127 23.804707 30 35 40
6.905310 2.666878 23.811415 30 35 40
6.955276 2.667777 23.819439 30 35 40
7.004646 2.668436 23.825325 31 35 42
7.053087 2.668736 23.827997 38 42 23
7.101335 2.668958 23.829985 32 31 44
7.148783 2.668879 23.829275 40 16 26
7.194121 2.668018 23.821592 19 43 37
7.237689 2.666517 23.808187 21 23 18
7.281772 2.665224 23.796640 31 27 16
7.328234 2.664812 23.792967 33 29 42
7.377173 2.665301 23.797331 27 32 27
7.428426 2.666615 23.809059 28 21 24
7.480108 2.668064 23.821999 34 29 33
7.532462 2.669734 23.836906 31 15 35
7.584552 2.671289 23.850794 23 38 15
7.634473 2.672065 23.857727 15 25 16
7.687229 2.673819 23.873383 35 22 22
7.741027 2.675911 23.892059 29 21 39
7.793896 2.677658 23.907658 40 42 36
7.844750 2.678695 23.916922 32 33 32
7.892225 2.678573 23.915833 35 15 15
7.938088 2.677909 23.909903 39 27 37
7.981853 2.676550 23.897764 36 41 36
8.027244 2.675748 23.890608 36 17 36
8.076832 2.676347 23.895954 21 24 37
8.129109 2.677824 23.909145 21 17 43
8.188568 2.681636 23.943182 36 17 36
8.246940 2.685050 23.973663 32 18 29
4.540363 2.782803 24.410555 38 39 40
4.582780 2.778920 24.376492 42 33 37
4.627385 2.776431 24.354656 33 23 33
4.669418 2.772467 24.319883 19 37 38
4.712958 2.769470 24.293600 26 19 41
4.755824 2.766142 24.264406 40 31 23
4.796093 2.761387 24.222694 33 19 43
4.838429 2.757905 24.192146 31 30 29
4.877119 2.752434 24.144156 18 25 15
4.917609 2.748076 24.105927 22 36 42
4.957914 2.743700 24.067545 35 25 25
4.995921 2.738149 24.018852 42 24 17
5.037336 2.734554 23.987316 120 120 120
5.076552 2.729844 23.946001 120 120 120
5.118035 2.726430 23.916050 120 120 120
5.160948 2.723833 23.893276 22 16 34
5.203213 2.720946 23.867950 32 30 22
5.248448 2.719650 23.856583 44 20 31
5.293871 2.718474 23.846264 38 17 37
5.340359 2.717861 23.840887 32 23 25
5.388361 2.718023 23.842306 32 15 42
5.437152 2.718576 23.847157 42 36 34
5.486639 2.719465 23.854954 21 31 29
5.536857 2.720697 23.865765 23 16 26
5.586624 2.721688 23.874460 19 34 32
5.635994 2.722471 23.881329 34 44 41
5.685193 2.723160 23.887365 16 42 24
5.733396 2.723363 23.889149 23 41 15
5.780320 2.722961 23.885620 44 31 18
5.826548 2.722240 23.879295 33 20 30
5.871802 2.721079 23.869114 24 16 21
5.916363 2.719619 23.856304 30 30 17
5.961612 2.718495 23.846447 32 30 19
6.005972 2.716987 23.833221 17 33 25
6.051477 2.716017 23.824711 24 34 20
6.096940 2.715044 23.816174 30 41 38
6.141178 2.713544 23.803017 17 30 22
6.186266 2.712440 23.793329 39 18 19
6.230112 2.710812 23.779053 26 25 29
6.274829 2.709585 23.768293 20 41 18
6.319582 2.708392 23.757828 23 44 38
6.363472 2.706850 23.744297 37 29 32
6.408620 2.705862 23.735628 40 24 34
6.452550 2.704378 23.722610 15 23 27
6.496627 2.702976 23.710318 17 23 22
6.541735 2.702021 23.701939 29 22 42
6.587641 2.701407 23.696550 40 15 15
6.635293 2.701512 23.697475 34 18 43
6.685718 2.702737 23.708221 37 19 23
6.737640 2.704546 23.724085 24 19 30
6.790284 2.706617 23.742252 37 36 24
6.842215 2.708377 23.757690 30 35 40
6.891702 2.709152 23.764490 19 21 19
6.941608 2.710080 23.772629 15 36 37
6.990897 2.710756 23.778561 34 41 27
7.039275 2.711072 23.781336 28 29 37
7.087477 2.711317 23.783480 31 16 20
7.134876 2.711253 23.782919 17 17 42
7.180268 2.710432 23.775721 38 28 22
7.224034 2.709013 23.763271 30 31 41
7.268170 2.707750 23.752190 16 24 38
7.314309 2.707244 23.747757 40 39 29
7.362713 2.707578 23.750687 30 41 31
7.413247 2.708686 23.760406 27 17 23
7.464268 2.709957 23.771555 39 29 29
7.516135 2.711517 23.785238 39 43 21
7.568089 2.713089 23.799023 39 30 41
7.618224 2.713992 23.806952 41 21 21
7.670814 2.715754 23.822403 19 31 28
7.723816 2.717639 23.838940 22 19 36
7.776088 2.719245 23.853029 17 28 27
7.827601 2.720569 23.864637 16 18 24
7.876390 2.720935 23.867847 41 29 23
7.921779 2.720129 23.860779 18 38 22
7.963715 2.718154 23.843458 41 43 21
8.005783 2.716248 23.826735 22 39 25
8.049715 2.714993 23.815725 44 18 43
8.096630 2.714752 23.813618 37 38 29
8.155943 2.718648 23.847788 34 29 32
4.572901 2.821578 24.323944 21 24 43
4.617120 2.818873 24.300631 24 37 15
4.658647 2.814599 24.263786 42 42 17
4.701785 2.811377 24.236008 19 37 15
4.744265 2.807830 24.205435 33 24 16
4.784091 2.802801 24.162075 25 43 38
4.826111 2.799144 24.130554 20 32 19
4.864482 2.793465 24.081596 39 34 19
4.904742 2.788971 24.042852 44 18 37
4.944888 2.784500 24.004313 43 37 36
4.982740 2.778836 23.955481 27 25 39
5.024045 2.775187 23.924025 120 120 120
5.063261 2.770464 23.883308 120 120 120
5.104810 2.767093 23.854252 120 120 120
5.147806 2.764562 23.832434 35 32 40
5.190132 2.761722 23.807945 41 37 28
5.235326 2.760444 23.796934 22 23 36
5.280705 2.759287 23.786961 43 43 43
5.327085 2.758669 23.781628 42 21 37
5.374996 2.758848 23.783169 25 34 18
5.423810 2.759482 23.788641 37 34 43
5.473347 2.760470 23.797159 41 24 34
5.523661 2.761831 23.808886 24 16 18
5.573437 2.762900 23.818108 25 35 34
5.622824 2.763761 23.825525 44 23 38
5.672127 2.764566 23.832468 15 39 36
5.720384 2.764852 23.834932 28 27 42
5.767484 2.764579 23.832579 20 26 20
5.813877 2.763974 23.827366 15 21 31
5.859259 2.762902 23.818125 36 23 16
5.903910 2.761506 23.806089 23 30 15
5.949102 2.760383 23.796408 15 23 42
5.993405 2.758869 23.783352 35 20 30
6.038816 2.757885 23.774868 30 18 22
6.084159 2.756885 23.766247 25 37 35
6.128293 2.755357 23.753075 18 29 27
6.173265 2.754226 23.743326 25 38 19
6.217038 2.752581 23.729151 27 28 26
6.261681 2.751345 23.718489 19 39 17
6.306419 2.750168 23.708342 29 40 20
6.350385 2.748674 23.695465 37 34 43
6.395609 2.747743 23.687439 37 40 31
6.439726 2.746354 23.675463 38 21 29
6.483970 2.745039 23.664125 20 18 16
6.529211 2.744161 23.656563 40 40 33
6.575250 2.743629 23.651978 41 28 26
6.622912 2.743778 23.653257 28 18 35
6.673240 2.745021 23.663971 36 28 18
6.724938 2.746805 23.679358 27 37 38
6.777329 2.748847 23.696953 30 19 41
6.829089 2.750605 23.712116 29 20 16
6.878498 2.751399 23.718960 17 25 44
6.928397 2.752377 23.727386 31 44 16
6.977705 2.753108 23.733690 36 30 23
7.026150 2.753491 23.736992 28 40 17
7.074444 2.753811 23.739746 27 34 27
7.121872 2.753791 23.739574 20 17 16
7.167442 2.753057 23.733252 31 41 27
7.211502 2.751757 23.722046 38 38 22
7.255774 2.750555 23.711679 35 31 43
7.301702 2.749992 23.706825 24 15 15
7.349636 2.750186 23.708504 30 29 23
7.399532 2.751108 23.716450 40 21 41
7.450000 2.752229 23.726116 16 25 29
7.501383 2.753672 23.738554 21 26 42
7.553000 2.755182 23.751572 43 16 27
7.603069 2.756112 23.759590 18 15 35
7.655238 2.757788 23.774033 35 22 41
7.707528 2.759485 23.788666 35 28 24
7.759125 2.760916 23.800997 17 17 41
7.810597 2.762284 23.812796 31 25 25
7.859839 2.762852 23.817694 38 38 22
7.903911 2.761607 23.806961 44 22 26
7.943225 2.758725 23.782110 37 41 37
7.982099 2.755725 23.756247 43 24 29
8.022474 2.753275 23.735130 40 32 21
8.066947 2.752252 23.726315 29 30 18
4.603243 2.858856 24.227592 26 19 39
4.644203 2.854249 24.188555 15 31 24
4.686855 2.850767 24.159044 22 29 23
4.728869 2.846972 24.126884 33 15 21
4.768187 2.841647 24.081755 31 42 43
4.809858 2.837816 24.049290 38 26 27
4.847878 2.831929 23.999397 44 29 42
4.887876 2.827301 23.960175 26 21 29
4.927843 2.822745 23.921566 41 40 33
4.965534 2.816986 23.872759 15 20 19
5.006724 2.813302 23.841545 120 120 120
5.045958 2.808599 23.801687 120 120 120
5.087573 2.805297 23.773706 120 120 120
5.130655 2.802858 23.753033 33 35 43
5.173034 2.800083 23.729513 29 17 38
5.218156 2.798829 23.718891 28 15 25
5.263442 2.797685 23.709198 33 35 22
5.309645 2.797045 23.703772 21 40 43
5.357389 2.797221 23.705259 17 42 34
5.406140 2.797915 23.711142 34 38 27
5.455646 2.798984 23.720201 22 31 36
5.505993 2.800462 23.732727 30 23 18
5.555750 2.801617 23.742519 21 15 43
5.605146 2.802573 23.750618 17 30 35
5.654531 2.803507 23.758532 31 26 40
5.702818 2.803885 23.761740 20 32 42
5.750100 2.803768 23.760742 19 41 33
5.796679 2.803312 23.756882 33 23 26
5.842232 2.802371 23.748909 34 19 37
5.887023 2.801084 23.737997 35 15 33
5.932189 2.799993 23.728758 39 37 37
5.976472 2.798507 23.716158 23 23 34
6.021799 2.797529 23.707870 27 38 43
6.067040 2.796526 23.699373 22 24 33
6.111112 2.795005 23.686481 34 36 39
6.156009 2.793881 23.676958 32 41 30
6.199768 2.792262 23.663239 21 24 29
6.244369 2.791044 23.652914 22 16 25
6.289122 2.789911 23.643316 32 17 38
6.333219 2.788507 23.631413 22 19 41
6.378546 2.787661 23.624245 29 17 27
6.422904 2.786407 23.613619 16 38 29
6.467350 2.785209 23.603466 36 17 17
6.512745 2.784434 23.596901 25 44 16
6.558925 2.784004 23.593254 29 33 42
6.606569 2.784197 23.594891 27 23 29
6.656746 2.785447 23.605484 42 16 22
6.708149 2.787189 23.620243 43 23 21
6.760188 2.789168 23.637020 26 17 17
6.811659 2.790888 23.651594 41 38 34
6.860885 2.791670 23.658224 38 44 35
6.910701 2.792681 23.666784 25 42 23
6.960002 2.793470 23.673475 43 32 22
7.008516 2.793936 23.677420 17 35 28
7.056883 2.794336 23.680817 37 34 27
7.104314 2.794364 23.681047 39 37 17
7.150137 2.793762 23.675951 40 23 21
7.194589 2.792636 23.666410 37 18 28
7.239172 2.791576 23.657425 21 39 29
7.285119 2.791052 23.652983 34 35 24
7.332763 2.791181 23.654074 33 37 38
7.382377 2.792053 23.661465 44 18 42
7.432750 2.793199 23.671179 40 28 20
7.483948 2.794639 23.683380 25 30 15
7.535068 2.796032 23.695183 33 40 26
7.584571 2.796811 23.701784 19 21 35
7.636289 2.798392 23.715183 28 41 41
7.688892 2.800276 23.731150 25 33 31
7.740221 2.801675 23.743010 43 22 27
7.789828 2.802438 23.749475 24 41 17
7.836703 2.802215 23.747585 37 30 39
7.877233 2.799740 23.726606 34 24 44
7.912372 2.795389 23.689737 38 41 19
7.949252 2.791702 23.658489 25 39 36
7.992771 2.790376 23.647251 30 39 16
4.634439 2.896524 24.137703 36 15 25
4.676764 2.892844 24.107033 26 34 40
4.718470 2.888859 24.073828 32 23 24
4.757468 2.883314 24.027615 39 35 44
4.798931 2.879358 23.994654 26 23 25
4.836731 2.873305 23.944212 19 26 22
4.876548 2.868558 23.904646 18 29 39
4.916390 2.863917 23.865973 27 42 37
4.953982 2.858066 23.817219 22 18 16
4.995110 2.854348 23.786236 120 120 120
5.034346 2.849630 23.746916 120 120 120
5.075999 2.846354 23.719620 120 120 120
5.119111 2.843950 23.699587 23 27 24
5.161486 2.841185 23.676540 30 26 33
5.206528 2.839924 23.666037 21 42 17
5.251696 2.838755 23.656290 37 42 30
5.297738 2.838074 23.650616 35 42 26
5.345310 2.838218 23.651815 40 29 17
5.393923 2.838907 23.657558 15 32 30
5.443327 2.839997 23.666641 17 19 26
5.493613 2.841524 23.679367 22 44 17
5.543304 2.842720 23.689335 30 35 38
5.592671 2.843731 23.697758 32 33 20
5.642053 2.844733 23.706106 37 27 30
5.690320 2.845160 23.709667 24 17 26
5.737696 2.845139 23.709488 33 16 25
5.784395 2.844784 23.706535 21 33 41
5.830073 2.843938 23.699484 43 24 23
5.875002 2.842743 23.689524 20 36 19
5.920190 2.841691 23.680759 25 16 41
5.964525 2.840250 23.668749 39 38 24
6.009847 2.839298 23.660816 44 27 26
6.055075 2.838316 23.652636 26 32 38
6.099198 2.836836 23.640303 36 25 16
6.144123 2.835749 23.631243 20 20 25
6.187976 2.834187 23.618229 33 19 44
6.232621 2.833010 23.608414 33 43 38
6.277445 2.831930 23.599419 20 41 15
6.321704 2.830614 23.588449 28 34 19
6.367141 2.829840 23.582003 38 29 27
6.411712 2.828696 23.572470 15 39 17
6.456338 2.827593 23.563276 27 28 24
6.501865 2.826898 23.557484 37 28 23
6.548184 2.826554 23.554619 41 37 44
6.595840 2.826788 23.556570 31 35 42
6.645938 2.828059 23.567156 28 40 43
6.697154 2.829783 23.581528 18 30 23
6.748954 2.831729 23.597740 19 31 29
6.800199 2.833416 23.611801 18 38 17
6.849252 2.834173 23.618111 36 39 21
6.898997 2.835204 23.626701 39 15 40
6.948321 2.836049 23.633743 25 25 37
6.996931 2.836593 23.638279 15 38 29
7.045381 2.837066 23.642220 19 31 38
7.092834 2.837134 23.642780 39 28 34
7.138884 2.836642 23.638687 39 44 26
7.183644 2.835649 23.630409 35 26 38
7.228533 2.834719 23.622656 27 38 38
7.274705 2.834301 23.619173 25 17 25
7.322357 2.834461 23.620506 42 31 23
7.372125 2.835433 23.628607 43 17 31
7.422828 2.836750 23.639580 44 38 19
7.474158 2.838288 23.652397 16 28 32
7.524853 2.839567 23.663059 18 26 26
7.573601 2.840100 23.667503 32 33 43
7.624982 2.841608 23.680067 24 15 30
7.678533 2.843901 23.699177 31 30 32
7.730021 2.845407 23.711721 44 16 25
7.777136 2.845294 23.710781 16 18 36
7.820463 2.843805 23.698374 44 24 28
7.857251 2.839970 23.666420 37 35 17
7.888781 2.834293 23.619104 38 15 15
7.925463 2.830522 23.587687 35 24 31
4.662092 2.931831 24.031404 17 43 23
4.703327 2.927581 23.996565 31 44 40
4.741813 2.921723 23.948551 17 31 44
4.782911 2.917575 23.914553 29 29 18
4.820278 2.911257 23.862764 27 42 37
4.859710 2.906297 23.822109 17 26 38
4.899237 2.901490 23.782703 40 30 39
4.936529 2.895464 23.733313 40 37 24
4.977468 2.891672 23.702230 120 120 120
5.016570 2.886894 23.663067 120 120 120
5.058136 2.883610 23.636150 120 120 120
5.101172 2.881218 23.616539 23 15 15
5.143405 2.878420 23.593603 43 18 15
5.188251 2.877121 23.582960 33 28 42
5.233192 2.875898 23.572935 16 40 21
5.278978 2.875158 23.566868 42 33 43
5.326321 2.875271 23.567791 15 37 33
5.374741 2.875958 23.573427 28 18 22
5.424003 2.877080 23.582621 23 23 16
5.474237 2.878693 23.595848 32 27 31
5.523886 2.879975 23.606350 29 37 23
5.573279 2.881102 23.615587 37 31 16
5.622746 2.882248 23.624985 32 33 21
5.671047 2.882782 23.629364 25 28 16
5.718658 2.882960 23.630817 19 43 40
5.765589 2.882795 23.629465 18 39 25
5.811519 2.882135 23.624060 28 40 33
5.856729 2.881133 23.615843 23 31 36
5.902010 2.880181 23.608040 23 36 15
5.946507 2.878864 23.597248 32 23 19
5.991875 2.877987 23.590059 30 41 22
6.037129 2.877069 23.582535 24 36 37
6.081390 2.875696 23.571278 40 42 26
6.126372 2.874682 23.562971 28 25 44
6.170392 2.873236 23.551113 30 44 16
6.215118 2.872138 23.542112 23 18 43
6.260047 2.871149 23.534012 25 39 44
6.304532 2.869974 23.524374 33 19 28
6.350112 2.869310 23.518932 25 20 27
6.394976 2.868335 23.510941 41 25 29
6.439847 2.867377 23.503090 18 19 40
6.485569 2.866809 23.498438 34 43 22
6.532096 2.866603 23.496748 27 44 34
6.579789 2.866908 23.499247 21 29 40
6.629717 2.868176 23.509636 40 34 36
6.680556 2.869816 23.523085 23 32 27
6.731897 2.871649 23.538103 22 17 22
6.782779 2.873261 23.551317 17 23 21
6.831622 2.873993 23.557316 39 18 20
6.881269 2.875051 23.565990 24 32 36
6.930590 2.875959 23.573435 34 20 42
6.979288 2.876598 23.578674 43 30 28
7.027795 2.877151 23.583204 22 19 34
7.075226 2.877258 23.584085 32 41 28
7.121550 2.876918 23.581291 31 29 27
7.166774 2.876140 23.574915 40 33 30
7.212063 2.875398 23.568832 28 39 39
7.258416 2.875087 23.566286 27 43 29
7.305921 2.875233 23.567486 29 15 35
7.355316 2.876117 23.574730 18 30 21
7.405650 2.877355 23.584873 16 31 16
7.456350 2.878717 23.596045 17 32 26
7.506113 2.879704 23.604128 37 33 17
7.554030 2.879974 23.606342 38 34 27
7.603921 2.880989 23.614662 31 22 15
7.656288 2.882923 23.630520 22 41 16
7.706156 2.883899 23.638515 25 38 23
7.750284 2.882727 23.628914 27 16 40
7.790827 2.880245 23.608566 23 36 18
7.826270 2.875919 23.573103 37 31 18
7.857940 2.870266 23.526768 25 34 42
7.897013 2.867368 23.503014 23 33 18
4.691763 2.968259 23.937569 43 42 29
4.729772 2.962080 23.887739 33 35 37
4.770523 2.957724 23.852613 40 19 27
4.807436 2.951099 23.799187 28 29 40
4.846467 2.945892 23.757193 39 39 16
4.885649 2.940876 23.716742 42 39 35
4.922598 2.934625 23.666334 32 43 42
4.963324 2.930724 23.634874 120 120 120
5.002232 2.925834 23.595434 120 120 120
5.043661 2.922495 23.568510 120 120 120
5.086579 2.920073 23.548977 26 19 33
5.128643 2.917210 23.525885 33 15 40
5.173315 2.915868 23.515066 41 34 35
5.218078 2.914602 23.504856 25 22 31
5.263695 2.913831 23.498640 29 23 33
5.310907 2.913949 23.499590 34 37 23
5.359257 2.914684 23.505512 21 15 28
5.408465 2.915868 23.515066 34 33 44
5.458762 2.917614 23.529146 44 35 39
5.508467 2.919017 23.540459 32 42 27
5.557973 2.920291 23.550734 42 43 17
5.607653 2.921634 23.561567 44 27 32
5.656083 2.922310 23.567013 28 20 22
5.704026 2.922724 23.570354 26 24 34
5.751251 2.922767 23.570702 20 44 40
5.797479 2.922307 23.566988 39 32 33
5.843038 2.921519 23.560637 37 44 25
5.888469 2.920680 23.553875 23 36 19
5.933202 2.919512 23.544451 41 42 39
5.978691 2.918731 23.538155 29 17 30
6.024038 2.917893 23.531397 18 18 15
6.068484 2.916636 23.521257 38 35 20
6.113563 2.915699 23.513702 35 34 26
6.157768 2.914363 23.502930 41 29 36
6.202604 2.913344 23.494713 43 36 31
6.247656 2.912441 23.487427 16 32 20
6.292366 2.911393 23.478977 43 41 32
6.338082 2.910823 23.474379 33 41 18
6.383219 2.909997 23.467716 40 43 22
6.428321 2.909167 23.461025 32 43 36
6.474234 2.908714 23.457371 20 31 37
6.520984 2.908640 23.456778 16 41 24
6.568756 2.909021 23.459845 15 28 18
6.618549 2.910284 23.470032 23 41 23
6.669012 2.911822 23.482437 29 36 15
6.719899 2.913523 23.496151 43 40 25
6.770448 2.915054 23.508499 23 40 38
6.819132 2.915767 23.514250 17 39 43
6.868687 2.916840 23.522900 38 41 27
6.917990 2.917792 23.530579 42 39 22
6.966724 2.918493 23.536230 42 34 39
7.015200 2.919076 23.540939 27 18 36
7.062540 2.919183 23.541801 33 42 22
7.109066 2.918954 23.539953 20 36 32
7.154740 2.918381 23.535328 42 33 27
7.200429 2.917821 23.530815 25 17 21
7.246912 2.917588 23.528936 31 15 37
7.294239 2.917696 23.529804 25 44 34
7.343117 2.918418 23.535631 44 36 42
7.392849 2.919469 23.544106 17 32 43
7.442789 2.920588 23.553131 22 28 19
7.491995 2.921407 23.559732 33 34 30
7.539707 2.921636 23.561584 28 42 37
7.587653 2.921953 23.564138 36 35 29
7.636734 2.922701 23.570168 31 19 18
7.683505 2.922560 23.569035 41 18 17
7.725771 2.920718 23.554180 33 43 40
7.766252 2.918228 23.534096 18 39 16
7.803757 2.914656 23.505293 23 33 42
4.718748 3.002840 23.832062 32 27 29
4.759204 2.998299 23.796021 42 21 28
4.795703 2.991379 23.741104 33 29 32
4.834346 2.985920 23.697775 43 30 40
4.873153 2.980667 23.656084 24 40 32
4.909732 2.974165 23.604483 38 39 25
4.950224 2.970135 23.572496 120 120 120
4.988862 2.965078 23.532368 120 120 120
5.030068 2.961629 23.504992 120 120 120
5.072769 2.959115 23.485041 23 34 19
5.114560 2.956122 23.461287 34 23 25
5.158991 2.954695 23.449957 24 41 15
5.203495 2.953335 23.439167 27 22 34
5.248901 2.952507 23.432592 34 23 42
5.295936 2.952602 23.433346 37 15 18
5.344115 2.953327 23.439100 37 43 33
5.393194 2.954532 23.448668 19 26 39
5.443452 2.956357 23.463154 43 34 29
5.493144 2.957847 23.474974 18 30 26
5.542708 2.959242 23.486050 33 15 43
5.592498 2.960734 23.497890 35 16 15
5.640987 2.961518 23.504114 30 35 22
5.689149 2.962119 23.508879 18 39 36
5.736565 2.962324 23.510511 15 22 31
5.783000 2.962024 23.508129 19 17 25
5.828814 2.961414 23.503283 18 20 18
5.874357 2.960676 23.497429 21 21 15
5.919263 2.959632 23.489140 30 21 31
5.964829 2.958931 23.483580 17 38 38
6.010229 2.958160 23.477459 44 16 35
6.054812 2.957001 23.468262 38 27 25
6.099947 2.956128 23.461334 35 17 21
6.144282 2.954884 23.451458 34 35 30
6.189175 2.953925 23.443846 20 44 27
6.234287 2.953083 23.437168 17 32 16
6.279117 2.952122 23.429541 40 23 24
6.324890 2.951616 23.425520 44 40 26
6.370178 2.950891 23.419773 30 19 42
6.415411 2.950153 23.413910 35 15 18
6.461428 2.949783 23.410973 29 33 34
6.508303 2.949807 23.411163 43 27 36
6.556100 2.950245 23.414644 18 41 33
6.605716 2.951490 23.424526 33 31 32
6.655788 2.952920 23.435873 19 21 17
6.706242 2.954498 23.448399 22 40 44
6.756512 2.955974 23.460112 35 25 44
6.805105 2.956701 23.465879 28 31 35
6.854612 2.957812 23.474697 43 19 29
6.903876 2.958804 23.482571 32 22 21
6.952611 2.959558 23.488552 44 32 34
7.001071 2.960185 23.493528 41 19 38
7.048366 2.960314 23.494553 36 26 39
7.095012 2.960171 23.493418 41 29 31
7.140970 2.959744 23.490032 22 42 27
7.186821 2.959279 23.486343 40 17 16
7.233227 2.959047 23.484503 15 41 42
7.280261 2.959074 23.484713 40 19 33
7.328103 2.959426 23.487511 15 37 30
7.376493 2.959994 23.492016 42 40 42
7.424905 2.960564 23.496536 26 26 36
7.472904 2.960962 23.499699 33 39 19
7.520143 2.961056 23.500446 24 15 23
7.566001 2.960609 23.496899 43 41 38
7.611775 2.960135 23.493132 43 15 22
7.655718 2.958958 23.483797 26 32 30
7.696542 2.956598 23.465067 39 33 38
7.737381 2.954273 23.446608 21 28 28
4.745760 3.037286 23.728800 22 36 41
4.781890 3.030109 23.672724 39 17 39
4.820153 3.024409 23.628199 18 34 15
4.858582 3.018925 23.585348 37 24 25
4.894798 3.012183 23.532681 37 23 33
4.935044 3.008027 23.500212 120 120 120
4.973382 3.002797 23.459349 120 120 120
5.014334 2.999228 23.431465 120 120 120
5.056764 2.996601 23.410946 28 44 39
5.098221 2.993451 23.386333 21 18 42
5.142363 2.991920 23.374378 44 24 20
5.186455 2.990389 23.362411 15 28 35
5.231455 2.989403 23.354710 21 40 40
5.278087 2.989359 23.354368 44 18 19
5.325855 2.989954 23.359013 44 36 39
5.374638 2.991103 23.367990 34 34 36
5.424634 2.992902 23.382044 15 39 31
5.474149 2.994406 23.393799 17 24 15
5.523601 2.995851 23.405088 42 41 19
5.573278 2.997393 23.417133 28 26 19
5.621650 2.998213 23.423540 25 32 34
5.669801 2.998903 23.428930 40 26 41
5.717234 2.999205 23.431288 40 16 40
5.763717 2.999007 23.429743 21 19 37
5.809608 2.998507 23.425838 18 35 21
5.855142 2.997833 23.420567 37 35 34
5.900076 2.996864 23.413000 22 22 32
5.945592 2.996204 23.407843 36 25 40
5.990936 2.995468 23.402094 26 42 18
6.035529 2.994371 23.393522 17 26 26
6.080639 2.993545 23.387074 31 22 15
6.124994 2.992364 23.377840 29 16 39
6.169854 2.991445 23.370661 43 43 40
6.214928 2.990642 23.364389 22 35 32
6.259761 2.989737 23.357317 44 44 35
6.305491 2.989270 23.353670 43 23 33
6.350812 2.988617 23.348572 41 19 40
6.396080 2.987950 23.343359 30 23 28
6.442107 2.987644 23.340969 36 34 23
6.488995 2.987739 23.341707 37 19 19
6.536722 2.988216 23.345434 33 26 27
6.586103 2.989437 23.354975 37 41 15
6.635766 2.990768 23.365372 15 15 23
6.685820 2.992255 23.376991 43 19 29
6.735907 2.993737 23.388567 38 18 33
6.784496 2.994536 23.394815 35 27 29
6.834054 2.995750 23.404295 41 33 28
6.883289 2.996806 23.412548 30 43 43
6.932040 2.997639 23.419054 30 44 21
6.980636 2.998394 23.424953 43 19 16
7.028032 2.998627 23.426775 34 20 37
7.074838 2.998607 23.426617 17 16 23
7.120960 2.998299 23.424210 30 39 32
7.166770 2.997865 23.420816 27 24 29
7.213033 2.997624 23.418938 22 35 33
7.259803 2.997596 23.418720 17 43 32
7.305932 2.997305 23.416449 30 33 25
7.351889 2.996948 23.413660 43 27 25
7.397453 2.996437 23.409660 30 26 44
7.442675 2.995794 23.404638 24 24 30
7.488323 2.995329 23.401011 39 36 16
7.532296 2.994205 23.392223 42 43 24
7.576848 2.993323 23.385334 16 41 44
7.619820 2.991831 23.373680 33 34 25
4.812092 3.066529 23.588686 19 35 25
4.850315 3.060878 23.545218 40 29 39
4.886337 3.053961 23.492006 25 30 35
4.926449 3.049707 23.459282 120 120 120
4.964588 3.044323 23.417868 120 120 120
5.005355 3.040636 23.389507 120 120 120
5.047579 3.037895 23.368422 21 36 43
5.088791 3.034600 23.343077 36 15 29
5.132729 3.032976 23.330585 41 30 26
5.176473 3.031268 23.317446 34 17 36
5.221113 3.030110 23.308538 32 43 33
5.267360 3.029897 23.306902 29 27 15
5.314706 3.030315 23.310112 30 29 34
5.363201 3.031375 23.318266 25 16 19
5.412877 3.033078 23.331366 16 40 32
5.462157 3.034532 23.342552 35 15 22
5.511417 3.035950 23.353462 42 22 35
5.560843 3.037435 23.364887 44 19 24
5.609008 3.038213 23.370869 38 30 37
5.656958 3.038862 23.375860 42 29 34
5.704236 3.039142 23.378016 42 19 28
5.750600 3.038935 23.376425 20 29 30
5.796373 3.038421 23.372473 28 28 43
5.841811 3.037742 23.367243 39 22 17
5.886634 3.036756 23.359659 23 29 42
5.932024 3.036075 23.354425 33 24 43
5.977247 3.035321 23.348621 42 15 16
6.021748 3.034214 23.340107 23 20 33
6.066776 3.033388 23.333754 19 31 35
6.111048 3.032199 23.324610 42 42 23
6.155810 3.031270 23.317463 43 20 28
6.200776 3.030454 23.311188 25 33 35
6.245492 3.029530 23.304073 23 43 15
6.291097 3.029047 23.300360 25 15 38
6.336308 3.028382 23.295250 44 37 30
6.381491 3.027715 23.290112 23 19 20
6.427435 3.027415 23.287807 44 40 24
6.474210 3.027508 23.288527 38 31 20
6.521812 3.027984 23.292187 37 32 16
6.571030 3.029198 23.301525 28 37 31
6.620469 3.030496 23.311510 29 44 33
6.670362 3.031983 23.322945 29 17 37
6.720448 3.033535 23.334888 22 27 35
6.769131 3.034438 23.341831 15 40 41
6.818806 3.035770 23.352076 28 34 31
6.868028 3.036883 23.360640 25 44 35
6.916785 3.037777 23.367516 41 36 17
6.965562 3.038668 23.374371 36 19 43
7.013137 3.039026 23.377125 42 32 29
7.060030 3.039086 23.377583 27 40 35
7.106100 3.038793 23.375328 16 21 33
7.151661 3.038287 23.371441 21 37 21
7.197756 3.038014 23.369337 25 36 17
7.244392 3.037971 23.369005 38 33 36
7.288981 3.037076 23.362120 37 34 21
7.332640 3.035807 23.352358 25 31 35
7.375513 3.034230 23.340231 44 22 42
7.417962 3.032500 23.326923 26 20 18
7.461912 3.031402 23.318474 29 32 26
7.505006 3.029971 23.307472 16 20 43
7.550385 3.029475 23.303658 33 26 43
4.875190 3.093871 23.438416 17 37 23
4.915095 3.089488 23.405214 120 120 120
4.952801 3.083820 23.362270 120 120 120
4.993093 3.079852 23.332211 120 120 120
5.034741 3.076786 23.308987 44 42 17
5.075221 3.073070 23.280830 33 30 30
5.118576 3.071146 23.266254 19 40 27
5.161794 3.069175 23.251326 32 24 40
5.206269 3.067980 23.242273 17 41 27
5.252374 3.067759 23.240595 18 17 33
5.299227 3.067973 23.242222 32 27 36
5.347157 3.068803 23.248510 37 23 18
5.396234 3.070271 23.259628 22 15 25
5.445156 3.071626 23.269897 32 21 16
5.494109 3.072976 23.280121 22 19 22
5.543076 3.074311 23.290236 29 36 27
5.590860 3.074973 23.295250 41 18 38
5.638343 3.075460 23.298939 22 29 32
5.685238 3.075620 23.300154 16 29 28
5.731260 3.075310 23.297806 37 18 38
5.776665 3.074677 23.293005 27 19 17
5.821851 3.073937 23.287403 17 43 36
5.866351 3.072851 23.279171 29 27 26
5.911439 3.072086 23.273380 38 31 21
5.956359 3.071248 23.267029 26 38 42
6.000542 3.070045 23.257914 21 26 28
6.045321 3.069163 23.251236 38 33 38
6.089266 3.067875 23.241474 35 27 42
6.133724 3.066862 23.233803 25 42 15
6.178355 3.065951 23.226898 43 30 33
6.222658 3.064891 23.218874 20 15 28
6.267906 3.064310 23.214466 18 22 42
6.312665 3.063499 23.208328 36 40 31
6.357464 3.062720 23.202425 28 39 27
6.403023 3.062315 23.199358 44 44 28
6.449344 3.062278 23.199080 22 21 42
6.496569 3.062668 23.202032 24 36 40
6.545348 3.063780 23.210455 29 41 31
6.594370 3.064989 23.219614 27 34 37
6.643953 3.066440 23.230604 39 17 32
6.693848 3.068014 23.242529 16 41 25
6.742476 3.068989 23.249918 22 38 25
6.792086 3.070395 23.260569 20 30 42
6.841154 3.071538 23.269230 24 31 39
6.889750 3.072456 23.276184 32 40 29
6.938546 3.073450 23.283712 26 29 39
6.986181 3.073920 23.287270 34 39 28
7.032586 3.073846 23.286709 32 33 43
7.077892 3.073295 23.282539 22 19 24
7.122199 3.072321 23.275162 40 23 18
7.166616 3.071407 23.268232 44 20 31
7.211813 3.070836 23.263912 41 39 21
7.254033 3.069014 23.250107 16 18 41
7.295427 3.066867 23.233843 28 27 32
7.336173 3.064477 23.215738 26 35 18
7.376468 3.061930 23.196442 20 16 35
7.419252 3.060441 23.185162 27 39 23
4.908637 3.132178 23.374462 120 120 120
4.945822 3.126133 23.329350 120 120 120
4.985534 3.121783 23.296886 120 120 120
5.026433 3.118250 23.270525 27 42 26
5.065880 3.113889 23.237980 28 23 20
5.108391 3.111474 23.219957 23 37 42
5.151062 3.109200 23.202982 44 36 15
5.195696 3.108140 23.195072 34 26 32
5.242058 3.108123 23.194948 40 28 21
5.288551 3.108184 23.195400 15 31 27
5.335851 3.108713 23.199350 38 18 30
5.384313 3.109905 23.208246 41 17 20
5.432963 3.111184 23.217791 20 26 42
5.481699 3.112490 23.227539 23 32 31
5.530283 3.113689 23.236483 33 29 22
5.577727 3.114231 23.240530 42 23 28
5.624752 3.114532 23.242775 23 16 40
5.671261 3.114545 23.242872 18 22 26
5.716913 3.114091 23.239485 22 28 22
5.761932 3.113302 23.233597 43 28 32
5.806860 3.112477 23.227440 39 30 38
5.851022 3.111258 23.218340 21 30 18
5.895805 3.110385 23.211832 30 16 36
5.940423 3.109440 23.204777 22 41 38
5.984257 3.108102 23.194794 17 26 37
6.028772 3.107137 23.187586 39 42 43
6.072343 3.105702 23.176880 42 16 44
6.116479 3.104577 23.168482 36 32 42
6.160749 3.103535 23.160711 18 38 36
6.204593 3.102296 23.151466 35 40 35
6.249459 3.101583 23.146145 15 16 17
6.293691 3.100568 23.138569 24 26 29
6.338038 3.099625 23.131527 35 41 28
6.383130 3.099056 23.127281 39 39 36
6.428891 3.098818 23.125505 27 27 43
6.475687 3.099079 23.127453 18 44 23
6.523975 3.100045 23.134663 38 44 38
6.572616 3.101164 23.143013 16 39 43
6.621882 3.102560 23.153435 24 31 18
6.671490 3.104096 23.164894 35 21 27
6.719953 3.105082 23.172251 30 22 33
6.769334 3.106475 23.182650 25 33 26
6.818132 3.107584 23.190926 40 29 39
6.866462 3.108466 23.197506 28 30 16
6.915126 3.109486 23.205122 30 19 32
6.962730 3.110019 23.209101 19 26 24
7.008395 3.109685 23.206606 37 39 35
7.052749 3.108778 23.199833 20 24 25
7.095472 3.107167 23.187817 40 23 35
7.137383 3.105225 23.173323 35 36 33
7.180289 3.103738 23.162222 32 30 34
7.220361 3.101052 23.142181 34 32 17
7.260726 3.098526 23.123331 20 38 25
7.301231 3.096092 23.105162 41 26 29
7.341585 3.093624 23.086746 37 27 24
4.977224 3.163095 23.258055 120 120 120
5.017480 3.159154 23.229076 34 15 17
5.056115 3.154274 23.193188 36 44 32
5.098000 3.151491 23.172726 29 30 18
5.140360 3.149049 23.154774 20 28 18
5.185258 3.148192 23.148472 18 20 29
5.231951 3.148431 23.150225 43 24 16
5.278240 3.148424 23.150177 36 33 36
5.325042 3.148721 23.152357 18 20 23
5.372957 3.149665 23.159298 28 18 34
5.421316 3.150850 23.168016 35 43 23
5.469771 3.152071 23.176994 26 43 23
5.517903 3.153088 23.184467 35 30 37
5.564973 3.153485 23.187389 40 21 16
5.611457 3.153546 23.187840 23 44 21
5.657493 3.153357 23.186447 35 39 22
5.702690 3.152707 23.181667 42 38 34
5.747213 3.151697 23.174246 35 17 17
5.791824 3.150752 23.167295 35 30 29
5.835556 3.149348 23.156969 17 33 28
5.879975 3.148333 23.149508 17 38 21
5.924227 3.147246 23.141512 19 27 15
5.967614 3.145719 23.130287 31 38 30
6.011791 3.144629 23.122272 38 39 31
6.054882 3.142992 23.110237 34 36 36
6.098606 3.141706 23.100780 41 30 29
6.142427 3.140489 23.091829 27 40 28
6.185684 3.139004 23.080912 32 42 40
6.230079 3.138114 23.074366 27 43 40
6.273651 3.136825 23.064892 34 44 20
6.317425 3.135656 23.056297 40 17 16
6.361955 3.134876 23.050560 22 17 18
6.407046 3.134382 23.046928 35 18 35
6.453369 3.134493 23.047745 18 34 15
6.501129 3.135296 23.053650 28 24 36
6.549396 3.136331 23.061255 42 36 42
6.598369 3.137686 23.071220 28 33 26
6.647646 3.139166 23.082104 17 23 42
6.695869 3.140132 23.089205 15 22 41
6.744965 3.141491 23.099195 19 27 18
6.793525 3.142583 23.107227 24 24 22
6.841569 3.143424 23.113409 20 16 17
6.889961 3.144412 23.120676 19 16 24
6.937358 3.144936 23.124527 40 18 19
6.981945 3.144187 23.119024 32 29 17
7.024933 3.142733 23.108334 29 35 37
7.065779 3.140346 23.090780 42 27 36
7.105082 3.137309 23.068447 33 41 16
7.145821 3.134941 23.051037 29 43 19
7.184224 3.131585 23.026358 23 15 24
7.224212 3.128958 23.007044 18 39 43
5.083715 3.188876 23.107798 40 43 35
5.126289 3.186612 23.091391 43 15 33
5.171353 3.185923 23.086397 31 44 37
5.218045 3.186240 23.088694 44 42 38
5.264113 3.186174 23.088217 42 16 44
5.310508 3.186305 23.089165 28 40 22
5.357873 3.187011 23.094282 40 20 17
5.405782 3.188025 23.101633 30 25 28
5.453755 3.189060 23.109131 33 44 22
5.501321 3.189842 23.114794 26 21 25
5.547962 3.190078 23.116510 41 41 24
5.593841 3.189876 23.115044 43 31 29
5.639330 3.189457 23.112009 42 43 44
5.683998 3.188584 23.105682 28 44 29
5.727944 3.187324 23.096548 23 37 37
5.772170 3.186238 23.088678 18 43 44
5.815390 3.184618 23.076944 17 17 18
5.859372 3.183438 23.068392 34 41 26
5.903179 3.182183 23.059294 36 39 26
5.946026 3.180432 23.046612 17 30 16
5.989777 3.179190 23.037605 34 25 33
6.032267 3.177301 23.023920 16 27 16
6.075481 3.175820 23.013187 28 41 15
6.118738 3.174383 23.002773 29 18 16
6.161276 3.172598 22.989838 32 40 15
6.205092 3.171492 22.981823 17 18 33
6.247885 3.169883 22.970165 25 15 39
6.290997 3.168459 22.959845 18 39 30
6.334895 3.167447 22.952517 29 29 44
6.379273 3.166689 22.947023 26 31 22
6.425097 3.166655 22.946775 19 43 25
6.472316 3.167304 22.951475 32 26 43
6.520174 3.168254 22.958361 42 36 38
6.568829 3.169575 22.967934 16 24 34
6.617741 3.171001 22.978268 36 32 39
6.665685 3.171947 22.985121 16 29 44
6.714586 3.173332 22.995159 36 25 31
6.763104 3.174518 23.003756 41 35 24
6.811049 3.175421 23.010300 22 41 26
6.859286 3.176448 23.017738 44 27 37
6.906454 3.176969 23.021513 17 31 20
6.949746 3.175712 23.012405 24 40 37
6.990844 3.173475 22.996199 21 25 15
7.029525 3.170178 22.972303 29 27 16
7.066796 3.166292 22.944143 17 35 17
7.106378 3.163484 22.923800 30 41 37
5.162203 3.226377 23.045551 44 20 29
5.208693 3.226624 23.047316 24 26 30
5.254683 3.226560 23.046854 20 27 35
5.300972 3.226678 23.047703 20 44 37
5.348062 3.227279 23.051992 20 26 25
5.395619 3.228148 23.058201 36 18 25
5.443186 3.229009 23.064348 16 29 42
5.490353 3.229619 23.068708 30 22 40
5.536733 3.229761 23.069721 39 27 20
5.582227 3.229387 23.067053 30 34 31
5.627359 3.228813 23.062948 18 35 36
5.671670 3.227780 23.055569 24 41 41
5.715227 3.226338 23.045269 27 26 42
5.759185 3.225144 23.036739 44 32 21
5.802050 3.223361 23.024008 44 38 38
5.845737 3.222060 23.014713 34 30 37
5.889242 3.220679 23.004850 33 23 28
5.931704 3.218754 22.991102 24 15 38
5.975153 3.217390 22.981358 29 35 23
6.017213 3.215305 22.966463 24 21 24
6.060056 3.213666 22.954756 31 44 16
6.102919 3.212063 22.943304 22 42 40
6.144945 3.210046 22.928898 34 40 40
6.188354 3.208776 22.919830 24 34 40
6.230614 3.206934 22.906670 25 33 15
6.273276 3.205324 22.895168 44 33 42
6.316770 3.204159 22.886847 31 31 27
6.360703 3.203232 22.880226 34 44 24
6.406238 3.203119 22.879421 40 43 15
6.453155 3.203694 22.883528 21 27 21
6.500786 3.204613 22.890091 31 33 16
6.549267 3.205935 22.899536 32 40 44
6.597950 3.207337 22.909548 27 20 36
6.645689 3.208264 22.916168 22 24 44
6.694537 3.209710 22.926497 30 22 23
6.743182 3.211039 22.935993 28 17 23
6.791216 3.212062 22.943296 42 20 30
6.839415 3.213148 22.951057 33 37 16
6.886408 3.213657 22.954693 37 37 23
6.928761 3.212009 22.942919 22 28 44
6.968351 3.209109 22.922207 22 43 17
5.284486 3.262596 22.976027 16 39 43
5.332218 3.263685 22.983698 20 28 35
5.379709 3.264609 22.990208 38 15 23
5.426793 3.265274 22.994886 24 28 28
5.473486 3.265693 22.997841 36 36 30
5.519381 3.265634 22.997421 33 16 23
5.564222 3.264957 22.992655 17 23 33
5.608812 3.264144 22.986933 36 22 26
5.652613 3.262890 22.978100 16 30 18
5.695623 3.261203 22.966221 41 32 25
5.739219 3.259876 22.956875 18 32 25
5.781619 3.257897 22.942934 44 22 38
5.824912 3.256447 22.932726 32 33 37
5.868026 3.254921 22.921976 37 38 17
5.910026 3.252805 22.907078 40 30 33
5.953115 3.251317 22.896597 43 40 31
5.994705 3.249038 22.880552 30 20 18
6.037142 3.247251 22.867964 20 24 44
6.079573 3.245486 22.855537 38 24 34
6.121051 3.243243 22.839741 28 38 40
6.164003 3.241809 22.829639 15 24 26
6.205703 3.239742 22.815084 43 26 43
6.247888 3.237957 22.802511 36 25 30
6.290963 3.236655 22.793344 38 43 29
6.334445 3.235580 22.785774 31 41 35
6.379663 3.235400 22.784510 29 17 18
6.426309 3.235943 22.788330 31 37 29
6.473768 3.236884 22.794958 42 39 30
6.522132 3.238261 22.804657 33 18 33
6.570699 3.239720 22.814926 32 18 20
6.618322 3.240696 22.821800 21 23 17
6.666955 3.242149 22.832037 36 24 38
6.715491 3.243537 22.841806 20 19 37
6.763071 3.244446 22.848211 18 23 17
6.810107 3.245084 22.852707 41 40 32
5.461739 3.304581 22.948483 26 36 16
5.506949 3.304169 22.945621 20 35 36
5.550931 3.303034 22.937733 15 28 25
5.594880 3.301896 22.929836 39 40 17
5.638119 3.300362 22.919182 35 18 40
5.680523 3.298368 22.905336 39 41 42
5.723770 3.296892 22.895081 37 20 22
5.765757 3.294718 22.879988 40 31 35
5.808731 3.293139 22.869020 29 24 24
5.851582 3.291515 22.857740 18 44 38
5.893268 3.289266 22.842125 25 36 24
5.936128 3.287702 22.831261 17 15 24
5.977427 3.285303 22.814608 17 23 31
6.019625 3.283432 22.801609 23 29 43
6.061799 3.281575 22.788717 44 15 31
6.102958 3.279201 22.772232 42 38 27
6.145629 3.277669 22.761589 36 19 32
6.187011 3.275477 22.746365 28 32 40
6.228928 3.273597 22.733315 27 19 15
6.271776 3.272231 22.723827 31 28 31
6.315026 3.271092 22.715919 18 18 15
6.360072 3.270894 22.714542 43 37 21
6.406636 3.271474 22.718569 34 40 20
6.454043 3.272472 22.725502 35 15 37
6.502458 3.273965 22.735867 23 44 34
6.551277 3.275639 22.747490 36 19 26
6.599150 3.276819 22.755690 23 44 26
5.665188 3.335151 22.843498 33 31 22
5.708266 3.333627 22.833063 21 39 28
5.750041 3.331373 22.817621 30 29 16
5.792793 3.329716 22.806273 26 21 32
5.835435 3.328021 22.794666 28 25 37
5.876919 3.325699 22.778757 18 30 41
5.919630 3.324100 22.767809 36 18 41
5.960788 3.321661 22.751101 18 42 18
6.002863 3.319765 22.738117 44 39 18
