ply
format ascii 1.0
element vertex 1289
property float x
property float y
property float z
property uchar red
property uchar green
property uchar blue
end_header
7.933697 1.652853 23.612192 41 24 31
7.970888 1.650776 23.582510 32 19 21
8.012847 1.649704 23.567196 29 29 40
8.054201 1.648521 23.550297 25 24 19
8.099189 1.648091 23.544155 41 29 24
8.143830 1.647596 23.537081 22 33 17
8.183928 1.646192 23.517035 23 38 24
8.224225 1.644845 23.497786 30 31 44
8.260193 1.642652 23.466457 15 30 38
8.297301 1.640709 23.438704 29 18 43
4.759327 1.925121 26.737793 15 19 30
4.793303 1.917321 26.629463 36 44 15
4.822481 1.907795 26.497147 42 27 21
4.860165 1.901804 26.413942 18 27 39
4.900790 1.897080 26.348333 40 25 36
4.937206 1.890845 26.261736 24 25 28
4.980184 1.887228 26.211494 31 31 30
5.019940 1.882477 26.145519 20 19 20
5.064543 1.879624 26.105892 31 42 24
5.108730 1.876676 26.064947 24 17 24
5.147429 1.871792 25.997114 20 33 31
5.188950 1.868022 25.944750 36 33 33
5.221562 1.861151 25.849318 16 27 29
5.257030 1.855422 25.769753 33 31 41
5.289423 1.848730 25.676809 19 34 16
5.314843 1.839753 25.552128 22 41 42
5.347135 1.833304 25.462549 120 120 120
5.368999 1.823434 25.325466 120 120 120
5.396008 1.815479 25.214993 120 120 120
5.424153 1.808051 25.111818 43 26 34
5.448230 1.799416 24.991882 25 33 37
5.483056 1.794455 24.922983 18 42 19
5.514596 1.788518 24.840523 18 26 37
5.552022 1.784578 24.785810 17 26 17
5.593824 1.782103 24.751432 33 19 40
5.634937 1.779454 24.714634 23 43 40
5.681755 1.778636 24.703283 30 35 40
5.729303 1.778060 24.695272 30 35 40
5.779750 1.778385 24.699785 30 35 40
5.829747 1.778567 24.702318 30 35 40
5.875720 1.777529 24.687901 30 35 40
5.920421 1.776126 24.668421 30 35 40
5.959882 1.773188 24.627613 30 35 40
5.999592 1.770372 24.588493 30 35 40
6.037914 1.767194 24.544367 30 35 40
6.074257 1.763494 24.492973 30 35 40
6.115028 1.761128 24.460112 30 35 40
6.152688 1.757911 24.415428 30 35 40
6.193644 1.755679 24.384424 30 35 40
6.235187 1.753646 24.356197 30 35 40
6.273995 1.750882 24.317812 30 35 40
6.316157 1.749089 24.292910 30 35 40
6.355292 1.746492 24.256840 30 35 40
6.396749 1.744568 24.230110 20 32 43
6.438427 1.742732 24.204613 36 28 44
6.477913 1.740335 24.171316 24 26 26
6.520487 1.738797 24.149952 39 28 31
6.559936 1.736454 24.117411 31 40 24
6.600487 1.734434 24.089367 42 27 20
6.642271 1.732766 24.066198 17 23 28
6.684177 1.731154 24.043802 26 29 32
6.729836 1.730529 24.035128 25 17 39
6.776579 1.730190 24.030420 42 20 30
6.825194 1.730331 24.032372 34 36 18
6.875054 1.730783 24.038651 24 15 28
6.924250 1.731062 24.042534 23 35 15
6.972956 1.731217 24.044676 17 43 41
7.022329 1.731533 24.049070 39 43 29
7.072219 1.731972 24.055166 40 24 38
7.121326 1.732214 24.058533 42 35 18
7.169089 1.732129 24.057344 39 26 20
7.215778 1.731787 24.052593 23 35 43
7.259585 1.730762 24.038363 15 41 35
7.303396 1.729752 24.024330 25 30 22
7.345351 1.728318 24.004416 23 22 41
7.385034 1.726372 23.977385 29 26 25
7.426548 1.724876 23.956608 32 30 41
7.463492 1.722344 23.921450 22 24 35
7.502591 1.720339 23.893600 33 23 30
7.540275 1.718037 23.861629 24 27 31
7.573842 1.714832 23.817112 32 34 30
7.611063 1.712489 23.784571 41 36 38
7.642917 1.708975 23.735767 37 15 25
7.677947 1.706210 23.697367 27 24 36
7.713585 1.703614 23.661303 37 17 40
7.747024 1.700566 23.618975 42 33 42
7.786223 1.698812 23.594616 29 21 19
7.821264 1.696178 23.558023 16 39 28
7.858423 1.694031 23.528212 30 44 42
7.896727 1.692156 23.502163 27 31 36
7.933671 1.690013 23.472401 20 29 18
7.975217 1.688870 23.456522 35 42 43
8.016682 1.687723 23.440592 40 33 30
8.062177 1.687432 23.436560 35 17 44
8.107499 1.687110 23.432079 43 16 17
8.148324 1.685860 23.414724 32 22 22
8.189007 1.684596 23.397163 32 24 44
8.224697 1.682324 23.365616 37 22 16
8.260770 1.680157 23.335508 25 24 18
4.738632 1.969993 26.621529 43 15 38
4.772589 1.962064 26.514383 39 34 21
4.801893 1.952418 26.384029 32 38 26
4.839625 1.946371 26.302309 42 35 37
4.880362 1.941649 26.238504 38 17 29
4.917025 1.935425 26.154390 20 18 32
4.960146 1.931846 26.106030 31 16 35
5.000202 1.927161 26.042721 40 39 23
5.045011 1.924386 26.005213 16 21 42
5.089353 1.921490 25.966087 41 17 18
5.128226 1.916610 25.900129 36 39 40
5.169727 1.912799 25.848633 22 28 19
5.202367 1.905818 25.754293 39 38 24
5.237857 1.900007 25.675768 37 35 29
5.270144 1.893158 25.583221 35 29 44
5.295285 1.883899 25.458101 29 43 16
5.327173 1.877194 25.367491 120 120 120
5.348623 1.866972 25.229355 120 120 120
5.375299 1.858748 25.118221 120 120 120
5.403211 1.851100 25.014864 25 20 29
5.427138 1.842239 24.895126 33 30 35
5.461887 1.837180 24.826761 24 38 42
5.493543 1.831181 24.745689 30 18 38
5.531100 1.827238 24.692411 28 41 19
5.573109 1.824823 24.659773 24 33 39
5.614484 1.822245 24.624931 40 39 32
5.661414 1.821499 24.614845 30 35 40
5.709348 1.821085 24.609261 30 35 40
5.760463 1.821685 24.617363 30 35 40
5.810679 1.821993 24.621521 30 35 40
5.855752 1.820696 24.603998 30 35 40
5.898902 1.818828 24.578756 30 35 40
5.937131 1.815486 24.533598 30 35 40
5.976587 1.812571 24.494209 30 35 40
6.015011 1.809394 24.451265 30 35 40
6.051230 1.805609 24.400120 30 35 40
6.091843 1.803186 24.367373 30 35 40
6.129309 1.799876 24.322653 30 35 40
6.170032 1.797568 24.291466 30 35 40
6.211332 1.795463 24.263014 30 35 40
6.249924 1.792614 24.224510 30 35 40
6.291900 1.790771 24.199614 30 35 40
6.330852 1.788103 24.163559 30 35 40
6.372136 1.786129 24.136879 20 17 17
6.413631 1.784243 24.111395 16 24 26
6.452919 1.781776 24.078054 30 18 18
6.495278 1.780187 24.056583 25 25 34
6.534510 1.777771 24.023933 33 42 40
6.574871 1.775695 23.995880 37 28 38
6.616446 1.773975 23.972630 18 35 16
6.658102 1.772300 23.950006 34 25 20
6.703503 1.771640 23.941084 44 43 41
6.749936 1.771260 23.935942 23 19 40
6.798219 1.771367 23.937389 37 39 18
6.847790 1.771806 23.943323 27 19 32
6.896755 1.772083 23.947065 21 26 35
6.945313 1.772252 23.949354 27 16 18
6.994775 1.772648 23.954708 17 30 25
7.044832 1.773189 23.962015 33 26 30
7.094249 1.773562 23.967058 16 22 35
7.142457 1.773630 23.967976 42 35 17
7.189433 1.773393 23.964775 19 40 24
7.233741 1.772506 23.952784 33 24 33
7.277907 1.771596 23.940483 18 28 44
7.320166 1.770236 23.922110 32 31 41
7.360283 1.768380 23.897022 17 25 29
7.401996 1.766928 23.877405 36 17 37
7.439102 1.764402 23.843277 24 39 32
7.478128 1.762361 23.815693 42 34 19
7.515651 1.759994 23.783705 44 16 27
7.549193 1.756730 23.739599 33 27 25
7.586378 1.754350 23.707430 41 34 38
7.618220 1.750771 23.659067 40 41 23
7.653187 1.747950 23.620949 40 21 35
7.688736 1.745296 23.585081 44 38 37
7.722049 1.742170 23.542831 27 20 20
7.761065 1.740360 23.518377 20 33 15
7.796142 1.737694 23.482355 20 43 23
7.833516 1.735569 23.453642 26 29 16
7.872039 1.733723 23.428686 40 26 27
7.909026 1.731562 23.399485 34 32 34
7.950378 1.730376 23.383465 21 18 33
7.991863 1.729234 23.368021 29 22 37
8.037544 1.729006 23.364952 35 29 43
8.083086 1.728753 23.361521 22 18 25
8.124199 1.727560 23.345400 27 37 41
8.165021 1.726319 23.328632 30 27 19
8.200326 1.723932 23.296381 26 18 17
8.235571 1.721560 23.264324 41 26 43
4.718794 2.014766 26.510078 34 29 41
4.752677 2.006686 26.403761 15 40 30
4.782005 1.996881 26.274752 19 41 33
4.819714 1.990752 26.194099 28 42 19
4.860448 1.985990 26.131443 28 20 23
4.897199 1.979719 26.048933 29 38 44
4.940325 1.976130 26.001711 25 31 25
4.980491 1.971444 25.940058 32 28 31
5.025387 1.968708 25.904057 20 29 36
5.069717 1.965809 25.865902 35 18 30
5.108408 1.960803 25.800041 21 38 29
5.149546 1.956827 25.747730 34 27 22
5.182017 1.949670 25.653549 22 20 22
5.217567 1.943799 25.576309 24 39 27
5.249949 1.936875 25.485191 23 17 41
5.275027 1.927414 25.360706 27 33 27
5.306684 1.920514 25.269922 120 120 120
5.327896 1.910001 25.131586 120 120 120
5.354317 1.901533 25.020172 120 120 120
5.382027 1.893676 24.916792 27 25 23
5.405871 1.884616 24.797575 33 20 30
5.440588 1.879476 24.729944 28 33 24
5.472400 1.873434 24.650452 17 26 39
5.510108 1.869501 24.598698 28 33 18
5.552322 1.867152 24.567795 15 24 42
5.593979 1.864660 24.534994 30 35 40
5.641033 1.863993 24.526230 30 35 40
5.689226 1.863712 24.522528 30 35 40
5.740707 1.864503 24.532934 30 35 40
5.790918 1.864872 24.537788 30 35 40
5.835181 1.863335 24.517569 30 35 40
5.877087 1.861077 24.487862 30 35 40
5.914358 1.857402 24.439497 30 35 40
5.953623 1.854407 24.400093 30 35 40
5.992157 1.851235 24.358360 30 35 40
6.028320 1.847388 24.307741 30 35 40
6.068827 1.844923 24.275307 30 35 40
6.106168 1.841543 24.230824 30 35 40
6.146702 1.839171 24.199614 30 35 40
6.187794 1.837001 24.171072 30 35 40
6.226210 1.834077 24.132595 30 35 40
6.268017 1.832190 24.107759 30 35 40
6.306776 1.829447 24.071665 30 35 40
6.347858 1.827414 24.044918 30 35 40
6.389113 1.825461 24.019220 41 21 25
6.428113 1.822898 23.985495 21 26 16
6.470191 1.821239 23.963671 34 36 17
6.509088 1.818716 23.930471 18 39 44
6.549166 1.816557 23.902067 24 42 16
6.590444 1.814760 23.878420 33 23 24
6.631736 1.812993 23.855165 41 35 36
6.676825 1.812281 23.845802 32 40 38
6.722894 1.811844 23.840050 25 41 35
6.770825 1.811911 23.840935 42 35 37
6.820133 1.812343 23.846621 22 25 44
6.868913 1.812630 23.850391 43 31 40
6.917370 1.812828 23.852999 23 18 43
6.966983 1.813324 23.859531 42 37 35
7.017222 1.813976 23.868103 33 29 16
7.066964 1.814491 23.874880 34 15 43
7.115655 1.814731 23.878036 17 27 28
7.162950 1.814614 23.876499 36 26 40
7.207798 1.813883 23.866880 20 37 34
7.252303 1.813076 23.856258 44 22 33
7.294902 1.811806 23.839548 32 18 19
7.335592 1.810081 23.816858 31 35 30
7.377684 1.808723 23.798981 23 41 32
7.415195 1.806265 23.766651 40 40 38
7.454311 1.804228 23.739843 30 40 38
7.491847 1.801837 23.708378 15 15 21
7.525610 1.798574 23.665442 23 16 41
7.562938 1.796198 23.634180 31 26 19
7.595082 1.792628 23.587210 27 43 24
7.630302 1.789824 23.550316 38 19 27
7.666037 1.787174 23.515451 39 35 29
7.699451 1.784019 23.473936 41 36 19
7.738357 1.782167 23.449568 26 27 18
7.773589 1.779496 23.414425 30 37 30
7.811284 1.777418 23.387077 17 42 29
7.850140 1.775627 23.363512 34 17 42
7.887336 1.773484 23.335314 22 27 28
7.928644 1.772285 23.319540 23 36 44
7.970047 1.771122 23.304232 34 32 27
8.015578 1.770884 23.301100 37 23 24
8.060912 1.770605 23.297434 29 34 33
8.101913 1.769383 23.281361 22 25 36
8.142659 1.768120 23.264740 37 29 32
8.177473 1.765591 23.231459 42 31 18
8.211997 1.763028 23.197733 38 24 25
4.693296 2.056613 26.366833 36 37 31
4.727091 2.048406 26.261616 33 24 35
4.756422 2.038467 26.134188 19 40 44
4.794072 2.032269 26.054737 22 36 21
4.834735 2.027470 25.993200 36 42 38
4.871478 2.021145 25.912115 37 21 37
4.914493 2.017529 25.865755 42 38 26
4.954653 2.012828 25.805487 30 37 36
4.999628 2.010160 25.771278 18 23 23
5.043827 2.007237 25.733812 17 17 39
5.081874 2.001950 25.666031 26 41 40
5.122083 1.997612 25.610413 23 37 28
5.154029 1.990170 25.514996 38 43 25
5.189646 1.984276 25.439442 28 32 30
5.222351 1.977395 25.351219 41 21 43
5.247664 1.967874 25.229155 20 33 28
5.279354 1.960903 25.139782 120 120 120
5.300594 1.950219 25.002804 120 120 120
5.326815 1.941549 24.891659 120 120 120
5.354335 1.933510 24.788586 25 38 35
5.378212 1.924314 24.670696 28 38 16
5.412974 1.919145 24.604425 33 25 18
5.445096 1.913142 24.527460 17 40 22
5.483064 1.909281 24.477966 40 32 26
5.525592 1.907063 24.449520 43 26 19
5.567723 1.904748 24.419840 30 35 40
5.615047 1.904233 24.413250 30 35 40
5.663375 1.904066 24.411100 30 35 40
5.714741 1.904914 24.421970 30 35 40
5.764502 1.905217 24.425858 30 35 40
5.807975 1.903454 24.403257 30 35 40
5.848972 1.900916 24.370718 30 35 40
5.885583 1.897006 24.320591 30 35 40
5.924705 1.893963 24.281576 30 35 40
5.963326 1.890811 24.241163 30 35 40
5.999469 1.886930 24.191408 30 35 40
6.039880 1.884442 24.159519 30 35 40
6.077128 1.881016 24.115589 30 35 40
6.117503 1.878603 24.084656 30 35 40
6.158401 1.876388 24.056253 30 35 40
6.196676 1.873414 24.018126 30 35 40
6.238324 1.871497 23.993555 30 35 40
6.276882 1.868690 23.957565 30 35 40
6.317725 1.866601 23.930777 38 43 23
6.358686 1.864577 23.904833 30 31 33
6.397349 1.861915 23.870707 29 37 22
6.439095 1.860183 23.848499 37 30 34
6.477603 1.857548 23.814718 20 17 19
6.517340 1.855301 23.785913 24 35 31
6.558256 1.853420 23.761797 25 41 25
6.599114 1.851550 23.737822 43 22 22
6.643802 1.850773 23.727865 29 31 25
6.689425 1.850266 23.721365 29 27 21
6.736929 1.850283 23.721581 19 31 41
6.785897 1.850699 23.726912 42 25 24
6.834423 1.850990 23.730635 34 40 26
6.882723 1.851215 23.733528 30 22 26
6.932448 1.851818 23.741259 26 19 26
6.982859 1.852595 23.751221 35 29 16
7.032893 1.853262 23.759773 15 20 33
7.081972 1.853671 23.765007 42 15 16
7.129464 1.853661 23.764879 44 43 44
7.174716 1.853072 23.757338 27 39 15
7.219450 1.852359 23.748190 17 18 17
7.262311 1.851177 23.733042 33 25 23
7.303532 1.849596 23.712765 19 17 37
7.345979 1.848343 23.696707 42 25 27
7.383858 1.845964 23.666210 37 29 32
7.422985 1.843926 23.640079 28 42 44
7.460448 1.841503 23.609013 27 26 34
7.494337 1.838234 23.567099 20 30 28
7.531737 1.835861 23.536678 30 40 30
7.564144 1.832308 23.491131 28 17 36
7.599626 1.829540 23.455637 17 40 16
7.635559 1.826913 23.421961 16 15 26
7.669016 1.823729 23.381147 42 44 15
7.707700 1.821820 23.356667 24 43 16
7.743007 1.819140 23.322309 38 38 34
7.780994 1.817118 23.296391 28 39 39
7.820177 1.815398 23.274336 40 26 37
7.857606 1.813294 23.247356 20 22 22
7.898902 1.812101 23.232063 22 43 32
7.940190 1.810921 23.216930 32 20 17
7.985463 1.810657 23.213554 37 27 29
8.030456 1.810334 23.209412 42 15 40
8.071243 1.809072 23.193226 42 30 33
8.111863 1.807787 23.176750 25 44 35
8.146098 1.805101 23.142324 34 20 40
8.179807 1.802330 23.106798 19 15 17
4.677019 2.102031 26.275385 41 22 18
4.710732 2.093658 26.170731 34 27 35
4.740009 2.083521 26.044006 39 40 25
4.777573 2.077206 25.965073 32 28 38
4.818106 2.072303 25.903793 29 23 25
4.854706 2.065832 25.822905 20 41 25
4.897535 2.062120 25.776503 19 43 25
4.937532 2.057305 25.716311 41 25 39
4.982496 2.054638 25.682970 28 33 17
5.026477 2.051623 25.645288 26 41 20
5.063733 2.045953 25.574411 41 25 20
5.102948 2.041179 25.514740 32 16 23
5.134306 2.033389 25.417356 40 27 18
5.169980 2.027443 25.343040 44 43 16
5.203098 2.020620 25.257755 42 25 35
5.228818 2.011084 25.138550 28 34 15
5.260778 2.004106 25.051325 120 120 120
5.282276 1.993312 24.916395 120 120 120
5.308468 1.984474 24.805927 120 120 120
5.335911 1.976263 24.703293 30 37 41
5.359912 1.966940 24.586752 19 21 32
5.394766 1.961733 24.521666 37 29 21
5.427164 1.955735 24.446686 30 35 40
5.465344 1.951909 24.398859 30 35 40
5.508105 1.949772 24.372147 30 35 40
5.550622 1.947587 24.344831 30 35 40
5.598182 1.947194 24.339924 30 35 40
5.646445 1.947050 24.338127 30 35 40
5.697305 1.947797 24.347458 30 35 40
5.746441 1.947946 24.349327 30 35 40
5.789568 1.946073 24.325914 30 35 40
5.830461 1.943487 24.293587 30 35 40
5.867054 1.939522 24.244024 30 35 40
5.906162 1.936447 24.205582 30 35 40
5.944809 1.933271 24.165892 30 35 40
5.981001 1.929355 24.116938 30 35 40
6.021392 1.926846 24.085569 30 35 40
6.058652 1.923382 24.042271 30 35 40
6.098972 1.920936 24.011702 30 35 40
6.139802 1.918688 23.983601 30 35 40
6.178044 1.915673 23.945908 30 35 40
6.219621 1.913730 23.921619 30 35 40
6.258073 1.910862 23.885777 30 35 40
6.298763 1.908716 23.858950 38 32 38
6.339512 1.906620 23.832752 43 37 37
6.377943 1.903864 23.798294 44 34 16
6.419450 1.902059 23.775742 26 30 41
6.457676 1.899316 23.741455 38 18 35
6.497159 1.896981 23.712259 30 28 18
6.537817 1.895019 23.687742 26 44 38
6.578355 1.893052 23.663147 34 23 39
6.622766 1.892219 23.652737 31 24 33
6.668079 1.891654 23.645672 28 27 29
6.715311 1.891637 23.645460 22 20 30
6.764074 1.892049 23.650610 19 44 37
6.812441 1.892345 23.654310 17 18 31
6.860649 1.892593 23.657410 35 36 38
6.910424 1.893267 23.665834 38 35 20
6.960929 1.894130 23.676628 34 24 31
7.011101 1.894892 23.686153 42 33 40
7.060340 1.895393 23.692417 44 31 42
7.107864 1.895430 23.692881 25 33 37
7.153256 1.894902 23.686279 22 15 26
7.198041 1.894221 23.677765 36 31 29
7.241002 1.893072 23.663404 23 33 40
7.282522 1.891564 23.644552 19 24 44
7.325220 1.890379 23.629742 30 18 34
7.363355 1.888040 23.600498 35 21 41
7.402508 1.885989 23.574865 27 18 25
7.439946 1.883531 23.544134 37 33 33
7.473945 1.880238 23.502972 37 40 36
7.511401 1.877850 23.473127 19 38 25
7.544047 1.874297 23.428717 30 19 30
7.579798 1.871555 23.394438 15 39 35
7.615953 1.868946 23.361820 39 28 44
7.649487 1.865728 23.321606 27 44 21
7.688015 1.863761 23.297016 34 27 38
7.723368 1.861053 23.263157 28 37 32
7.761531 1.859049 23.238115 23 42 19
7.800921 1.857362 23.217026 36 37 26
7.838565 1.855282 23.191021 28 28 15
7.879947 1.854105 23.176313 30 28 43
7.921109 1.852891 23.161137 34 27 29
7.966035 1.852566 23.157080 30 39 32
8.010584 1.852158 23.151978 32 28 35
8.051022 1.850810 23.135120 21 25 38
8.091451 1.849474 23.118431 35 31 20
8.125305 1.846660 23.083252 41 27 33
8.158573 1.843745 23.046816 42 34 40
4.653232 2.143624 26.141750 44 24 17
4.686849 2.135120 26.038048 15 16 34
4.716108 2.124840 25.912680 39 25 24
4.753622 2.118462 25.834900 42 39 21
4.794035 2.113499 25.774384 24 17 23
4.830512 2.106925 25.694212 22 39 28
4.873116 2.103134 25.647978 38 32 31
4.912857 2.098199 25.587797 31 38 39
4.957670 2.095510 25.555002 18 22 35
5.001246 2.092358 25.516560 16 26 44
5.037488 2.086233 25.441860 22 20 44
5.075498 2.080954 25.377491 35 23 31
5.106042 2.072750 25.277435 33 27 26
5.141518 2.066689 25.203522 22 36 28
5.174933 2.059925 25.121033 35 30 44
5.201202 2.050474 25.005779 29 17 16
5.233697 2.043634 24.922369 120 120 120
5.255725 2.032875 24.791157 120 120 120
5.281937 2.023920 24.681948 120 120 120
5.309303 2.015569 24.580109 15 37 41
5.333519 2.006186 24.465685 32 32 24
5.368513 2.000991 24.402330 30 35 40
5.401290 1.995071 24.330135 30 35 40
5.439760 1.991341 24.284645 30 35 40
5.482808 1.989337 24.260212 30 35 40
5.525794 1.987347 24.235939 30 35 40
5.573616 1.987115 24.233112 30 35 40
5.621693 1.986978 24.231434 30 35 40
5.671752 1.987537 24.238258 30 35 40
5.719977 1.987450 24.237190 30 35 40
5.762661 1.985455 24.212862 30 35 40
5.803513 1.982867 24.181303 30 35 40
5.840183 1.978905 24.132986 30 35 40
5.879319 1.975837 24.095568 30 35 40
5.918035 1.972678 24.057053 30 35 40
5.954322 1.968768 24.009363 30 35 40
5.994699 1.966261 23.978796 30 35 40
6.032007 1.962796 23.936537 30 35 40
6.072294 1.960347 23.906670 30 35 40
6.113056 1.958088 23.879124 30 35 40
6.151290 1.955061 23.842211 30 35 40
6.192786 1.953110 23.818409 30 35 40
6.231084 1.950187 23.782764 30 35 40
6.271524 1.947973 23.755774 28 32 35
6.311938 1.945786 23.729092 27 44 25
6.349991 1.942908 23.693995 44 30 27
6.391138 1.941012 23.670883 37 23 21
6.428929 1.938133 23.635767 27 26 24
6.468038 1.935690 23.605978 19 20 26
6.508302 1.933626 23.580805 34 43 43
6.548353 1.931529 23.555227 40 38 41
6.592336 1.930613 23.544058 22 32 36
6.637178 1.929960 23.536093 22 22 40
6.684004 1.929889 23.535227 21 44 39
6.732448 1.930282 23.540028 16 16 39
6.780539 1.930570 23.543539 32 24 16
6.828564 1.930835 23.546774 43 44 42
6.878310 1.931580 23.555857 22 41 17
6.928877 1.932544 23.567608 22 18 30
6.979095 1.933398 23.578022 33 32 21
7.028227 1.933942 23.584654 30 36 28
7.075468 1.933961 23.584892 39 15 41
7.120608 1.933410 23.578173 20 41 15
7.165123 1.932698 23.569483 17 38 41
7.207956 1.931544 23.555410 17 18 32
7.249628 1.930096 23.537752 37 43 16
7.292561 1.929000 23.524391 27 16 38
7.330990 1.926735 23.496763 22 25 18
7.370163 1.924692 23.471857 18 37 15
7.407615 1.922229 23.441820 35 36 41
7.441815 1.918959 23.401934 36 22 40
7.479390 1.916594 23.373095 32 44 25
7.512521 1.913126 23.330811 18 24 31
7.548860 1.910514 23.298952 44 40 18
7.585496 1.908008 23.268393 26 44 32
7.619218 1.904804 23.229322 19 31 39
7.657495 1.902771 23.204529 28 24 44
7.692752 1.900017 23.170940 18 39 23
7.730975 1.898024 23.146631 17 42 19
7.770435 1.896356 23.126295 26 36 40
7.808172 1.894290 23.101101 26 21 44
7.849534 1.893123 23.086864 42 38 34
7.890421 1.891855 23.071405 36 28 43
7.934859 1.891449 23.066450 26 25 26
7.978782 1.890925 23.060064 40 17 29
8.018593 1.889439 23.041935 38 30 40
8.058555 1.888004 23.024443 40 15 21
8.091975 1.885062 22.988565 29 29 17
8.125007 1.882064 22.951996 33 33 26
4.635963 2.187758 26.044735 40 37 20
4.669308 2.179010 25.940599 41 44 29
4.698432 2.168507 25.815559 30 27 18
4.735947 2.162063 25.738842 38 25 41
4.776355 2.157064 25.679329 30 35 30
4.812790 2.150396 25.599947 23 40 21
4.855250 2.146532 25.553947 38 41 21
4.894847 2.141496 25.493996 40 34 41
4.939607 2.138799 25.461889 32 18 15
4.982936 2.135544 25.423145 36 32 35
5.018485 2.129054 25.345886 40 24 34
5.055643 2.123370 25.278215 37 29 22
5.085503 2.114764 25.175758 20 31 42
5.120631 2.108495 25.101133 16 44 28
5.154091 2.101668 25.019859 21 17 30
5.180789 2.092242 24.907640 29 15 28
5.213841 2.085536 24.827812 120 120 120
5.236405 2.074802 24.700026 120 120 120
5.262680 2.065725 24.591965 120 120 120
5.289997 2.057221 24.490725 29 22 33
5.314385 2.047745 24.377913 39 31 37
5.349486 2.042531 24.315844 30 35 40
5.382532 2.036634 24.245642 30 35 40
5.421205 2.032952 24.201807 30 35 40
5.464436 2.031029 24.178919 30 35 40
5.507720 2.029160 24.156666 30 35 40
5.555687 2.029034 24.155161 30 35 40
5.603574 2.028880 24.153336 30 35 40
5.652996 2.029281 24.158102 30 35 40
5.700535 2.029004 24.154810 30 35 40
5.742916 2.026911 24.129898 30 35 40
5.783783 2.024324 24.099094 30 35 40
5.820549 2.020356 24.051857 30 35 40
5.859705 2.017276 24.015186 30 35 40
5.898459 2.014108 23.977476 37 42 22
5.934818 2.010180 23.930717 30 35 40
5.975183 2.007662 23.900734 30 35 40
6.012520 2.004173 23.859207 30 35 40
6.052784 2.001708 23.829859 30 35 40
6.093495 1.999428 23.802713 30 35 40
6.131724 1.996375 23.766371 30 35 40
6.173168 1.994408 23.742952 30 35 40
6.211325 1.991417 23.707346 44 25 16
6.251552 1.989130 23.680120 17 15 17
6.291668 1.986843 23.652887 35 42 42
6.329385 1.983837 23.617109 16 44 24
6.370226 1.981848 23.593430 34 25 35
6.407631 1.978827 23.557467 39 35 26
6.446414 1.976273 23.527060 30 35 27
6.486344 1.974105 23.501245 37 40 15
6.525974 1.971877 23.474726 44 20 42
6.569604 1.970881 23.462872 29 20 28
6.614046 1.970141 23.454065 43 37 31
6.660537 1.970018 23.452595 36 30 30
6.708710 1.970390 23.457027 27 31 22
6.756526 1.970654 23.460161 34 43 43
6.804358 1.970918 23.463305 37 35 35
6.854051 1.971713 23.472776 19 39 15
6.904728 1.972779 23.485468 28 40 20
6.954985 1.973712 23.496571 19 24 27
7.003837 1.974236 23.502810 18 18 38
7.050599 1.974168 23.501997 39 31 35
7.095229 1.973507 23.494135 19 37 34
7.139330 1.972710 23.484638 34 31 21
7.181900 1.971502 23.470263 32 31 40
7.223513 1.970049 23.452963 36 29 38
7.266544 1.968999 23.440466 44 15 15
7.305112 1.966761 23.413820 23 43 23
7.344249 1.964704 23.389328 40 44 19
7.381711 1.962227 23.359846 17 34 32
7.416092 1.958968 23.321045 40 43 39
7.453806 1.956624 23.293142 15 36 29
7.487411 1.953238 23.252831 17 37 31
7.524311 1.950747 23.223181 19 27 32
7.561413 1.948339 23.194517 39 22 27
7.595351 1.945151 23.156559 32 37 38
7.633428 1.943055 23.131601 36 39 43
7.668582 1.940244 23.098139 41 32 30
7.706785 1.938233 23.074205 16 16 32
7.746208 1.936552 23.054192 21 43 15
7.783887 1.934457 23.029251 35 27 43
7.825121 1.933265 23.015062 25 17 28
7.865714 1.931930 22.999163 25 41 26
7.909755 1.931452 22.993475 34 30 27
7.953208 1.930837 22.986151 27 33 21
7.992492 1.929222 22.966932 18 37 30
8.032046 1.927691 22.948702 24 42 28
8.065229 1.924657 22.912582 20 27 22
8.098246 1.921618 22.876400 20 39 38
4.618683 2.231498 25.947657 24 32 34
4.652109 2.222674 25.845051 25 37 32
4.681384 2.212082 25.721888 18 37 41
4.718956 2.205599 25.646502 17 30 35
4.759328 2.200550 25.587786 40 42 26
4.795758 2.193804 25.509350 34 32 30
4.838107 2.189880 25.463720 15 19 43
4.877446 2.184689 25.403362 26 33 38
4.921863 2.181857 25.370426 36 32 33
4.964722 2.178398 25.330214 20 35 32
4.999685 2.171580 25.250935 19 35 36
5.036316 2.165616 25.181580 32 30 19
5.065674 2.156673 25.077595 22 41 18
5.100365 2.150154 25.001791 37 22 34
5.133692 2.143192 24.920834 27 19 38
5.160716 2.133757 24.811132 24 36 22
5.194299 2.127189 24.734758 120 120 120
5.217397 2.116491 24.610365 120 120 120
5.243773 2.107311 24.503611 120 120 120
5.271091 2.098675 24.403198 25 16 33
5.295680 2.089121 24.292109 38 37 16
5.330887 2.083892 24.231306 30 35 40
5.364185 2.078018 24.162994 30 35 40
5.403039 2.074381 24.120708 30 35 40
5.446411 2.072528 24.099165 30 35 40
5.489923 2.070760 24.078608 30 35 40
5.537982 2.070724 24.078182 30 35 40
5.585620 2.070532 24.075949 30 35 40
5.634374 2.070753 24.078520 30 35 40
5.681237 2.070281 24.073036 30 35 40
5.723396 2.068118 24.047882 30 35 40
5.764408 2.065580 24.018368 28 23 24
5.801401 2.061655 23.972731 20 38 16
5.840652 2.058591 23.937099 17 16 31
5.879493 2.055433 23.900379 24 16 16
5.915992 2.051513 23.854807 17 21 33
5.956372 2.048992 23.825489 42 37 41
5.993797 2.045502 23.784910 26 27 37
6.034095 2.043040 23.756281 30 35 40
6.074813 2.040758 23.729740 43 44 39
6.113104 2.037701 23.694201 29 40 18
6.154528 2.035728 23.671261 43 36 15
6.192593 2.032683 23.635851 41 28 24
6.232626 2.030325 23.608433 18 31 42
6.272476 2.027943 23.580738 18 37 29
6.309906 2.024821 23.544426 44 37 17
6.350490 2.022749 23.520332 19 26 22
6.387586 2.019604 23.483770 27 35 20
6.426110 2.016954 23.452955 40 26 24
6.465760 2.014693 23.426668 32 43 35
6.505041 2.012351 23.399427 36 19 18
6.548358 2.011281 23.386992 31 31 32
6.592452 2.010464 23.377491 31 33 30
6.638659 2.010298 23.375561 41 34 39
6.686591 2.010653 23.379690 39 43 44
6.734185 2.010902 23.382586 23 28 35
6.781863 2.011173 23.385735 23 28 24
6.831380 2.011982 23.395136 33 36 35
6.881952 2.013088 23.408001 27 35 38
6.931991 2.014024 23.418888 16 30 40
6.980363 2.014467 23.424038 17 43 36
7.026567 2.014282 23.421888 34 23 15
7.070512 2.013457 23.412292 24 42 31
7.114021 2.012519 23.401384 39 21 41
7.156164 2.011209 23.386156 29 30 27
7.197553 2.009706 23.368679 15 33 26
7.240605 2.008684 23.356791 30 22 23
7.279294 2.006472 23.331072 17 18 42
7.318453 2.004417 23.307175 18 15 41
7.356010 2.001952 23.278513 28 21 21
7.390584 1.998711 23.240829 25 32 33
7.428410 1.996385 23.213781 15 31 24
7.462507 1.993092 23.175488 44 21 20
7.500039 1.990751 23.148270 17 38 35
7.537677 1.988467 23.121708 18 39 28
7.571832 1.985297 23.084854 41 42 32
7.609681 1.983129 23.059641 39 26 39
7.644564 1.980218 23.025795 43 37 44
7.682537 1.978138 23.001608 39 36 40
7.721712 1.976391 22.981287 16 40 35
7.759183 1.974230 22.956161 33 19 29
7.800267 1.973009 22.941961 31 38 18
7.840575 1.971607 22.925657 36 31 23
7.884288 1.971072 22.919441 22 39 43
7.927324 1.970375 22.911341 21 22 39
7.965985 1.968606 22.890762 24 41 39
8.004942 1.966928 22.871262 31 42 42
8.037977 1.963824 22.835163 19 21 21
8.071342 1.960835 22.800402 41 40 33
4.629156 2.263143 25.717531 19 29 19
4.659115 2.252759 25.599535 24 36 31
4.696813 2.246302 25.526155 28 33 19
4.737033 2.241177 25.467920 15 24 37
4.773502 2.234405 25.390968 15 35 24
4.815772 2.230463 25.346167 16 32 19
4.854640 2.225043 25.284582 26 40 24
4.898228 2.221877 25.248600 38 19 37
4.940179 2.218040 25.204996 28 15 34
4.974501 2.210889 25.123741 44 37 21
5.010844 2.204772 25.054222 21 42 27
5.039892 2.195597 24.949963 39 26 26
5.074151 2.188850 24.873291 16 34 35
5.107276 2.181749 24.792603 19 22 31
5.134532 2.172302 24.685249 19 44 18
5.168515 2.165854 24.611977 120 120 120
5.192075 2.155201 24.490919 120 120 120
5.218536 2.145940 24.385683 120 120 120
5.245887 2.137213 24.286516 42 24 20
5.270717 2.127629 24.177601 30 35 40
5.306051 2.122420 24.118412 30 35 40
5.339649 2.116617 24.052471 30 35 40
5.378710 2.113065 24.012098 30 35 40
5.422244 2.111316 23.992231 30 35 40
5.466034 2.109697 23.973835 30 35 40
5.514196 2.109779 23.974764 30 35 40
5.561536 2.109548 23.972137 30 35 40
5.609461 2.109541 23.972057 30 35 40
5.655490 2.108827 23.963942 30 35 40
5.697346 2.106582 23.938429 30 35 40
5.738476 2.104108 23.910316 31 27 29
5.775752 2.100274 23.866745 44 27 41
5.815179 2.097277 23.832699 29 40 17
5.854206 2.094188 23.797586 43 16 25
5.890929 2.090329 23.753744 15 40 40
5.931348 2.087834 23.725391 32 39 17
5.968923 2.084386 23.686201 19 21 18
6.009295 2.081960 23.658642 22 30 27
6.050058 2.079707 23.633039 15 44 18
6.088454 2.076682 23.598658 23 33 29
6.129876 2.074727 23.576445 20 44 37
6.167876 2.071653 23.541510 24 44 18
6.207714 2.069238 23.514069 37 43 33
6.247289 2.066772 23.486050 34 38 35
6.284467 2.063556 23.449505 38 41 24
6.324809 2.061419 23.425217 24 27 21
6.361648 2.058180 23.388411 38 27 24
6.399952 2.055459 23.357491 18 20 33
6.439356 2.053128 23.330999 37 38 35
6.478307 2.050687 23.303263 44 36 16
6.521293 2.049549 23.290333 37 25 25
6.565038 2.048664 23.280275 44 18 35
6.610936 2.048459 23.277943 38 44 19
6.658621 2.048806 23.281891 21 31 28
6.706052 2.049071 23.284903 26 25 29
6.753648 2.049383 23.288443 41 31 33
6.802888 2.050185 23.297562 40 39 28
6.853024 2.051245 23.309605 30 33 43
6.902523 2.052102 23.319336 29 34 30
6.950348 2.052452 23.323317 35 23 17
6.996134 2.052199 23.320448 40 27 25
7.039499 2.051245 23.309599 17 38 16
7.082355 2.050155 23.297220 37 20 31
7.124009 2.048735 23.281075 33 25 23
7.165207 2.047202 23.263659 22 39 29
7.208337 2.046238 23.252699 30 35 40
7.247278 2.044104 23.228456 38 29 27
7.286594 2.042103 23.205713 25 22 18
7.324347 2.039691 23.178312 23 15 24
7.359152 2.036495 23.141989 27 29 24
7.397024 2.034182 23.115700 21 33 39
7.431630 2.031005 23.079597 34 39 41
7.469920 2.028867 23.055307 37 30 28
7.508181 2.026748 23.031229 33 30 37
7.542547 2.023610 22.995571 41 42 41
7.580062 2.021350 22.969885 33 44 18
7.614494 2.018300 22.935223 41 19 32
7.652020 2.016101 22.910238 38 26 33
7.690753 2.014245 22.889145 31 37 26
7.727910 2.012000 22.863640 23 20 23
7.768838 2.010758 22.849524 36 21 39
7.808973 2.009327 22.833256 25 21 21
7.852625 2.008811 22.827398 36 24 22
7.895383 2.008074 22.819025 29 38 36
7.933125 2.006078 22.796337 37 35 16
7.970966 2.004129 22.774189 15 17 24
8.003581 2.000895 22.737446 34 29 44
4.613883 2.306941 25.632683 24 41 41
4.644670 2.296815 25.520163 33 37 27
4.682503 2.290354 25.448383 17 19 42
4.722562 2.285111 25.390118 30 42 43
4.759103 2.278294 25.314377 42 27 18
4.801370 2.274333 25.270369 37 28 33
4.839810 2.268661 25.207346 44 16 32
4.882534 2.265093 25.167700 38 41 26
4.923637 2.260854 25.120598 27 41 40
4.957643 2.253474 25.038601 27 24 36
4.994141 2.247364 24.970707 28 36 38
5.023238 2.238076 24.867514 37 31 17
5.057252 2.231140 24.790449 20 37 33
5.090145 2.223850 24.709442 35 22 19
5.117415 2.214266 24.602955 27 28 34
5.151499 2.207785 24.530947 120 120 120
5.175240 2.197036 24.411510 120 120 120
5.201756 2.187654 24.307270 120 120 120
5.229163 2.178818 24.209087 22 33 27
5.254154 2.169146 24.101622 43 37 29
5.289563 2.163912 24.043468 30 35 40
5.323340 2.158111 23.979008 30 35 40
5.362510 2.154580 23.939777 30 35 40
5.406123 2.152881 23.920900 30 35 40
5.450053 2.151337 23.903740 30 35 40
5.498252 2.151490 23.905443 30 35 40
5.545378 2.151224 23.902491 30 35 40
5.592764 2.151063 23.900700 30 35 40
5.638264 2.150186 23.890951 30 35 40
5.679943 2.147878 23.865307 33 30 29
5.721166 2.145437 23.838192 30 27 17
5.758677 2.141657 23.796185 35 40 23
5.798270 2.138706 23.763401 23 34 28
5.837481 2.135664 23.729597 35 44 39
5.874402 2.131839 23.687105 28 19 16
5.914866 2.129352 23.659464 37 42 15
5.952581 2.125922 23.621353 23 35 35
5.993041 2.123518 23.594648 38 24 24
6.033869 2.121282 23.569801 30 42 40
6.072385 2.118274 23.536375 24 44 19
6.113826 2.116324 23.514715 29 44 16
6.151833 2.113225 23.480278 30 28 25
6.191582 2.110767 23.452963 23 32 36
6.231024 2.108241 23.424904 44 25 22
6.268117 2.104965 23.388496 43 32 35
6.308371 2.102790 23.364338 41 30 32
6.345142 2.099496 23.327728 17 39 38
6.383390 2.096734 23.297045 24 30 36
6.422713 2.094363 23.270700 37 33 17
6.461543 2.091867 23.242962 26 25 36
6.504366 2.090689 23.229879 25 33 44
6.547950 2.089771 23.219681 26 24 22
6.593698 2.089552 23.217247 40 21 39
6.641261 2.089907 23.221193 28 33 34
6.688678 2.090212 23.224577 34 36 23
6.736301 2.090576 23.228622 40 29 20
6.785281 2.091354 23.237265 32 31 33
6.834885 2.092312 23.247910 29 35 34
6.883790 2.093044 23.256048 35 23 33
6.931213 2.093320 23.259106 15 19 26
6.976858 2.093057 23.256193 21 20 27
7.019930 2.092032 23.244802 22 33 23
7.062352 2.090828 23.231422 28 33 39
7.103653 2.089310 23.214554 34 38 20
7.144706 2.087739 23.197098 30 35 40
7.187888 2.086806 23.186735 30 35 40
7.227038 2.084723 23.163584 30 35 40
7.266552 2.082770 23.141884 18 25 24
7.304514 2.080399 23.115549 18 39 25
7.339466 2.077207 23.080082 18 17 27
7.377300 2.074866 23.054062 28 39 32
7.412191 2.071731 23.019228 39 18 39
7.450970 2.069714 22.996820 27 30 35
7.489648 2.067694 22.974380 28 40 30
7.524119 2.064545 22.939386 23 27 30
7.561376 2.062194 22.913261 37 42 36
7.595391 2.058992 22.877684 24 22 41
7.632454 2.056649 22.851658 30 39 38
7.670753 2.054666 22.829622 44 43 31
7.707610 2.052322 22.803581 20 40 20
7.748438 2.051057 22.789524 39 31 32
7.788579 2.049626 22.773623 28 20 44
7.832430 2.049182 22.768692 38 21 31
7.875190 2.048460 22.760664 20 27 42
7.912218 2.046263 22.736259 23 23 35
7.949024 2.044035 22.711496 38 20 40
7.981263 2.040664 22.674044 20 40 39
4.591371 2.346701 25.507614 44 40 40
4.623374 2.337090 25.403152 17 36 43
4.661269 2.330635 25.332985 24 38 18
4.700880 2.325166 25.273548 40 23 29
4.737303 2.318254 25.198418 42 27 23
4.779419 2.314245 25.154839 22 17 44
4.817116 2.308201 25.089144 40 31 44
4.858548 2.304054 25.044064 27 42 20
4.898436 2.299266 24.992022 19 39 23
4.931940 2.291609 24.908789 32 37 43
4.968615 2.285563 24.843073 28 18 27
4.997795 2.276224 24.741560 30 25 35
5.031520 2.269117 24.664312 44 41 32
5.064164 2.261666 24.583323 27 37 37
5.091467 2.251995 24.478207 31 44 40
5.125659 2.245527 24.407900 120 120 120
5.149652 2.234755 24.290813 120 120 120
5.176260 2.225308 24.188131 120 120 120
5.203776 2.216423 24.091557 25 24 23
5.229018 2.206741 23.986320 32 42 38
5.264542 2.201536 23.929737 30 35 40
5.298611 2.195821 23.867617 30 35 40
5.337996 2.192391 23.830338 30 35 40
5.381773 2.190810 23.813156 30 35 40
5.425933 2.189411 23.797951 30 35 40
5.474165 2.189666 23.800716 30 35 40
5.521119 2.189409 23.797926 30 35 40
5.567966 2.189115 23.794725 30 35 40
5.612965 2.188105 23.783749 30 35 40
5.654596 2.185810 23.758806 17 39 33
5.696023 2.183476 23.733431 24 23 15
5.733976 2.179859 23.694117 17 33 29
5.773893 2.177042 23.663498 21 32 29
5.813431 2.174129 23.631834 36 29 42
5.850722 2.170429 23.591619 24 36 27
5.891303 2.168000 23.565212 27 27 41
5.929313 2.164670 23.529020 21 36 18
5.969992 2.162359 23.503904 26 37 21
6.011006 2.160205 23.480494 40 41 17
6.049773 2.157283 23.448732 17 32 17
6.091280 2.155376 23.428001 19 24 32
6.129351 2.152291 23.394468 42 31 40
6.169011 2.149807 23.367466 35 35 15
6.208315 2.147237 23.339529 29 40 20
6.245356 2.143928 23.303568 27 38 26
6.285535 2.141738 23.279758 18 37 16
6.322291 2.138422 23.243717 17 28 23
6.360514 2.135647 23.213554 22 33 35
6.399788 2.133263 23.187637 33 42 29
6.438531 2.130737 23.160185 26 28 20
6.481196 2.129536 23.147127 31 33 15
6.524652 2.128610 23.137062 24 21 17
6.570293 2.128405 23.134836 17 16 28
6.617746 2.128785 23.138971 19 33 35
6.665130 2.129139 23.142813 23 40 18
6.712719 2.129552 23.147308 25 17 28
6.761187 2.130237 23.154751 43 23 30
6.809904 2.130990 23.162937 44 18 21
6.857783 2.131473 23.168186 27 34 44
6.904380 2.131553 23.169060 40 24 29
6.949614 2.131215 23.165379 24 27 19
6.991972 2.130005 23.152225 23 32 42
7.033546 2.128573 23.136665 18 30 37
7.074145 2.126867 23.118122 30 35 40
7.114753 2.125186 23.099846 30 35 40
7.157857 2.124267 23.089861 30 35 40
7.197178 2.122245 23.067877 30 35 40
7.236926 2.120373 23.047535 30 35 40
7.275188 2.118093 23.022747 26 44 26
7.310342 2.114942 22.988497 35 34 42
7.348135 2.112589 22.962921 44 44 38
7.383372 2.109535 22.929728 33 44 16
7.422766 2.107699 22.909771 44 30 40
7.461911 2.105815 22.889297 27 19 17
7.496429 2.102657 22.854967 33 43 25
7.533262 2.100182 22.828068 25 40 22
7.566591 2.096766 22.790936 15 26 38
7.602875 2.094205 22.763100 19 27 25
7.640494 2.092040 22.739565 24 17 26
7.677090 2.089622 22.713285 39 24 16
7.718048 2.088413 22.700140 27 20 15
7.757843 2.086905 22.683750 28 18 43
7.800791 2.086258 22.676718 38 43 44
7.842650 2.085329 22.666618 30 43 21
7.879168 2.082999 22.641289 35 35 38
7.915897 2.080750 22.616848 17 18 37
7.948807 2.077529 22.581837 41 29 27
4.574519 2.388915 25.413994 18 43 21
4.607444 2.379669 25.315624 31 38 19
4.645098 2.373039 25.245096 27 21 17
4.684027 2.367196 25.182941 39 26 42
4.720208 2.360104 25.107487 26 43 24
4.762245 2.356058 25.064449 20 38 24
4.799376 2.349695 24.996752 20 42 32
4.839784 2.345050 24.947342 44 36 19
4.878700 2.339785 24.891325 38 19 21
4.911779 2.331855 24.806965 29 35 27
4.948558 2.325822 24.742790 38 38 36
4.977824 2.316413 24.642693 36 40 40
5.011382 2.309166 24.565596 33 22 29
5.043919 2.301594 24.485044 42 29 30
5.071349 2.291860 24.381485 32 34 21
5.105700 2.285409 24.312857 120 120 120
5.129967 2.274608 24.197956 120 120 120
5.156680 2.265084 24.096634 120 120 120
5.184302 2.256132 24.001400 16 31 42
5.209772 2.246415 23.898035 43 21 33
5.245406 2.241219 23.842756 30 35 40
5.279745 2.235568 23.782637 30 35 40
5.319339 2.232222 23.747047 30 35 40
5.363283 2.230746 23.731340 30 35 40
5.407646 2.229468 23.717747 30 35 40
5.455907 2.229806 23.721336 30 35 40
5.502824 2.229592 23.719069 30 35 40
5.549410 2.229250 23.715427 30 35 40
5.594204 2.228200 23.704254 30 35 40
5.635944 2.225961 23.680439 20 16 17
5.677597 2.223725 23.656652 29 43 27
5.715982 2.220257 23.619761 27 41 34
5.756224 2.217562 23.591084 34 37 24
5.796081 2.214763 23.561306 17 42 25
5.833743 2.211177 23.523159 23 31 43
5.874467 2.208800 23.497868 24 41 32
5.912791 2.205565 23.463455 19 22 44
5.953733 2.203350 23.439896 33 26 29
5.994976 2.201280 23.417873 34 29 22
6.034024 2.198443 23.387690 30 18 30
6.075631 2.196574 23.367811 25 30 32
6.113805 2.193503 23.335135 25 31 33
6.153449 2.191001 23.308517 36 37 24
6.192686 2.188393 23.280773 19 16 31
6.229743 2.185059 23.245308 35 42 26
6.269906 2.182856 23.221872 44 27 41
6.306698 2.179520 23.186388 16 18 18
6.344942 2.176732 23.156723 25 35 16
6.384214 2.174334 23.131208 18 17 26
6.422947 2.171788 23.104126 40 40 28
6.465532 2.170572 23.091187 23 37 25
6.508953 2.169651 23.081394 23 16 18
6.554574 2.169472 23.079487 24 31 34
6.601988 2.169884 23.083876 35 28 19
6.649379 2.170283 23.088121 23 44 30
6.696954 2.170737 23.092943 25 23 38
6.744959 2.171322 23.099174 43 26 36
6.792912 2.171883 23.105143 34 30 40
6.839876 2.172123 23.107691 21 35 23
6.885666 2.171989 23.106262 41 44 26
6.930453 2.171542 23.101511 42 22 39
6.972073 2.170115 23.086334 22 44 24
7.012852 2.168448 23.068592 43 39 24
7.052783 2.166541 23.048311 40 19 41
7.092889 2.164713 23.028860 30 35 40
7.135846 2.163773 23.018858 30 35 40
7.175203 2.161760 22.997444 30 35 40
7.215081 2.159929 22.977964 43 41 36
7.253549 2.157701 22.954269 44 32 30
7.288832 2.154561 22.920856 27 27 17
7.326594 2.152187 22.895605 15 27 26
7.362066 2.149175 22.863560 41 18 35
7.401889 2.147462 22.845337 18 27 22
7.441359 2.145668 22.826256 34 26 39
7.475900 2.142484 22.792379 39 16 32
7.512435 2.139906 22.764956 27 41 20
7.545240 2.136303 22.726625 23 41 33
7.580868 2.133538 22.697210 28 29 23
7.617958 2.131215 22.672495 29 25 36
7.654637 2.128804 22.646856 35 24 41
7.696091 2.127743 22.635563 28 42 43
7.735346 2.126089 22.617970 22 29 22
7.776452 2.124961 22.605965 30 38 28
7.816653 2.123599 22.591482 29 39 20
7.853010 2.121215 22.566120 31 15 28
7.890725 2.119223 22.544928 25 22 21
7.925012 2.116338 22.514238 44 21 21
4.591954 2.422130 25.230516 43 40 29
4.629614 2.415451 25.160948 32 43 27
4.668091 2.409337 25.097263 35 40 36
4.703955 2.402020 25.021038 24 28 21
4.745644 2.397799 24.977072 34 30 39
4.782057 2.391029 24.906549 38 20 37
4.821529 2.385911 24.853243 27 23 38
4.859624 2.380224 24.793999 40 15 42
4.892326 2.372037 24.708717 35 21 21
4.929193 2.366013 24.645967 17 22 22
4.958540 2.356534 24.547230 15 25 40
4.991983 2.349169 24.470507 44 29 39
5.024411 2.341473 24.390343 17 36 26
5.051818 2.331608 24.287588 36 38 33
5.086128 2.325087 24.219656 120 120 120
5.110486 2.314182 24.106068 120 120 120
5.137266 2.304568 24.005915 120 120 120
5.164992 2.295552 23.911999 29 16 24
5.190639 2.285786 23.810272 27 20 43
5.226344 2.280587 23.756111 42 38 41
5.260915 2.274990 23.697815 30 35 40
5.300701 2.271729 23.663845 30 35 40
5.344814 2.270363 23.649618 30 35 40
5.389349 2.269200 23.637495 30 35 40
5.437603 2.269608 23.641752 30 35 40
5.484549 2.269469 23.640299 30 35 40
5.531040 2.269145 23.636925 30 35 40
5.575796 2.268120 23.626255 40 33 20
5.617734 2.265977 23.603924 35 26 25
5.659601 2.263840 23.581671 38 42 20
5.698397 2.260521 23.547094 22 35 38
5.738941 2.257944 23.520248 20 18 17
5.779089 2.255254 23.492231 37 41 16
5.817086 2.251775 23.455992 44 33 38
5.857930 2.249445 23.431719 30 15 20
5.896551 2.246305 23.399012 29 38 34
5.937739 2.244185 23.376926 26 36 19
5.979202 2.242201 23.356256 28 40 33
6.018500 2.239442 23.327518 42 38 23
6.060176 2.237604 23.308371 22 15 22
6.098445 2.234545 23.276506 36 33 15
6.138073 2.232026 23.250275 38 31 40
6.177271 2.229391 23.222824 26 24 24
6.214375 2.226045 23.187967 35 16 41
6.254557 2.223843 23.165028 29 36 28
6.291443 2.220509 23.130306 39 39 29
6.329743 2.217720 23.101254 28 40 42
6.369063 2.215326 23.076317 38 19 26
6.407862 2.212787 23.049862 37 31 26
6.450424 2.211574 23.037228 41 23 32
6.493891 2.210686 23.027981 34 29 44
6.539581 2.210563 23.026693 23 20 20
6.586993 2.211018 23.031443 43 26 18
6.634339 2.211446 23.035898 34 28 43
6.681779 2.211899 23.040617 42 36 19
6.729236 2.212352 23.045328 24 25 39
6.776431 2.212712 23.049086 28 43 30
6.822499 2.212703 23.048985 19 15 22
6.867434 2.212328 23.045080 19 35 43
6.911710 2.211747 23.039032 30 37 43
6.952510 2.210069 23.021557 41 27 24
6.992466 2.208147 23.001534 35 29 35
7.031688 2.206020 22.979372 27 30 25
7.071207 2.204013 22.958466 25 34 19
7.113936 2.203025 22.948179 30 35 40
7.153257 2.201002 22.927105 35 29 41
7.193260 2.199213 22.908472 20 43 43
7.231952 2.197049 22.885923 27 30 16
7.267370 2.193923 22.853365 25 20 43
7.305112 2.191534 22.828474 33 20 28
7.340742 2.188544 22.797337 33 22 30
7.380852 2.186919 22.780407 39 43 30
7.420471 2.185169 22.762180 33 22 20
7.454878 2.181916 22.728287 27 24 29
7.491022 2.179206 22.700068 43 33 29
7.523214 2.175387 22.660282 15 23 19
7.558174 2.172409 22.629265 19 32 34
7.594708 2.169916 22.603296 33 43 42
7.631290 2.167467 22.577780 17 39 24
7.673024 2.166501 22.567719 23 43 24
7.711673 2.164680 22.548752 35 18 35
7.751006 2.163071 22.531994 38 41 29
7.789807 2.161334 22.513893 22 38 16
7.826476 2.159028 22.489874 34 21 36
7.865659 2.157438 22.473312 36 35 29
4.571887 2.461785 25.120256 16 41 37
4.610331 2.455502 25.056147 26 40 40
4.649045 2.449497 24.994864 19 17 40
4.684591 2.441967 24.918036 30 36 34
4.725372 2.437297 24.870380 27 33 26
4.760631 2.429906 24.794954 39 17 18
4.799084 2.424280 24.737549 15 36 29
4.836400 2.418200 24.675510 31 21 21
4.868708 2.409764 24.589434 15 20 30
4.905643 2.403765 24.528214 40 18 37
4.935015 2.394215 24.430769 32 40 27
4.968288 2.386727 24.354353 20 15 44
5.000485 2.378872 24.274200 26 31 21
5.027627 2.368786 24.171286 41 28 23
5.061634 2.362096 24.103018 120 120 120
5.085863 2.351012 23.989920 120 120 120
5.112623 2.341295 23.890762 120 120 120
5.140430 2.332232 23.798288 24 16 34
5.166184 2.322413 23.698093 32 39 27
5.201888 2.317205 23.644947 31 32 18
5.236642 2.311671 23.588478 15 23 20
5.276602 2.308513 23.556259 22 29 27
5.320867 2.307279 23.543661 24 28 23
5.365539 2.306240 23.533064 30 35 40
5.413737 2.306723 23.537985 36 35 32
5.460660 2.306658 23.537327 28 26 16
5.506996 2.306349 23.534172 32 24 18
5.551663 2.305352 23.523996 24 38 38
5.593759 2.303313 23.503189 37 43 35
5.635801 2.301285 23.482504 18 43 38
5.674971 2.298129 23.450293 30 36 21
5.715779 2.295682 23.425325 22 19 22
5.756171 2.293109 23.399069 30 20 19
5.794460 2.289746 23.364758 23 36 15
5.835378 2.287468 23.341511 44 42 26
5.874237 2.284426 23.310465 40 21 33
5.915628 2.282408 23.289873 36 19 37
5.957253 2.280511 23.270521 24 23 41
5.996742 2.277832 23.243187 28 22 36
6.038426 2.276022 23.224714 41 17 17
6.076723 2.272973 23.193600 22 29 17
6.116273 2.270435 23.167700 19 32 20
6.155383 2.267773 23.140537 23 18 31
6.192501 2.264422 23.106348 41 37 20
6.232675 2.262230 23.083982 30 39 41
6.269654 2.258920 23.050200 42 21 30
6.308013 2.256151 23.021946 22 23 32
6.347394 2.253785 22.997803 29 30 22
6.386271 2.251275 22.972197 25 17 36
6.428808 2.250083 22.960030 44 19 22
6.472331 2.249250 22.951527 29 16 36
6.518129 2.249214 22.951159 25 18 19
6.565523 2.249725 22.956373 23 21 38
6.612665 2.250143 22.960642 38 19 34
6.659755 2.250538 22.964672 32 30 26
6.706482 2.250806 22.967405 43 30 33
6.752879 2.250960 22.968977 39 20 27
6.798036 2.250701 22.966337 35 16 37
6.842027 2.250063 22.959822 22 20 24
6.885686 2.249324 22.952286 38 39 16
6.925531 2.247358 22.932222 16 20 20
6.964515 2.245140 22.909588 20 24 27
7.002912 2.242763 22.885334 33 34 42
7.041737 2.240553 22.862782 15 43 43
7.084177 2.239514 22.852182 21 23 22
7.123482 2.237504 22.831675 28 37 37
7.163669 2.235795 22.814232 25 15 40
7.202673 2.233740 22.793268 20 40 43
7.238308 2.230674 22.761976 39 25 20
7.276045 2.228289 22.737640 18 23 43
7.311893 2.225359 22.707743 41 18 17
7.352394 2.223872 22.692574 28 40 35
7.392179 2.222189 22.675396 30 44 42
7.426275 2.218826 22.641083 38 34 22
7.461731 2.215908 22.611307 41 32 35
7.493013 2.211793 22.569317 35 17 18
7.527229 2.208588 22.536613 22 38 31
7.563047 2.205889 22.509068 23 39 32
7.598903 2.203232 22.481960 34 33 20
7.640182 2.202170 22.471125 22 44 15
7.678249 2.200200 22.451021 26 33 36
7.716765 2.198381 22.432457 24 34 31
7.755268 2.196579 22.414068 21 21 22
7.792627 2.194475 22.392607 36 19 40
7.832980 2.193234 22.379944 28 28 23
4.598398 2.499129 24.991295 24 24 32
4.637815 2.493449 24.934488 21 32 34
4.673166 2.485726 24.857264 21 25 17
4.712987 2.480519 24.805195 27 23 29
4.747288 2.472546 24.725456 31 40 16
4.785212 2.466604 24.666040 27 29 27
4.822223 2.460318 24.603176 38 34 37
4.854337 2.451686 24.516855 36 31 32
4.891292 2.445646 24.456459 16 38 26
4.920640 2.435960 24.359602 27 43 27
4.953811 2.428339 24.283388 42 35 21
4.985808 2.420295 24.202950 43 21 44
5.012596 2.409902 24.099018 39 29 24
5.046194 2.402950 24.029495 120 120 120
5.070135 2.391573 23.915731 120 120 120
5.096812 2.381688 23.816877 120 120 120
5.124640 2.372519 23.725185 41 31 26
5.150377 2.362558 23.625582 21 27 20
5.186014 2.357279 23.572792 22 35 39
5.220810 2.351716 23.517160 18 16 44
5.260834 2.348587 23.485867 39 20 41
5.305163 2.347417 23.474173 24 28 20
5.349867 2.346433 23.464331 15 38 19
5.397984 2.346950 23.469498 16 15 23
5.444889 2.346935 23.469349 44 24 38
5.491176 2.346656 23.466562 34 28 26
5.535830 2.345691 23.456905 33 31 42
5.578014 2.343703 23.437035 15 33 40
5.620117 2.341715 23.417154 19 39 24
5.659444 2.338613 23.386131 40 29 28
5.700352 2.336210 23.362097 26 21 28
5.740825 2.333669 23.336689 25 37 33
5.779218 2.330330 23.303297 16 34 29
5.820132 2.328053 23.280527 16 44 20
5.859071 2.325028 23.250280 22 31 29
5.900525 2.323041 23.230413 29 43 23
5.942199 2.321171 23.211714 34 27 15
5.981726 2.318498 23.184984 29 17 24
6.023355 2.316675 23.166752 31 25 20
6.061623 2.313597 23.135967 15 40 24
6.101098 2.311022 23.110220 32 36 28
6.140142 2.308324 23.083242 18 25 36
6.177259 2.304947 23.049475 22 28 33
6.217426 2.302750 23.027504 30 23 41
6.254477 2.299440 22.994400 16 30 23
6.292888 2.296674 22.966743 40 15 38
6.332325 2.294321 22.943207 28 27 18
6.371286 2.291829 22.918295 34 17 17
6.413828 2.290653 22.906528 17 39 37
