ply
format ascii 1.0
element vertex 1235
property float x
property float y
property float z
property uchar red
property uchar green
property uchar blue
end_header
-13.628908 4.749468 51.624653 44 27 37
-13.486059 4.735563 51.473507 21 43 31
-13.354185 4.725327 51.362251 31 42 23
-13.203766 4.708320 51.177387 37 29 28
-13.060020 4.693445 51.015701 17 34 38
-12.918952 4.679305 50.862015 17 28 37
-12.775617 4.664114 50.696892 30 35 40
-12.652262 4.656032 50.609047 30 35 40
-12.524439 4.646163 50.501770 30 35 40
-12.407730 4.640289 50.437927 30 35 40
-12.293962 4.635428 50.385090 30 35 40
-12.173666 4.628005 50.304405 30 35 40
-12.060062 4.623024 50.250259 30 35 40
-11.934381 4.613290 50.144459 30 35 40
-11.812026 4.604688 50.050957 30 35 40
-11.686379 4.594645 49.941792 40 16 23
-11.552537 4.581178 49.795418 43 37 21
-11.428576 4.571430 49.689461 34 27 43
-11.297444 4.558618 49.550194 39 20 24
-11.177148 4.549989 49.456406 19 28 17
-11.059628 4.542347 49.373341 30 32 23
-10.934000 4.531207 49.252254 20 44 21
-10.817117 4.523522 49.168713 34 43 23
-10.706013 4.518134 49.110153 22 18 18
-10.606897 4.517752 49.106003 120 120 120
-10.515725 4.520779 49.138901 120 120 120
-10.424629 4.523896 49.172779 120 120 120
-10.333371 4.527001 49.206528 27 37 26
-10.243629 4.530836 49.248215 44 41 21
-10.147646 4.531958 49.260418 22 20 15
-10.055246 4.534719 49.290421 42 35 31
-9.973671 4.542464 49.374607 38 26 25
-9.892421 4.550514 49.462105 28 39 18
-9.817687 4.561754 49.584278 17 30 25
-9.738132 4.570960 49.684349 28 44 24
-9.653473 4.577936 49.760170 30 39 28
-9.564843 4.583154 49.816891 23 22 41
-9.465942 4.583509 49.820747 21 21 26
-9.366292 4.583505 49.820702 29 21 44
-9.266846 4.583601 49.821754 27 21 37
-9.164839 4.582419 49.808907 20 28 31
-9.060821 4.580195 49.784733 25 27 16
-8.956559 4.577797 49.758659 30 41 27
-8.849263 4.573777 49.714962 19 40 41
-8.742654 4.570023 49.674168 18 31 31
-8.636885 4.566629 49.637268 30 36 20
-8.532322 4.563800 49.606525 35 37 33
-8.431485 4.562921 49.596970 33 44 20
-8.329081 4.561164 49.577866 19 20 33
-8.227405 4.559767 49.562683 15 36 20
-8.124862 4.557849 49.541840 22 36 20
-8.019781 4.554443 49.504818 44 44 26
-7.915552 4.551443 49.472202 39 34 24
-7.811139 4.548258 49.437592 15 21 28
-7.712286 4.548271 49.437729 28 39 17
-7.610230 4.546371 49.417076 24 17 41
-7.498845 4.538775 49.334507 32 35 40
-7.386216 4.530212 49.241440 17 34 20
-7.267511 4.517642 49.104801 44 42 24
-7.154640 4.508403 49.004383 43 17 29
-7.041772 4.498910 48.901192 31 22 42
-6.925426 4.486896 48.770607 31 31 18
-6.815994 4.479082 48.685669 33 34 41
-6.699208 4.466138 48.544983 38 22 23
-6.586834 4.455799 48.432602 18 43 30
-6.473597 4.444559 48.310425 42 19 37
-17.511338 4.813058 51.202744 29 35 42
-17.382606 4.805779 51.125313 23 15 35
-17.240476 4.794688 51.007324 18 20 36
-17.101543 4.784360 50.897449 23 15 28
-16.973285 4.776913 50.818218 17 29 41
-16.855551 4.772355 50.769733 33 16 29
-16.757144 4.773247 50.779224 19 36 38
-16.673596 4.778409 50.834133 24 16 16
-16.594070 4.784793 50.902054 18 20 42
-16.522134 4.793459 50.994240 28 31 36
-16.452798 4.802991 51.095646 42 43 43
-16.371991 4.809272 51.162472 36 27 20
-16.306069 4.820033 51.276947 25 40 15
-16.236380 4.829809 51.380951 21 29 35
-16.164252 4.838980 51.478508 18 42 35
-16.094504 4.848985 51.584949 20 16 31
-16.008841 4.854294 51.641422 25 25 42
-15.919351 4.858503 51.686203 30 18 39
-15.816311 4.858605 51.687290 21 44 23
-15.710067 4.857718 51.677853 41 35 20
-15.613741 4.859906 51.701130 34 28 23
-15.519229 4.862692 51.730762 22 42 26
-15.429128 4.866906 51.775597 42 17 41
-15.337388 4.870657 51.815498 17 30 29
-15.242946 4.873595 51.846756 38 22 28
-15.145528 4.875615 51.868248 18 32 22
-15.041733 4.875596 51.868046 19 42 44
-14.937208 4.875339 51.865307 18 31 19
-14.833108 4.875217 51.864014 21 22 37
-14.727148 4.874479 51.856155 20 41 27
-14.619410 4.873137 51.841881 26 17 25
-14.511650 4.871768 51.827320 43 38 34
-14.401700 4.869640 51.804676 17 35 42
-14.295775 4.868851 51.796288 33 22 38
-14.185482 4.866552 51.771832 39 44 35
-14.066676 4.861278 51.715721 32 26 25
-13.947981 4.855964 51.659187 33 15 16
-13.815908 4.845878 51.551895 22 28 25
-13.688890 4.837427 51.461994 35 33 35
-13.556620 4.826978 51.350834 28 43 32
-13.414495 4.812834 51.200363 43 24 30
-13.283261 4.802410 51.089466 39 39 15
-13.134002 4.785257 50.906986 37 37 33
-12.991562 4.770339 50.748287 41 26 16
-12.852002 4.756253 50.598434 33 22 38
-12.710228 4.741117 50.437412 30 35 40
-12.588072 4.733115 50.352287 30 35 40
-12.461647 4.723366 50.248577 30 35 40
-12.345980 4.717570 50.186913 30 35 40
-12.233227 4.712801 50.136177 30 35 40
-12.114205 4.705517 50.058697 30 35 40
-12.001663 4.700651 50.006927 30 35 40
-11.877073 4.690945 49.903667 30 35 40
-11.755563 4.682300 49.811707 30 35 40
-11.630552 4.672102 49.703213 37 26 27
-11.497278 4.658380 49.557232 17 33 35
-11.373704 4.648383 49.450886 39 18 23
-11.243055 4.635295 49.311646 31 31 16
-11.123287 4.626500 49.218086 35 40 37
-11.006393 4.618754 49.135685 24 20 36
-10.881518 4.607490 49.015846 38 26 25
-10.765370 4.599749 48.933502 38 18 15
-10.655168 4.594430 48.876919 34 37 38
-10.556755 4.594144 48.873867 120 120 120
-10.466435 4.597406 48.908577 120 120 120
-10.376598 4.600944 48.946217 120 120 120
-10.286500 4.604433 48.983334 18 22 37
-10.198237 4.608818 49.029984 21 25 26
-10.103457 4.610316 49.045910 35 18 20
-10.012178 4.613455 49.079304 40 17 30
-9.931808 4.621732 49.167366 35 37 24
-9.851429 4.630172 49.257145 20 25 34
-9.777752 4.641963 49.382587 43 16 21
-9.699338 4.651723 49.486420 19 31 28
-9.615363 4.658990 49.563728 41 30 23
-9.526568 4.664049 49.617542 37 41 30
-9.426996 4.663882 49.615768 36 36 42
-9.326882 4.663441 49.611076 37 22 37
-9.227728 4.663476 49.611443 43 40 22
-9.126210 4.662303 49.598969 25 35 39
-9.022419 4.659931 49.573730 30 16 30
-8.918389 4.657381 49.546604 32 41 28
-8.811212 4.653112 49.501190 19 17 28
-8.704965 4.649242 49.460026 28 15 42
-8.599263 4.645579 49.421051 21 23 16
-8.494061 4.642103 49.384075 19 18 33
-8.392541 4.640581 49.367886 34 30 26
-8.289490 4.638167 49.342201 26 26 30
-8.187929 4.636538 49.324871 29 26 34
-8.085635 4.634449 49.302650 41 15 33
-7.980348 4.630572 49.261406 15 28 27
-7.876012 4.627157 49.225075 26 32 28
-7.771208 4.623377 49.184860 34 27 36
-7.671442 4.622536 49.175911 37 32 27
-7.569641 4.620430 49.153511 38 18 37
-7.461144 4.614129 49.086475 26 41 21
-7.352523 4.607581 49.016823 30 31 42
-7.236355 4.596063 48.894291 29 36 30
-7.123362 4.586274 48.790154 16 35 27
-7.009278 4.575501 48.675541 44 15 42
-6.892416 4.562585 48.538139 36 33 41
-6.782965 4.554276 48.449749 36 32 36
-6.665248 4.540096 48.298897 18 30 32
-6.551804 4.528452 48.175026 21 29 20
-6.437356 4.515757 48.039967 39 43 26
-6.317965 4.499157 47.863373 41 33 39
-6.206457 4.487746 47.741978 22 42 35
-17.407370 4.886279 50.898743 30 41 38
-17.280940 4.879324 50.826294 33 16 35
-17.143620 4.869194 50.720768 39 31 29
-17.010228 4.860065 50.625679 22 24 19
-16.887200 4.853806 50.560478 25 18 23
-16.773780 4.850250 50.523434 21 29 32
-16.677082 4.851515 50.536613 35 16 32
-16.593646 4.856677 50.590385 26 16 27
-16.512676 4.862629 50.652382 20 30 24
-16.438340 4.870619 50.735619 24 19 20
-16.367207 4.879664 50.829834 27 18 32
-16.285804 4.885741 50.893139 20 29 16
-16.218080 4.896024 51.000252 25 25 39
-16.146758 4.905344 51.097336 23 22 39
-16.072804 4.913978 51.187275 38 33 43
-16.000350 4.923185 51.283173 22 20 31
-15.912970 4.927887 51.332161 24 19 29
-15.822158 4.931582 51.370644 33 27 40
-15.719508 4.931610 51.370941 43 36 37
-15.614036 4.930748 51.361961 38 39 30
-15.517356 4.932669 51.381973 31 29 25
-15.422346 4.935151 51.407822 42 31 41
-15.331267 4.938932 51.447205 22 31 18
-15.238552 4.942233 51.481594 21 37 22
-15.143982 4.944974 51.510143 43 22 29
-15.047557 4.947142 51.532730 26 23 31
-14.945703 4.947543 51.536907 38 17 23
-14.844100 4.948033 51.542015 35 37 43
-14.742507 4.948534 51.547226 31 24 37
-14.639343 4.948510 51.546982 24 35 34
-14.535056 4.948104 51.542751 17 42 40
-14.429935 4.947406 51.535480 39 19 25
-14.323027 4.946081 51.521679 18 40 31
-14.219238 4.945822 51.518978 34 29 19
-14.110727 4.943904 51.499004 28 42 25
-13.993999 4.939058 51.448524 42 39 30
-13.876707 4.933940 51.395210 33 26 22
-13.746316 4.924054 51.292225 16 27 36
-13.620599 4.915705 51.205261 21 30 28
-13.489480 4.905266 51.096516 31 16 24
-13.348629 4.891101 50.948967 44 25 34
-13.218279 4.880595 50.839535 22 16 44
-13.070556 4.863463 50.661068 33 22 19
-12.929807 4.848677 50.507057 36 41 34
-12.791972 4.834761 50.362095 30 34 41
-12.651906 4.819774 50.205975 28 31 22
-12.530895 4.811864 50.123581 30 35 40
-12.405746 4.802224 50.023170 30 35 40
-12.291063 4.796512 49.963669 30 35 40
-12.179182 4.791809 49.914680 30 35 40
-12.061155 4.784591 49.839485 30 35 40
-11.949359 4.779743 49.788994 30 35 40
-11.825440 4.769925 49.686722 30 35 40
-11.704509 4.761156 49.595379 17 33 17
-11.579854 4.750709 49.486557 26 43 44
-11.446753 4.736588 49.339455 28 21 37
-11.323294 4.726244 49.231712 27 15 27
-11.192702 4.712717 49.090797 36 22 16
-11.073074 4.703607 48.995903 38 17 33
-10.956494 4.695640 48.912918 25 25 23
-10.832059 4.684133 48.793056 33 15 39
-10.716492 4.676287 48.711327 18 31 15
-10.606951 4.670951 48.655739 39 21 36
-10.509024 4.670677 48.652889 120 120 120
-10.419361 4.674106 48.688602 120 120 120
-10.330571 4.677995 48.729111 120 120 120
-10.241570 4.681860 48.769379 37 15 36
-10.154648 4.686761 48.820423 44 17 29
-10.060995 4.688619 48.839783 22 36 16
-9.970720 4.692104 48.876080 42 29 20
-9.891354 4.700841 48.967098 17 39 35
-9.811639 4.709587 49.058193 36 42 19
-9.738558 4.721725 49.184635 17 19 41
-9.660650 4.731747 49.289032 38 21 44
-9.576915 4.739092 49.365540 28 25 22
-9.488061 4.744031 49.416985 40 31 20
-9.388317 4.743571 49.412197 40 43 24
-9.288110 4.742865 49.404839 41 42 43
-9.189257 4.742843 49.404610 19 17 15
-9.088123 4.741629 49.391972 15 28 23
-8.984504 4.739079 49.365406 25 38 32
-8.880688 4.736367 49.337158 18 29 20
-8.773807 4.731941 49.291050 42 36 44
-8.668286 4.728156 49.251625 25 35 35
-8.563050 4.724442 49.212933 34 39 44
-8.457410 4.720415 49.170990 40 40 34
-8.355177 4.718218 49.148102 17 25 21
-8.251510 4.715149 49.116131 37 38 26
-8.150094 4.713307 49.096951 27 25 28
-8.048114 4.711091 49.073864 42 44 44
-7.942908 4.706908 49.030296 24 35 18
-7.838790 4.703274 48.992435 35 20 39
-7.733215 4.698662 48.944397 20 41 36
-7.631547 4.696337 48.920174 20 36 21
-7.528931 4.693360 48.889164 15 15 17
-7.422688 4.688013 48.833473 23 37 24
-7.317968 4.683500 48.786453 23 29 26
-7.204791 4.673378 48.681019 35 31 43
-7.092605 4.663631 48.579487 30 22 31
-6.978189 4.652126 48.459648 21 26 43
-6.861030 4.638443 48.317116 19 39 27
-6.751182 4.629382 48.222729 24 28 22
-6.632221 4.613719 48.059570 33 27 21
-6.517635 4.600684 47.923790 42 30 17
-6.401953 4.586474 47.775772 39 26 16
-6.281240 4.568174 47.585148 42 39 21
-6.169203 4.555719 47.455410 17 44 16
-17.403124 4.957867 50.590477 33 36 27
-17.268348 4.948240 50.492245 15 38 34
-17.145329 4.941889 50.427437 34 19 20
-17.014479 4.933192 50.338696 43 38 28
-16.887854 4.925624 50.261471 38 40 21
-16.771443 4.920962 50.213902 17 18 33
-16.664343 4.918993 50.193806 16 40 24
-16.570988 4.921081 50.215115 43 17 37
-16.489043 4.926604 50.271473 25 23 29
-16.407251 4.932241 50.328991 39 32 24
-16.330705 4.939534 50.403412 24 36 33
-16.258063 4.948106 50.490879 24 26 42
-16.176086 4.953926 50.550270 38 37 20
-16.106372 4.963599 50.648968 32 28 31
-16.033163 4.972310 50.737858 33 24 39
-15.956952 4.980195 50.818317 29 36 30
-15.881216 4.988331 50.901333 37 37 37
-15.791680 4.992208 50.940903 42 34 37
-15.699221 4.995207 50.971497 23 18 24
-15.597057 4.995136 50.970776 38 36 22
-15.492472 4.994284 50.962078 15 17 23
-15.395178 4.995786 50.977409 40 28 29
-15.299382 4.997798 50.997940 41 35 43
-15.206956 5.000945 51.030052 20 15 40
-15.113013 5.003633 51.057476 37 42 15
-15.018088 5.006029 51.081932 22 20 37
-14.922524 5.008244 51.104534 42 29 19
-14.822753 5.009068 51.112942 31 38 38
-14.724257 5.010337 51.125893 31 33 25
-14.625325 5.011475 51.137501 40 43 28
-14.525372 5.012276 51.145676 44 35 18
-14.425223 5.013021 51.153275 23 31 23
-14.323391 5.013187 51.154968 15 28 39
-14.220502 5.012983 51.152885 39 22 22
-14.119599 5.013481 51.157967 19 18 29
-14.013624 5.012172 51.144611 15 42 28
-13.900026 5.008097 51.103035 25 18 20
-13.784906 5.003410 51.055206 39 25 36
-13.657257 4.994072 50.959915 43 24 18
-13.533765 4.986124 50.878815 17 25 41
-13.404633 4.975962 50.775124 20 27 19
-13.265953 4.962074 50.633408 19 22 22
-13.137051 4.951658 50.527119 39 35 38
-12.991545 4.934773 50.354824 25 27 36
-12.852979 4.920281 50.206951 40 24 41
-12.717193 4.906633 50.067688 23 15 30
-12.579126 4.891882 49.917168 44 20 28
-12.459310 4.884049 49.837238 34 36 39
-12.335379 4.874464 49.739433 37 27 19
-12.221630 4.868779 49.681423 31 19 27
-12.110426 4.864023 49.632893 30 35 40
-11.993060 4.856694 49.558098 44 27 40
-11.881787 4.851730 49.507446 44 38 16
-11.758169 4.841599 49.404072 17 17 37
-11.637527 4.832532 49.311554 30 33 22
-11.513006 4.821686 49.200882 27 40 16
-11.379807 4.806987 49.050892 21 27 33
-11.256366 4.796191 48.940723 29 20 44
-11.125570 4.782043 48.796360 32 41 17
-11.005874 4.772459 48.698559 16 22 19
-10.889378 4.764103 48.613297 17 18 18
-10.765193 4.752202 48.491859 15 40 30
-10.650230 4.744193 48.410137 30 44 35
-10.541214 4.738711 48.354191 16 34 28
-10.443684 4.738338 48.350388 120 120 120
-10.354586 4.741820 48.385914 120 120 120
-10.266626 4.745893 48.427483 120 120 120
-10.178615 4.750020 48.469597 43 43 21
-10.092961 4.755337 48.523849 40 24 35
-10.000518 4.757528 48.546204 21 19 36
-9.911382 4.761350 48.585205 31 22 43
-9.833114 4.770521 48.678783 22 42 38
-9.754201 4.779558 48.771004 36 34 29
-9.681542 4.791875 48.896679 27 43 20
-9.603841 4.801920 48.999187 25 21 41
-9.520028 4.809086 49.072308 32 37 37
-9.430949 4.813714 49.119526 34 41 20
-9.331158 4.812913 49.111359 40 44 25
-9.230948 4.811877 49.100788 43 44 33
-9.132506 4.811751 49.099495 43 29 15
-9.031920 4.810479 49.086521 25 44 17
-8.928550 4.807681 49.057968 35 39 38
-8.825013 4.804729 49.027847 21 25 41
-8.718695 4.800180 48.981430 32 16 41
-8.614262 4.796577 48.944668 38 15 28
-8.509908 4.792937 48.907516 26 22 23
-8.404270 4.788479 48.862034 36 35 38
-8.301646 4.785655 48.833210 15 27 42
-8.197744 4.782017 48.796097 17 40 37
-8.096776 4.780024 48.775757 39 41 42
-7.995408 4.777744 48.752487 21 21 15
-7.890624 4.773340 48.707554 41 35 15
-7.787000 4.769537 48.668747 27 19 25
-7.681156 4.764262 48.614914 34 36 17
-7.578468 4.760832 48.579922 25 33 43
-7.475397 4.757071 48.541538 35 24 19
-7.370062 4.751750 48.487247 42 39 38
-7.267254 4.747939 48.448360 28 22 23
-7.157260 4.739267 48.359863 15 33 23
-7.048773 4.731368 48.279270 21 21 21
-6.937180 4.721136 48.174858 32 20 26
-6.820802 4.707314 48.033817 27 23 18
-6.709997 4.696998 47.928551 30 19 26
-6.589446 4.679462 47.749611 22 30 19
-6.473911 4.665024 47.602283 38 22 37
-6.357312 4.649377 47.442623 22 37 30
-6.235515 4.629397 47.238747 31 34 29
-6.123151 4.615913 47.101158 15 36 29
-6.002533 4.595689 46.894791 17 17 42
-17.433810 5.038673 50.386734 32 25 22
-17.308887 5.031653 50.316532 41 25 42
-17.176266 5.022300 50.223000 43 34 39
-17.056170 5.016521 50.165207 30 17 42
-16.930076 5.008898 50.088982 39 44 23
-16.807785 5.002317 50.023170 34 19 15
-16.695611 4.998686 49.986858 30 35 38
-16.592891 4.997859 49.978588 37 21 21
-16.502058 5.000624 50.006237 29 18 27
-16.421518 5.006561 50.065605 35 39 25
-16.339470 5.012107 50.121075 15 15 20
-16.261480 5.018975 50.189754 22 22 25
-16.187551 5.027190 50.271896 42 36 36
-16.104812 5.032754 50.327538 38 28 29
-16.033233 5.041897 50.418972 42 31 29
-15.958457 5.050145 50.501446 25 36 40
-15.880506 5.057486 50.574860 34 25 27
-15.802374 5.064864 50.648636 37 35 31
-15.711306 5.068163 50.681633 17 29 20
-15.617600 5.070649 50.706493 24 24 15
-15.515649 5.070473 50.704735 19 33 36
-15.411623 5.069613 50.696129 33 29 18
-15.313822 5.070802 50.708019 29 36 36
-15.217445 5.072482 50.724815 44 31 37
-15.124012 5.075172 50.751717 25 23 21
-15.029183 5.077427 50.774265 24 27 29
-14.933987 5.079588 50.795876 30 25 34
-14.838906 5.081817 50.818172 42 36 35
-14.740402 5.082897 50.828972 27 42 38
-14.643907 5.084690 50.846901 38 43 34
-14.546701 5.086259 50.862591 41 25 18
-14.448985 5.087671 50.876709 16 29 18
-14.351865 5.089314 50.893139 19 20 19
-14.252615 5.090219 50.902195 24 41 18
-14.152957 5.090992 50.909916 26 38 36
-14.054352 5.092157 50.921566 30 19 24
-13.950525 5.091433 50.914326 44 30 37
-13.839625 5.088097 50.880974 40 34 29
-13.726378 5.083844 50.838436 18 21 19
-13.601231 5.075086 50.750862 41 36 27
-13.479685 5.067551 50.675507 19 30 39
-13.352301 5.057690 50.576897 20 19 27
-13.215563 5.044108 50.441082 39 31 42
-13.087854 5.033790 50.337898 33 41 29
-12.944053 5.017075 50.170750 28 18 22
-12.807093 5.002771 50.027706 30 27 20
-12.672665 4.989238 49.892384 22 27 31
-12.535824 4.974533 49.745335 31 35 44
-12.416615 4.966646 49.666458 31 23 24
-12.293214 4.956941 49.569412 31 31 38
-12.179881 4.951171 49.511711 34 27 32
-12.068808 4.946233 49.462330 21 18 21
-11.951471 4.938624 49.386242 24 24 43
-11.840173 4.933405 49.334053 20 40 44
-11.716294 4.922813 49.228127 29 21 44
-11.595495 4.913345 49.133453 41 24 19
-11.470727 4.902020 49.020203 19 16 15
-11.337129 4.886694 48.866936 19 29 26
-11.213507 4.875438 48.754379 40 31 41
-11.082247 4.860635 48.606346 34 37 16
-10.962198 4.850530 48.505302 27 31 26
-10.845493 4.841738 48.417377 40 15 27
-10.721168 4.829355 48.293549 17 22 19
-10.606436 4.821107 48.211075 29 17 21
-10.497489 4.815362 48.153618 43 34 28
-10.399987 4.814809 48.148087 120 120 120
-10.311019 4.818233 48.182331 120 120 120
-10.223273 4.822299 48.222988 120 120 120
-10.135651 4.826500 48.265003 21 17 16
-10.050508 4.831975 48.319748 16 22 37
-9.958692 4.834317 48.343166 44 22 29
-9.870153 4.838310 48.383102 22 28 33
-9.792404 4.847725 48.477249 33 24 40
-9.713882 4.856941 48.569408 41 20 16
-9.641160 4.869273 48.692726 37 43 35
-9.563077 4.879121 48.791210 34 17 34
-9.478866 4.886013 48.860134 23 44 22
-9.389581 4.890407 48.904068 35 25 38
-9.290049 4.889500 48.894997 32 26 26
-9.190048 4.888324 48.883236 38 42 37
-9.091896 4.888116 48.881161 41 32 16
-8.991629 4.886755 48.867550 44 41 35
-8.888423 4.883749 48.837490 30 19 33
-8.785082 4.880601 48.806011 18 29 44
-8.679282 4.876001 48.760010 25 31 29
-8.575798 4.872612 48.726124 38 44 20
-8.472328 4.869154 48.691540 19 31 16
-8.367055 4.864567 48.645668 28 22 25
-8.264461 4.861448 48.614479 40 19 22
-8.160723 4.857573 48.575733 22 31 23
-8.060204 4.855545 48.555447 37 26 26
-7.959383 4.853283 48.532825 33 35 31
-7.855181 4.848877 48.488770 40 24 41
-7.752133 4.845083 48.450832 38 35 28
-7.646330 4.839449 48.394493 35 41 20
-7.543309 4.835454 48.354542 34 40 44
-7.439798 4.831038 48.310379 35 25 40
-7.333760 4.824842 48.248421 32 23 25
-7.230546 4.820364 48.203640 30 43 15
-7.122503 4.812502 48.125023 40 37 25
-7.018294 4.807051 48.070507 20 34 18
-6.910650 4.799062 47.990623 35 18 33
-6.795480 4.785549 47.855492 19 20 18
-6.683546 4.773962 47.739616 38 34 32
-6.561771 4.754907 47.549068 34 43 20
-6.445844 4.739591 47.395912 21 34 23
-6.328969 4.723111 47.231113 34 32 18
-6.206743 4.702078 47.020782 25 18 24
-6.094314 4.687934 46.879337 39 42 19
-5.973567 4.666850 46.668495 39 20 18
-5.859164 4.650130 46.501305 24 37 38
-17.293504 5.098085 49.981224 28 40 20
-17.169476 5.090949 49.911266 33 22 23
-17.038445 5.081642 49.820015 27 25 36
-16.920280 5.076084 49.765530 40 43 30
-16.799794 5.069760 49.703533 23 41 26
-16.684970 5.065080 49.657650 39 18 23
-16.580173 5.063406 49.641235 30 18 23
-16.483205 5.064117 49.648209 35 28 37
-16.394584 5.067417 49.680557 33 21 36
-16.314774 5.073497 49.740166 36 24 17
-16.232095 5.078754 49.791702 25 16 29
-16.152147 5.084935 49.852306 28 29 42
-16.076178 5.092454 49.926018 32 26 36
-15.992098 5.097481 49.975307 17 36 16
-15.918342 5.105883 50.057678 38 33 16
-15.842034 5.113568 50.133018 41 34 39
-15.762816 5.120405 50.200050 23 19 41
-15.683051 5.127151 50.266190 28 22 29
-15.591407 5.130076 50.294861 43 41 18
-15.497578 5.132315 50.316811 19 16 35
-15.396888 5.132296 50.316628 20 39 27
-15.294077 5.131565 50.309464 16 27 33
-15.196186 5.132487 50.318497 32 28 29
-15.099274 5.133753 50.330914 28 20 34
-15.004228 5.135675 50.349758 19 40 29
-14.907707 5.137115 50.363876 39 15 41
-14.811174 5.138571 50.378143 32 44 33
-14.715506 5.140348 50.395569 34 25 30
-14.617794 5.141431 50.406185 17 20 30
-14.522669 5.143445 50.425934 35 32 17
-14.426769 5.145211 50.443249 29 35 15
-14.331284 5.147151 50.462269 20 42 21
-14.237509 5.149737 50.487621 40 39 22
-14.141474 5.151537 50.505264 29 19 16
-14.045895 5.153530 50.524803 37 42 15
-13.950362 5.155568 50.544788 35 43 43
-13.849530 5.155665 50.545731 21 23 29
-13.742438 5.153414 50.523670 26 35 39
-13.631964 5.149853 50.488754 31 41 16
-13.510647 5.142112 50.412861 35 24 27
-13.392324 5.135403 50.347084 31 21 22
-13.267980 5.126265 50.257500 20 31 43
-13.134534 5.113445 50.131809 28 19 19
-13.008924 5.103501 50.034325 20 27 16
-12.868125 5.087398 49.876453 39 26 27
-12.733857 5.073646 49.741631 22 35 21
-12.601781 5.060558 49.613312 30 18 36
-12.467166 5.046234 49.472881 33 19 19
-12.349121 5.038441 49.396484 34 27 44
-12.226711 5.028728 49.301254 34 43 26
-12.114123 5.022929 49.244404 20 32 39
-12.003333 5.017787 49.193989 23 33 25
-11.886126 5.009855 49.116222 22 17 24
-11.774885 5.004326 49.062019 37 25 20
-11.650688 4.993152 48.952469 30 31 16
-11.529783 4.983211 48.855011 29 23 23
-11.404811 4.971328 48.738510 24 35 36
-11.270815 4.955272 48.581100 15 36 39
-11.147098 4.943496 48.465645 35 23 40
-11.015367 4.927927 48.313011 42 16 26
-10.894935 4.917183 48.207676 36 36 24
-10.778048 4.907861 48.116287 33 44 26
-10.653758 4.894970 47.989899 22 41 20
-10.539544 4.886516 47.907017 37 32 27
-10.431066 4.880591 47.848927 37 18 22
-10.333977 4.879934 47.842487 120 120 120
-10.245573 4.883404 47.876511 120 120 120
-10.158601 4.887629 47.917931 120 120 120
-10.071862 4.892047 47.961246 27 30 40
-9.987928 4.897926 48.018887 28 37 36
-9.897376 4.900643 48.045517 44 15 37
-9.810022 4.905011 48.088341 43 27 35
-9.733454 4.914913 48.185417 34 29 43
-9.655803 4.924459 48.279015 36 30 34
-9.582898 4.936645 48.398476 19 28 18
-9.503714 4.945810 48.488335 23 27 38
-9.418361 4.951922 48.548252 44 28 21
-9.328871 4.955963 48.587868 40 20 44
-9.230168 4.955143 48.579834 16 16 28
-9.130876 4.953986 48.568489 23 27 41
-9.033236 4.953710 48.565784 25 36 27
-8.933456 4.952242 48.551392 23 32 32
-8.830635 4.949037 48.519974 33 24 36
-8.727696 4.945695 48.487202 19 24 21
-8.622749 4.941126 48.442410 40 39 19
-8.520665 4.938113 48.412868 23 37 27
-8.418396 4.934922 48.381584 25 40 31
-8.313464 4.930077 48.334091 17 31 23
-8.210681 4.926408 48.298122 22 25 32
-8.106777 4.921972 48.254623 33 43 31
-8.006616 4.919728 48.232624 17 32 21
-7.906215 4.917280 48.208626 19 23 27
-7.802283 4.912548 48.162239 19 39 18
-7.699641 4.908521 48.122753 41 41 39
-7.593398 4.902067 48.059483 40 27 19
-7.489609 4.897052 48.010315 24 40 41
-7.385312 4.891570 47.956570 28 18 23
-7.278480 4.884243 47.884739 22 21 35
-7.175154 4.879105 47.834362 20 18 33
-7.068609 4.871609 47.760872 20 16 20
-6.967209 4.867502 47.720612 23 31 37
-6.862881 4.861208 47.658897 18 39 17
-6.750597 4.849020 47.539413 30 33 30
-6.640411 4.838014 47.431507 19 40 39
-6.519579 4.818819 47.243328 15 33 28
-6.403615 4.802711 47.085403 19 24 24
-6.286247 4.785053 46.912289 37 22 16
-6.163828 4.762958 46.695663 31 26 20
-6.051629 4.748201 46.550995 23 25 22
-5.931163 4.726395 46.337208 29 22 34
-5.817183 4.709148 46.168121 32 40 19
-17.318771 5.175725 49.766582 29 24 25
-17.191465 5.167377 49.686314 22 43 36
-17.068999 5.160395 49.619183 29 18 41
-16.937162 5.150482 49.523865 33 32 33
-16.817039 5.144035 49.461880 18 35 20
-16.698972 5.138145 49.405243 39 18 43
-16.590974 5.135302 49.377899 44 44 27
-16.493499 5.135700 49.381733 15 34 18
-16.400697 5.137568 49.399689 23 23 16
-16.312496 5.140908 49.431805 36 18 37
-16.232021 5.146738 49.487869 31 31 18
-16.148315 5.151610 49.534710 32 22 42
-16.066573 5.157172 49.588188 28 18 39
-15.988589 5.164016 49.654003 28 44 17
-15.903230 5.168550 49.697594 25 37 44
-15.827988 5.176449 49.773548 18 40 21
-15.750948 5.183856 49.844772 17 20 41
-15.671588 5.190590 49.909515 36 34 21
-15.591791 5.197264 49.973690 18 21 44
-15.500728 5.200244 50.002350 25 39 22
-15.408034 5.202713 50.026085 42 39 15
-15.308959 5.203045 50.029278 43 33 15
-15.207437 5.202544 50.024464 27 44 35
-15.109849 5.203392 50.032612 21 15 26
-15.012619 5.204375 50.042065 23 25 42
-14.915931 5.205560 50.053459 37 15 25
-14.817580 5.206177 50.059391 33 34 22
-14.719178 5.206784 50.065231 31 37 40
-14.621865 5.207787 50.074879 28 16 44
-14.523759 5.208521 50.081928 38 40 31
-14.428421 5.210263 50.098682 27 31 32
-14.332673 5.211881 50.114243 39 35 38
-14.238146 5.213969 50.134315 44 29 33
-14.146169 5.217027 50.163719 30 42 27
-14.052283 5.219419 50.186726 44 23 21
-13.959567 5.222284 50.214272 15 19 24
-13.866236 5.224959 50.239986 17 15 17
-13.767778 5.225726 50.247364 37 20 36
-13.663601 5.224318 50.233826 32 26 15
-13.555323 5.221309 50.204899 33 24 41
-13.437168 5.214423 50.138687 24 31 31
-13.321485 5.208400 50.080772 24 41 23
-13.199729 5.199893 49.998974 28 21 34
-13.069091 5.187731 49.882027 30 27 16
-12.945257 5.178103 49.789452 39 38 29
-12.806992 5.162508 49.639503 17 23 32
-12.675032 5.149232 49.511845 20 27 43
-12.544965 5.136521 49.389626 44 44 40
-12.412224 5.122505 49.254856 41 43 20
-12.295175 5.114793 49.180698 33 34 24
-12.173689 5.105095 49.087456 27 20 35
-12.061715 5.099262 49.031361 18 22 23
-11.951231 5.093967 48.980453 28 43 21
-11.834173 5.085760 48.901543 40 16 31
-11.723020 5.079975 48.845917 42 36 27
-11.598647 5.068316 48.733810 32 23 18
-11.477713 5.057975 48.634377 43 31 34
-11.352675 5.045633 48.515705 17 20 22
-11.218404 5.028940 48.355190 30 21 28
-11.094671 5.016721 48.237701 24 17 22
-10.962659 5.000511 48.081837 33 21 21
-10.842003 4.989240 47.973465 35 37 36
-10.725089 4.979505 47.879860 34 18 21
-10.601003 4.966236 47.752266 43 29 32
-10.487379 4.957670 47.669907 39 33 15
-10.379620 4.951745 47.612934 38 26 29
-10.283162 4.951152 47.607231 120 120 120
-10.195570 4.954857 47.642853 120 120 120
-10.109693 4.959472 47.687229 120 120 120
-10.024000 4.964267 47.733334 37 33 34
-9.941481 4.970741 47.795582 44 28 41
-9.852283 4.973968 47.826618 40 21 18
-9.766151 4.978822 47.873291 28 39 36
-9.690907 4.989378 47.974785 26 25 28
-9.614153 4.999360 48.070766 15 18 27
-9.541113 5.011494 48.187439 42 16 28
-9.460769 5.020000 48.269230 19 30 31
-9.374224 5.025357 48.320740 35 32 25
-9.284653 5.029187 48.357567 22 27 34
-9.186869 5.028602 48.351944 24 26 20
-9.088288 5.027564 48.341957 30 35 40
-8.991001 5.027226 48.338715 31 25 43
-8.891486 5.025622 48.323292 44 28 17
-8.788892 5.022224 48.290615 15 30 41
-8.686243 5.018718 48.256905 36 20 16
-8.581801 5.014086 48.212364 25 31 31
-8.480679 5.011310 48.185677 16 20 15
-8.379110 5.008204 48.155804 18 35 32
-8.274094 5.002941 48.105198 20 25 20
-8.170853 4.998640 48.063843 34 32 31
-8.066406 4.993489 48.014320 34 28 16
-7.966246 4.990901 47.989433 31 32 28
-7.865861 4.988107 47.962566 44 15 17
-7.761728 4.982838 47.911900 41 22 36
-7.659082 4.978403 47.869263 28 31 30
-7.552190 4.971061 47.798668 31 40 25
-7.447624 4.965082 47.741177 37 26 16
-7.342661 4.958680 47.679615 25 15 40
-7.235490 4.950598 47.601906 40 44 38
-7.132511 4.945207 47.550072 18 35 23
-7.026213 4.937339 47.474411 44 40 23
-6.924448 4.932483 47.427723 18 33 18
-6.820904 4.926208 47.367386 28 43 24
-6.712013 4.915841 47.267700 22 42 42
-6.606059 4.907358 47.186138 27 23 29
-6.488016 4.889519 47.014610 38 34 21
-6.371959 4.872675 46.852642 22 25 42
-6.253573 4.853519 46.668453 43 38 28
-6.131106 4.830568 46.447769 29 39 40
-6.019328 4.815463 46.302525 33 18 21
-5.899454 4.793306 46.089481 41 15 27
-5.786078 4.775810 45.921253 32 17 18
-5.675742 4.760299 45.772110 37 37 38
-17.213428 5.243171 49.463875 25 37 18
-17.086593 5.234621 49.383217 43 42 33
-16.964613 5.227468 49.315735 16 32 42
-16.832784 5.217179 49.218666 43 18 22
-16.712574 5.210391 49.154629 32 43 44
-16.597754 5.205213 49.105782 15 27 34
-16.495842 5.204045 49.094769 25 38 31
-16.404325 5.206163 49.114746 26 44 35
-16.314737 5.208922 49.140774 15 43 26
-16.226545 5.212163 49.171349 19 36 27
-16.145413 5.217725 49.223820 23 36 23
-16.061268 5.222375 49.267693 36 31 21
-15.978561 5.227554 49.316547 34 22 37
-15.899073 5.233856 49.376003 21 29 34
-15.812698 5.237956 49.414680 33 29 39
-15.736537 5.245512 49.485966 28 29 15
-15.659310 5.252807 49.554779 44 28 20
-15.580524 5.259667 49.619503 17 28 36
-15.501688 5.266599 49.684898 31 39 16
-15.411992 5.269907 49.716103 15 31 36
-15.321013 5.272816 49.743549 34 29 19
-15.223739 5.273583 49.750782 44 19 21
-15.123528 5.273335 49.748447 37 29 26
-15.026645 5.274253 49.757103 40 31 44
-14.929494 5.275088 49.764980 42 35 17
-14.831657 5.275690 49.770660 36 24 39
-14.731804 5.275578 49.769608 35 38 31
-14.631671 5.275364 49.767590 24 25 35
-14.532752 5.275588 49.769699 26 38 29
-14.434103 5.275914 49.772770 25 20 30
-14.338148 5.277235 49.785236 24 30 20
-14.242119 5.278548 49.797619 31 25 40
-14.148036 5.280605 49.817028 19 20 19
-14.057172 5.283902 49.848129 26 24 21
-13.964944 5.286729 49.874802 18 43 33
-13.874461 5.290262 49.908134 44 21 43
-13.782839 5.293409 49.937824 29 30 21
-13.686340 5.294715 49.950146 16 32 40
-13.584594 5.293996 49.943359 21 20 29
-13.478257 5.291464 49.919472 42 15 42
-13.363044 5.285383 49.862106 32 27 20
-13.250036 5.280089 49.812164 30 42 43
-13.130992 5.272292 49.738605 44 28 40
-13.003293 5.260874 49.630890 27 27 18
-12.881326 5.251617 49.543560 28 40 23
-12.745750 5.236626 49.402130 18 42 28
-12.616174 5.223884 49.281929 22 27 18
-12.488194 5.211609 49.166119 15 15 36
-12.357472 5.197984 49.037586 41 20 19
-12.241530 5.190409 48.966122 44 44 15
-12.121016 5.180757 48.875065 28 39 34
-12.009694 5.174909 48.819893 22 41 19
-11.899491 5.169451 48.768406 17 16 40
-11.782632 5.160987 48.688560 26 31 33
-11.671547 5.154933 48.631447 22 33 34
-11.547090 5.142822 48.517185 37 25 25
-11.426184 5.132100 48.416035 28 39 29
-11.301144 5.119322 48.295486 28 36 42
-11.166814 5.102079 48.132820 27 40 37
-11.043187 5.089469 48.013855 21 42 31
-10.911062 5.072687 47.855534 38 37 21
-10.790307 5.060940 47.744720 35 29 35
-10.673419 5.050814 47.649193 36 37 41
-10.549584 5.037189 47.520649 30 19 43
-10.436498 5.028494 47.438625 24 28 31
-10.329384 5.022545 47.382496 43 28 29
-10.233516 5.022003 47.377388 120 120 120
-10.146658 5.025914 47.414288 120 120 120
-10.061712 5.030856 47.460907 120 120 120
-9.976915 5.035967 47.509121 21 18 39
-9.895594 5.042947 47.574970 15 42 43
-9.807538 5.046597 47.609409 44 25 21
-9.722491 5.051883 47.659271 41 18 40
-9.648472 5.063060 47.764713 19 33 15
-9.572641 5.073500 47.863205 25 27 36
-9.499327 5.085498 47.976398 36 22 30
-9.417499 5.093137 48.048462 23 24 35
-9.329495 5.097559 48.090179 34 42 16
-9.239840 5.101162 48.124168 28 33 28
-9.143185 5.100935 48.122025 30 35 40
-9.045596 5.100176 48.114872 30 35 40
-8.948833 5.099872 48.112003 30 35 40
-8.849789 5.098248 48.096680 28 28 34
-8.747728 5.094831 48.064442 41 22 44
-8.645580 5.091286 48.031002 24 30 24
-8.541930 5.086767 47.988369 21 19 33
-8.441891 5.084321 47.965290 23 20 38
-8.341165 5.081400 47.937733 17 16 21
-8.236336 5.075881 47.885674 38 17 27
-8.132856 5.071075 47.840328 33 19 39
-8.027990 5.065280 47.785656 36 38 15
-7.927801 5.062331 47.757835 24 24 32
-7.827320 5.059122 47.727562 29 41 18
-7.722797 5.053188 47.671585 37 42 42
-7.619975 5.048233 47.624844 39 15 22
-7.512251 5.039864 47.545891 27 26 33
-7.406854 5.032862 47.479832 37 31 19
-7.301153 5.025469 47.410088 33 38 21
-7.193514 5.016530 47.325752 24 37 19
-7.090800 5.010832 47.271999 29 36 21
-6.984060 5.002097 47.189594 37 28 44
-6.880804 4.995652 47.128792 41 35 35
-6.777070 4.988676 47.062984 21 31 30
-6.671201 4.979910 46.980286 28 21 30
-6.569750 4.974239 46.926785 34 28 25
-6.455264 4.958392 46.777279 36 38 43
-6.340063 4.941520 46.618111 24 43 41
-6.221585 4.921552 46.429737 19 41 17
-6.099615 4.898175 46.209202 30 42 36
-5.988334 4.882796 46.064110 26 34 43
-5.869176 4.860411 45.852936 19 38 34
-5.756578 4.842835 45.687126 21 16 28
-5.647154 4.827406 45.541565 35 15 21
-17.071321 5.297996 49.055519 21 30 41
-16.940851 5.287896 48.961998 43 43 30
-16.816899 5.279724 48.886333 16 31 41
-16.688672 5.270107 48.797287 39 19 23
-16.575143 5.265045 48.750420 34 23 40
-16.468197 5.262028 48.722477 37 36 35
-16.371858 5.262383 48.725769 30 39 31
-16.284536 5.265658 48.756096 36 30 31
-16.198316 5.269332 48.790108 23 15 35
-16.110986 5.272686 48.821171 31 15 23
-16.030441 5.278316 48.873295 44 30 44
-15.946893 5.283020 48.916851 39 25 41
-15.864047 5.288016 48.963108 19 42 35
-15.783718 5.293918 49.017757 17 17 27
-15.696427 5.297544 49.051334 18 19 19
-15.619427 5.304711 49.117695 19 18 22
-15.542147 5.311873 49.184010 21 41 30
-15.463939 5.318807 49.248215 22 25 30
-15.385934 5.325900 49.313892 17 18 39
-15.297423 5.329425 49.346527 38 39 34
-15.207962 5.332662 49.376499 17 28 26
-15.112273 5.333743 49.386513 23 41 44
-15.013404 5.333709 49.386196 34 22 18
-14.917479 5.334728 49.395626 39 25 25
-14.820814 5.335493 49.402714 17 42 34
-14.722548 5.335688 49.404522 38 15 19
-14.621854 5.335001 49.398155 35 21 30
-14.520842 5.334187 49.390617 36 18 43
-14.421441 5.333958 49.388496 27 44 37
-14.323200 5.334157 49.390347 18 35 33
-14.227708 5.335391 49.401764 43 44 41
-14.132081 5.336590 49.412872 44 20 41
-14.038979 5.338767 49.433025 38 22 18
-13.949884 5.342509 49.467674 44 32 39
-13.859686 5.345879 49.498878 31 26 20
-13.771684 5.350151 49.538433 26 20 27
-13.681872 5.353776 49.571999 25 44 34
-13.587275 5.355568 49.588596 23 28 16
-13.487975 5.355519 49.588142 17 15 25
-13.383594 5.353438 49.568867 37 19 40
-13.271581 5.348249 49.520824 23 38 25
-13.161629 5.343819 49.479809 19 19 18
-13.045738 5.336893 49.415676 32 21 25
-12.921442 5.326396 49.318481 32 28 25
-12.801725 5.317640 49.237404 15 20 15
-12.669314 5.303434 49.105869 38 28 15
-12.542575 5.291399 48.994434 20 21 18
-12.417073 5.279700 48.886112 41 29 17
-12.288807 5.266631 48.765106 28 21 17
-12.174202 5.259255 48.696808 25 19 15
-12.054894 5.249712 48.608444 18 35 27
-11.944361 5.243866 48.554314 35 39 30
-11.834530 5.238234 48.502171 23 24 35
-11.717918 5.229484 48.421150 18 15 23
-11.606969 5.223136 48.362370 17 40 26
-11.482458 5.210527 48.245621 23 21 34
-11.361674 5.199410 48.142685 32 32 33
-11.236749 5.186192 48.020294 30 22 23
-11.102474 5.168393 47.855492 42 35 43
-10.979104 5.155405 47.735233 27 16 25
-10.846951 5.138029 47.574345 16 22 16
-10.726184 5.125787 47.460991 20 23 42
-10.609327 5.115211 47.363068 20 42 31
-10.485600 5.101103 47.232433 17 24 40
-10.372937 5.092169 47.149715 44 27 28
-10.266156 5.085986 47.092461 39 37 28
-10.170642 5.085321 47.086308 120 120 120
-10.084226 5.089236 47.122551 120 120 120
-9.999786 5.094231 47.168804 120 120 120
-9.915614 5.099459 47.217209 18 22 32
-9.835104 5.106689 47.284153 44 31 26
-9.747953 5.110577 47.320160 18 44 16
-9.663836 5.116149 47.371746 37 23 34
-9.590918 5.127817 47.479790 27 18 40
-9.516108 5.138698 47.580540 40 33 30
-9.442388 5.150393 47.688828 24 30 36
-9.358816 5.156899 47.749062 36 41 41
-9.269204 5.160175 47.779400 44 30 26
-9.179389 5.163406 47.809319 30 35 40
-9.084020 5.163548 47.810631 30 35 40
-8.987778 5.163192 47.807331 30 35 40
-8.891983 5.163087 47.806358 30 35 40
-8.793943 5.161662 47.793171 30 35 40
-8.692986 5.158475 47.763657 41 29 41
-8.591765 5.155059 47.732029 43 23 19
-8.489570 5.150975 47.694214 21 40 29
-8.391258 5.149181 47.677601 25 36 20
-8.291997 5.146757 47.655155 44 43 26
-8.188047 5.141332 47.604927 20 16 29
-8.084785 5.136216 47.557560 17 22 39
-7.979954 5.129971 47.499729 35 32 20
-7.880026 5.126764 47.470036 18 35 27
-7.779580 5.123138 47.436462 38 40 15
-7.674821 5.116547 47.375439 29 19 27
-7.571915 5.111042 47.324467 30 41 17
-7.463240 5.101455 47.235695 39 21 34
-7.356767 5.093146 47.158764 18 29 36
-7.250054 5.084453 47.078270 24 36 21
-7.141637 5.074321 46.984451 42 16 38
-7.039030 5.068102 46.926868 24 16 15
-6.932052 5.058525 46.838192 41 22 44
-6.828266 5.051046 46.768944 18 31 43
-6.724826 5.043620 46.700184 36 32 21
-6.620714 5.035472 46.624744 35 43 40
-6.521812 5.031112 46.584370 34 26 19
-6.410216 5.016691 46.450840 37 39 15
-6.297208 5.000724 46.303001 38 25 17
-6.180348 4.981176 46.121998 32 34 24
-6.059485 4.957760 45.905190 40 18 26
-5.948511 4.941840 45.757774 17 17 20
-5.829944 4.919016 45.546440 18 19 29
-5.718194 4.901309 45.382492 29 26 30
-5.609802 4.885957 45.240341 31 38 21
-17.117382 5.379749 48.906807 43 30 28
-16.974301 5.365440 48.776726 23 26 26
-16.838629 5.353321 48.666557 37 28 42
-16.711568 5.343815 48.580139 38 42 41
-16.587861 5.335277 48.502518 21 26 32
-16.483048 5.332751 48.479553 37 41 40
-16.383576 5.331933 48.472118 39 40 27
-16.289509 5.332875 48.480682 27 23 24
-16.202545 5.336167 48.510612 34 33 32
-16.117744 5.340216 48.547421 27 22 20
-16.031273 5.343758 48.579617 17 44 15
-15.951804 5.349690 48.633549 27 40 21
-15.869455 5.354724 48.679310 21 15 20
-15.787435 5.359932 48.726650 22 23 39
-15.707268 5.365837 48.780334 28 18 37
-15.619672 5.369262 48.811474 31 27 17
-15.542510 5.376340 48.875816 33 24 42
-15.465534 5.383572 48.941563 34 34 36
-15.387948 5.390682 49.006203 33 26 44
-15.310629 5.397978 49.072529 30 25 17
-15.222931 5.401685 49.106228 29 23 20
-15.134355 5.405127 49.137516 16 38 19
-15.039388 5.406316 49.148327 31 36 26
-14.941241 5.406370 49.148819 29 16 43
-14.846128 5.407530 49.159363 37 29 42
-14.750157 5.408391 49.167191 26 20 44
-14.652370 5.408593 49.169025 38 32 37
-14.551807 5.407766 49.161510 25 35 27
-14.450948 5.406817 49.152885 37 26 26
-14.352095 5.406611 49.151009 15 41 42
-14.254622 5.406926 49.153870 16 25 22
-14.159906 5.408297 49.166340 30 33 20
-14.064822 5.409547 49.177700 18 36 40
-13.972365 5.411831 49.198467 43 42 17
-13.884328 5.415873 49.235207 24 27 23
-13.795243 5.419560 49.268726 27 26 27
-13.708400 5.424187 49.310791 41 33 16
-13.619393 5.428019 49.345627 30 24 16
-13.525603 5.429987 49.363514 24 28 28
-13.427329 5.430170 49.365181 25 28 31
-13.323866 5.428242 49.347652 39 41 43
-13.213568 5.423480 49.304359 23 42 34
-13.105409 5.419530 49.268456 43 41 29
-12.991516 5.413132 49.210289 21 16 32
-12.869280 5.403133 49.119389 16 16 38
-12.750952 5.394633 49.042122 15 23 25
-12.620525 5.380844 48.916763 33 17 44
-12.495568 5.369190 48.810814 35 44 34
-12.371652 5.357802 48.707291 23 44 32
-12.244947 5.345017 48.591061 33 26 36
-12.131223 5.337738 48.524891 22 35 17
-12.012695 5.328211 48.438286 41 18 27
-11.902659 5.322327 48.384792 38 23 39
-11.793044 5.316536 48.332150 39 21 33
-11.676607 5.307549 48.250443 39 25 20
-11.565748 5.300968 48.190617 42 37 33
-11.441280 5.287987 48.072605 16 15 34
-11.320632 5.276566 47.968781 15 36 22
-11.195866 5.263014 47.845581 42 28 21
-11.061769 5.244804 47.680038 30 21 28
-10.938692 5.231548 47.559528 30 17 34
-10.806647 5.213733 47.397575 36 23 21
-10.685975 5.201138 47.283077 24 44 42
-10.569141 5.190203 47.183666 26 21 27
-10.445390 5.175644 47.051308 27 31 18
-10.332835 5.166417 46.967430 19 27 17
-10.225982 5.159899 46.908176 23 15 32
-10.130470 5.159035 46.900322 120 120 120
-10.044040 5.162825 46.934769 120 120 120
-9.959501 5.167666 46.978779 120 120 120
-9.875421 5.172840 47.025814 39 29 39
-9.794984 5.180040 47.091270 31 15 33
-9.708066 5.183919 47.126534 16 24 33
-9.624258 5.189551 47.177734 37 23 29
-9.551800 5.201475 47.286140 41 26 41
-9.477563 5.212659 47.387814 37 19 15
-9.403509 5.224172 47.492470 15 41 31
-9.318774 5.229924 47.544765 35 34 33
-9.228107 5.232432 47.567562 17 35 15
-9.138182 5.235417 47.594700 39 32 28
-9.043646 5.235795 47.598137 30 35 40
-8.948466 5.235804 47.598221 30 35 40
-8.853511 5.235947 47.599522 30 35 40
-8.756430 5.234822 47.589294 44 22 26
-8.656535 5.231972 47.563377 16 33 35
-8.556184 5.228779 47.534355 24 39 25
-8.455287 5.225177 47.501610 20 27 24
-8.358307 5.223942 47.490383 39 25 43
-8.260279 5.222016 47.472870 29 21 33
-8.157332 5.216898 47.426350 37 39 31
-8.054601 5.211801 47.380005 31 25 31
-7.950135 5.205445 47.322231 36 18 17
-7.850502 5.202140 47.292179 35 25 43
-7.750114 5.198247 47.256790 40 26 15
-7.645249 5.191218 47.192894 42 36 43
-7.542284 5.185320 47.139275 37 19 37
-7.432955 5.174842 47.044022 32 18 23
-7.325748 5.165592 46.959923 27 31 21
-7.218285 5.155918 46.871979 20 16 28
-7.109193 5.144811 46.771008 18 32 34
-7.006510 5.138107 46.710068 25 29 43
-6.899254 5.127824 46.616581 33 29 34
-6.795345 5.119781 46.543461 32 26 15
-6.691963 5.111916 46.471962 31 16 31
-6.587744 5.103182 46.392563 43 41 20
-6.488956 5.098465 46.349686 37 27 39
-6.378713 5.084481 46.222557 15 42 39
-6.268099 5.069786 46.088966 33 33 36
-6.153578 5.051445 45.922226 26 19 26
-6.033903 5.028252 45.711384 30 21 19
-5.922973 5.011747 45.561333 16 44 18
-5.804690 4.988406 45.349144 36 38 31
-5.693484 4.970502 45.186378 39 15 29
-5.585748 4.955099 45.046356 31 19 33
-5.476371 4.937712 44.888290 30 37 36
-16.979948 5.433583 48.514137 21 30 42
-16.836159 5.418534 48.379768 15 20 21
-16.695980 5.404479 48.254276 19 26 32
-16.566629 5.393786 48.158806 39 17 21
-16.448348 5.386594 48.094585 40 19 18
-16.352915 5.386843 48.096809 32 16 36
-16.261091 5.388291 48.109737 21 40 24
-16.168713 5.389571 48.121170 21 41 36
-16.081618 5.392638 48.148556 40 24 23
-15.998558 5.397104 48.188427 39 16 24
-15.913813 5.401052 48.223675 22 33 16
-15.836902 5.407723 48.283237 27 25 38
-15.757125 5.413491 48.334740 27 40 26
-15.677374 5.419339 48.386955 20 21 44
-15.598918 5.425711 48.443844 16 24 31
-15.511954 5.429184 48.474857 21 33 15
-15.435614 5.436443 48.539665 21 21 33
-15.359564 5.443896 48.606216 22 25 24
-15.283047 5.451278 48.672123 22 15 17
-15.207157 5.458979 48.740887 18 28 30
-15.120811 5.463003 48.776810 34 37 23
-15.033675 5.466791 48.810635 36 22 16
-14.939750 5.468144 48.822712 38 18 41
-14.842574 5.468317 48.824257 25 15 33
-14.748669 5.469705 48.836651 39 25 19
-14.653735 5.470728 48.845783 21 27 27
-14.556688 5.470970 48.847946 21 21 26
-14.456367 5.469977 48.839077 22 39 38
-14.355654 5.468820 48.828754 33 39 19
-14.257250 5.468534 48.826199 40 32 18
-14.160493 5.468880 48.829285 30 19 33
-14.066162 5.470174 48.840839 37 17 44
-13.971156 5.471222 48.850197 29 21 36
-13.878811 5.473334 48.869053 39 27 28
-13.791097 5.477315 48.904598 38 39 41
-13.702596 5.481038 48.937843 40 43 30
-13.616442 5.485761 48.980007 24 40 41
-13.527993 5.489621 49.014469 35 25 26
-13.435019 5.491687 49.032917 36 17 38
-13.337825 5.492046 49.036121 23 20 28
-13.235442 5.490258 49.020157 27 19 43
-13.127415 5.486084 48.982891 30 19 30
-13.021744 5.482840 48.953926 29 35 36
-12.910743 5.477285 48.904331 33 39 38
-12.791723 5.468218 48.823372 28 28 42
-12.675681 5.460294 48.752621 33 40 27
-12.548369 5.447354 48.637089 27 27 27
-12.426087 5.436413 48.539402 27 20 16
-12.304516 5.425614 48.442978 19 22 36
-12.180289 5.413462 48.334480 37 26 28
-12.068040 5.406482 48.272160 31 42 16
-11.950922 5.397191 48.189201 30 24 27
-11.841771 5.391375 48.137280 15 39 41
-11.732668 5.385487 48.084705 28 33 30
-11.616702 5.376325 48.002899 41 20 31
-11.506147 5.369535 47.942280 15 29 25
-11.381940 5.356207 47.823277 21 25 34
-11.261577 5.344477 47.718548 29 43 22
-11.137209 5.330630 47.594910 27 19 38
-11.003609 5.312087 47.429348 16 41 25
-10.881103 5.298624 47.309143 19 44 21
-10.749564 5.280487 47.147209 19 29 21
-10.629304 5.267620 47.032318 29 35 35
-10.512804 5.256402 46.932159 22 44 43
-10.389338 5.241468 46.798820 21 25 33
-10.277120 5.231989 46.714184 28 41 41
-10.170299 5.225108 46.652748 18 29 27
-10.074855 5.223999 46.642845 120 120 120
-9.988325 5.227535 46.674416 120 120 120
-9.903415 5.231993 46.714222 120 120 120
-9.819133 5.236871 46.757778 15 22 41
-9.738311 5.243706 46.818802 34 34 29
-9.651343 5.247332 46.851181 17 22 19
-9.567607 5.252804 46.900036 18 17 25
-9.495307 5.264725 47.006470 18 33 38
-9.421603 5.276097 47.108013 27 31 33
-9.346738 5.287044 47.205750 25 15 26
-9.260170 5.291526 47.245766 16 29 25
-9.167930 5.292825 47.257370 28 18 17
-9.077676 5.295311 47.279564 15 18 32
-8.984217 5.295960 47.285355 15 38 28
-8.890362 5.296386 47.289158 30 35 40
-8.796514 5.296826 47.293087 40 35 19
-8.700726 5.296094 47.286552 29 20 24
-8.602300 5.293723 47.265385 29 15 39
-8.503160 5.290855 47.239780 38 33 37
-8.404010 5.287916 47.213539 44 20 39
-8.308727 5.287372 47.208675 35 39 39
-8.212316 5.286088 47.197216 19 21 38
-8.110925 5.281532 47.156540 16 36 29
-8.009207 5.276654 47.112980 25 44 31
-7.905528 5.270352 47.056717 38 42 17
-7.806386 5.266960 47.026424 17 16 27
-7.706160 5.262743 46.988781 36 15 44
-7.601301 5.255221 46.921612 44 37 25
-7.498373 5.248861 46.864830 29 42 24
-7.388509 5.237424 46.762714 42 20 27
-7.280782 5.227228 46.671677 44 15 33
-7.172750 5.216546 46.576302 39 27 40
-7.063034 5.204341 46.467327 15 42 23
-6.960240 5.196979 46.401600 30 25 44
-6.852856 5.185945 46.303082 16 15 21
-6.749179 5.177453 46.227257 38 41 37
-6.646234 5.169293 46.154404 28 38 34
-6.542017 5.159901 46.070545 32 15 25
-6.443304 5.154643 46.023602 25 38 28
-6.335034 5.141477 45.906044 38 15 30
-6.227991 5.128934 45.794052 32 26 32
-6.116993 5.112710 45.649200 37 42 20
-5.999196 5.090227 45.448456 31 18 40
-5.888414 5.073095 45.295494 40 31 34
-5.770429 5.049126 45.081478 39 36 32
-5.659844 5.030972 44.919395 24 36 18
-5.552717 5.015358 44.779980 36 37 35
-5.443970 4.997743 44.622707 31 34 37
-16.878030 5.497415 48.222942 16 44 43
-16.734087 5.481856 48.086456 34 22 33
-16.591926 5.466704 47.953545 36 17 39
-16.462113 5.455468 47.854980 27 40 44
-16.347678 5.449226 47.800228 37 33 37
-16.258159 5.451265 47.818115 29 30 24
-16.170704 5.454024 47.842319 41 43 44
-16.078463 5.455193 47.852570 31 35 37
-15.990670 5.457894 47.876259 42 38 37
-15.908880 5.462688 47.918312 32 30 24
-15.826047 5.467180 47.957718 20 26 20
-15.751958 5.474766 48.024261 33 31 24
-15.674791 5.481369 48.082180 28 25 21
-15.597478 5.488002 48.140366 41 18 18
-15.521156 5.495068 48.202347 33 41 18
-15.435253 5.498809 48.235165 19 18 22
-15.360079 5.506443 48.302135 17 31 24
-15.284887 5.514168 48.369896 27 18 30
-15.209119 5.521782 48.436684 41 37 18
-15.134373 5.529867 48.507607 43 21 27
-15.049052 5.534168 48.545330 42 28 36
-14.962979 5.538245 48.581100 24 19 36
-14.869786 5.539724 48.594070 34 34 43
-14.773209 5.539953 48.596081 28 42 43
-14.680121 5.541503 48.609673 16 42 31
-14.585904 5.542643 48.619678 44 34 39
-14.489198 5.542848 48.621471 19 35 25
-14.388941 5.541687 48.611286 31 18 26
-14.288056 5.540267 48.598831 33 40 28
-14.189545 5.539754 48.594334 32 36 29
-14.092926 5.539978 48.596298 15 44 23
-13.998188 5.540950 48.604820 31 38 18
-13.902691 5.541632 48.610809 27 30 28
-13.809778 5.543362 48.625980 21 22 21
-13.721399 5.546949 48.657444 36 35 23
-13.632748 5.550476 48.688385 25 37 29
-13.546424 5.555009 48.728146 36 24 16
-13.458090 5.558776 48.761196 37 37 38
-13.365618 5.560878 48.779629 27 42 31
-13.268993 5.561269 48.783062 34 36 19
-13.167364 5.559553 48.768013 41 41 24
-13.061073 5.555830 48.735348 33 24 18
-12.957365 5.553156 48.711899 19 17 44
-12.848711 5.548307 48.669361 32 32 31
-12.732356 5.540033 48.596779 31 35 24
-12.618239 5.532613 48.531689 41 27 42
-12.493518 5.520392 48.424488 26 23 16
-12.373316 5.509992 48.333267 20 37 34
-12.253612 5.499652 48.242565 38 20 42
-12.131372 5.488002 48.140366 19 44 19
-12.020331 5.481271 48.081326 34 18 31
-11.904359 5.472165 48.001446 36 44 38
-11.795924 5.466404 47.950912 37 35 44
-11.687199 5.460413 47.898357 39 31 38
-11.571626 5.451096 47.816635 32 29 38
