ply
format ascii 1.0
element vertex 1257
property float x
property float y
property float z
property uchar red
property uchar green
property uchar blue
end_header
-5.606170 2.249845 18.441349 24 30 38
-5.572240 2.251037 18.451126 39 27 23
-5.537631 2.251970 18.458771 37 17 33
-5.503805 2.253236 18.469145 22 34 44
-5.468947 2.254093 18.476173 41 32 21
-5.433945 2.254902 18.482807 33 39 39
-5.399573 2.255986 18.491690 24 32 20
-5.364255 2.256687 18.497431 23 35 21
-5.330213 2.257938 18.507685 27 37 43
-5.295714 2.259011 18.516481 18 20 22
-5.261397 2.260178 18.526047 15 18 18
-5.227713 2.261635 18.537991 22 37 35
-5.192830 2.262590 18.545822 18 20 23
-5.159580 2.264276 18.559639 16 24 17
-5.125876 2.265786 18.572016 36 16 44
-5.092114 2.267292 18.584358 36 34 29
-5.058857 2.269046 18.598740 42 42 44
-5.023979 2.270094 18.607330 32 31 24
-4.989321 2.271258 18.616871 29 24 18
-4.953761 2.272026 18.623161 19 21 17
-4.917181 2.272334 18.625685 20 31 40
-4.880227 2.272472 18.626822 24 20 25
-4.842449 2.272226 18.624805 37 25 21
-4.803623 2.271480 18.618692 25 28 32
-4.764626 2.270642 18.611822 30 35 40
-4.725302 2.269633 18.603550 30 35 40
-4.685784 2.268515 18.594381 30 35 40
-4.647130 2.267800 18.588522 30 35 40
-4.608349 2.267011 18.582054 30 35 40
-4.570410 2.266626 18.578903 30 35 40
-4.532665 2.266333 18.576496 30 35 40
-4.494452 2.265798 18.572115 30 35 40
-4.456539 2.265407 18.568911 30 35 40
-4.417816 2.264595 18.562254 30 35 40
-4.379142 2.263794 18.555687 30 35 40
-4.340392 2.262940 18.548685 16 42 26
-4.301377 2.261931 18.540419 30 35 40
-4.263081 2.261286 18.535133 30 35 40
-4.225052 2.260773 18.530930 30 35 40
-4.187497 2.260507 18.528749 30 35 40
-4.150861 2.260737 18.530630 30 35 40
-4.114668 2.261214 18.534542 30 35 40
-4.078671 2.261808 18.539412 30 35 40
-4.045335 2.263903 18.556583 30 35 40
-4.012098 2.266092 18.574526 30 35 40
-3.980363 2.269179 18.599829 30 35 40
-3.950399 2.273343 18.633959 30 35 40
-3.918631 2.276538 18.660149 30 35 40
-3.890090 2.281687 18.702354 30 35 40
-3.859334 2.285625 18.734629 37 26 43
-3.829280 2.290060 18.770981 16 30 19
-3.802515 2.296568 18.824331 32 32 29
-3.772932 2.301488 18.864658 19 22 31
-3.745009 2.307531 18.914185 25 32 35
-3.712965 2.311131 18.943699 24 41 28
-3.679995 2.314224 18.969048 44 24 19
-3.649408 2.318895 19.007334 31 21 44
-3.616350 2.322077 19.033419 19 40 22
-3.585890 2.327014 19.073883 25 23 22
-3.553516 2.330801 19.104927 33 23 18
-3.521247 2.334740 19.137213 17 25 20
-3.490729 2.339939 19.179829 31 42 26
-3.457521 2.343431 19.208448 34 34 20
-3.427952 2.349495 19.258156 24 44 30
-3.397053 2.354775 19.301437 28 35 23
-3.366206 2.360213 19.346010 25 17 16
-3.336795 2.366796 19.399971 27 15 38
-3.303743 2.370922 19.433784 22 42 27
-3.272595 2.376527 19.479731 38 42 21
-3.238929 2.380418 19.511621 44 40 23
-3.204607 2.383915 19.540287 29 38 30
-3.171966 2.388764 19.580036 37 26 41
-3.136969 2.391939 19.606058 44 35 22
-3.103187 2.396132 19.640423 15 22 40
-3.067303 2.398788 19.662197 19 16 16
-3.031219 2.401356 19.683243 27 37 24
-2.996647 2.405203 19.714781 31 23 27
-2.960569 2.407929 19.737123 19 19 22
-2.927368 2.413101 19.779512 27 42 30
-2.893431 2.417798 19.818018 16 27 42
-2.859824 2.422906 19.859888 36 37 28
-2.827188 2.428993 19.909775 43 24 42
-2.791788 2.432844 19.941343 19 17 20
-2.758994 2.439111 19.992710 34 20 37
-2.724628 2.444151 20.034027 19 28 42
-2.690357 2.449429 20.077288 41 17 32
-2.657730 2.456387 20.134317 38 16 21
-2.622489 2.461105 20.172991 24 32 28
-2.589424 2.468044 20.229872 35 42 16
-2.554122 2.473038 20.270807 18 43 15
-2.518833 2.478207 20.313173 40 18 17
-2.485700 2.485700 20.374586 28 36 28
-2.450272 2.491110 20.418936 32 33 44
-2.416809 2.498735 20.481432 31 35 35
-6.495560 2.275281 18.349039 17 35 35
-6.447723 2.271357 18.317394 40 20 19
-6.401926 2.268111 18.291216 29 28 38
-6.355821 2.264718 18.263853 27 38 33
-6.313771 2.262739 18.247894 26 40 39
-6.275290 2.262023 18.242121 27 35 16
-6.238175 2.261794 18.240276 38 17 39
-6.203792 2.262559 18.246447 40 28 36
-6.171893 2.264245 18.260038 26 22 40
-6.140542 2.266152 18.275423 27 41 23
-6.108840 2.267953 18.289940 16 31 20
-6.075210 2.269054 18.298824 15 31 19
-6.038601 2.269050 18.298790 31 29 22
-6.003461 2.269601 18.303234 22 30 26
-5.968962 2.270403 18.309700 15 37 15
-5.934908 2.271385 18.317617 17 15 29
-5.901313 2.272555 18.327059 34 42 27
-5.866683 2.273340 18.333385 38 43 44
-5.833229 2.274593 18.343489 15 44 39
-5.799120 2.275604 18.351645 19 31 26
-5.764990 2.276620 18.359840 16 42 33
-5.731546 2.277922 18.370340 31 19 23
-5.696922 2.278769 18.377169 43 37 44
-5.662833 2.279842 18.385820 20 41 33
-5.627565 2.280451 18.390734 22 32 31
-5.592294 2.281067 18.395702 22 15 36
-5.558235 2.282189 18.404751 19 35 41
-5.523629 2.283100 18.412096 31 20 24
-5.489811 2.284351 18.422186 38 20 26
-5.454990 2.285198 18.429020 18 22 22
-5.420095 2.286026 18.435696 25 35 41
-5.385889 2.287158 18.444826 40 44 41
-5.350770 2.287915 18.450930 37 41 19
-5.317010 2.289268 18.461840 42 24 15
-5.282790 2.290440 18.471292 35 34 31
-5.248728 2.291698 18.481438 26 24 22
-5.215245 2.293229 18.493778 25 38 41
-5.180461 2.294204 18.501648 22 31 29
-5.147292 2.295914 18.515438 31 32 33
-5.113657 2.297440 18.527744 22 28 37
-5.079959 2.298959 18.539995 24 28 18
-5.046776 2.300736 18.554323 34 20 32
-5.011982 2.301799 18.562897 23 33 44
-4.977456 2.303002 18.572598 18 34 15
-4.942031 2.303804 18.579065 41 19 18
-4.905628 2.304158 18.581923 31 24 16
-4.868909 2.304369 18.583624 21 29 21
-4.831355 2.304185 18.582134 17 34 22
-4.792824 2.303528 18.576836 36 19 32
-4.754076 2.302756 18.570610 30 35 40
-4.715009 2.301816 18.563028 30 35 40
-4.675798 2.300790 18.554754 30 35 40
-4.637374 2.300138 18.549498 30 35 40
-4.598919 2.299460 18.544029 30 35 40
-4.561260 2.299172 18.541706 30 35 40
-4.523799 2.298980 18.540161 30 35 40
-4.485923 2.298572 18.536871 30 35 40
-4.448256 2.298265 18.534399 30 35 40
-4.409869 2.297579 18.528860 30 35 40
-4.371469 2.296873 18.523172 30 35 40
-4.332987 2.296113 18.517040 19 39 32
-4.294299 2.295229 18.509909 19 34 34
-4.256236 2.294666 18.505373 30 35 40
-4.218461 2.294251 18.502022 30 35 40
-4.181086 2.294047 18.500381 30 35 40
-4.144569 2.294315 18.502541 30 35 40
-4.108503 2.294840 18.506771 30 35 40
-4.072577 2.295453 18.511715 30 35 40
-4.039264 2.297563 18.528734 30 35 40
-4.006037 2.299762 18.546469 30 35 40
-3.974252 2.302837 18.571270 30 35 40
-3.944169 2.306967 18.604570 30 35 40
-3.912298 2.310119 18.629990 30 35 40
-3.883554 2.315195 18.670931 18 42 40
-3.852678 2.319087 18.702318 38 43 20
-3.822456 2.323453 18.737528 34 41 25
-3.795379 2.329837 18.789007 38 16 33
-3.765552 2.334642 18.827761 26 15 35
-3.737315 2.340541 18.875330 34 28 31
-3.705114 2.344051 18.903641 39 27 39
-3.672024 2.347067 18.927958 15 38 30
-3.641238 2.351633 18.964783 29 27 41
-3.608085 2.354751 18.989923 40 33 29
-3.577430 2.359582 19.028885 44 22 17
-3.544912 2.363275 19.058668 42 25 39
-3.512512 2.367128 19.089741 21 20 29
-3.481830 2.372236 19.130936 39 17 38
-3.448572 2.375683 19.158735 27 39 31
-3.418849 2.381670 19.207018 23 31 21
-3.387840 2.386887 19.249090 43 34 33
-3.356879 2.392259 19.292410 30 35 34
-3.327304 2.398754 19.344790 28 33 15
-3.294188 2.402820 19.377579 42 41 21
-3.262922 2.408347 19.422153 19 21 42
-3.229212 2.412183 19.453087 31 40 33
-3.194879 2.415640 19.480968 18 41 33
-3.162190 2.420442 19.519693 19 39 19
-3.127222 2.423597 19.545137 25 34 23
-3.093475 2.427791 19.578957 23 38 35
-3.057671 2.430457 19.600456 34 30 42
-3.021717 2.433071 19.621538 30 21 20
-2.987287 2.436997 19.653202 17 22 40
-2.951375 2.439803 19.675833 38 15 44
-2.918368 2.445119 19.718704 38 34 27
-2.884617 2.449949 19.757652 18 19 29
-2.851196 2.455197 19.799973 30 20 33
-2.818748 2.461442 19.850338 39 32 15
-2.783503 2.465389 19.882166 23 37 31
-2.750864 2.471791 19.933800 19 27 34
-2.716631 2.476929 19.975231 41 43 41
-2.682489 2.482304 20.018578 19 15 27
-2.650010 2.489403 20.075830 39 19 19
-2.614907 2.494219 20.114670 25 27 42
-2.582028 2.501340 20.172096 20 36 34
-2.546908 2.506481 20.213554 36 17 30
-2.511837 2.511837 20.256752 26 20 34
-2.479023 2.519663 20.319860 21 25 23
-2.443907 2.525370 20.365889 15 41 31
-2.410604 2.533177 20.428846 21 31 25
-6.479953 2.306424 18.304951 29 32 34
-6.432815 2.302655 18.275043 15 44 44
-6.387351 2.299446 18.249575 20 15 20
-6.341604 2.296098 18.223000 20 30 31
-6.299814 2.294152 18.207554 43 40 16
-6.261484 2.293451 18.201988 43 21 31
-6.224519 2.293244 18.200348 23 34 19
-6.190212 2.294020 18.206505 30 34 35
-6.158247 2.295678 18.219666 34 27 28
-6.126779 2.297542 18.234461 19 22 41
-6.094895 2.299272 18.248188 40 17 18
-6.061007 2.300262 18.256046 42 22 24
-6.024227 2.300159 18.255232 17 27 24
-5.989074 2.300681 18.259371 19 31 25
-5.954777 2.301539 18.266186 30 15 30
-5.921042 2.302627 18.274820 20 44 26
-5.887735 2.303896 18.284891 22 18 15
-5.853323 2.304746 18.291634 17 20 29
-5.820086 2.306072 18.302156 38 19 31
-5.786145 2.307134 18.310587 26 38 19
-5.752102 2.308168 18.318796 32 25 21
-5.718689 2.309471 18.329132 28 33 32
-5.684050 2.310291 18.335646 33 37 24
-5.649814 2.311288 18.343552 33 27 40
-5.614382 2.311804 18.347654 43 39 35
-5.578949 2.312328 18.351807 39 21 35
-5.544765 2.313379 18.360149 38 30 34
-5.510160 2.314267 18.367201 36 31 15
-5.476386 2.315519 18.377134 28 36 30
-5.441659 2.316382 18.383982 33 17 34
-5.406937 2.317259 18.390944 21 22 18
-5.372962 2.318470 18.400555 24 23 26
-5.338074 2.319301 18.407152 18 40 33
-5.304622 2.320772 18.418825 15 15 33
-5.270674 2.322045 18.428928 15 38 34
-5.236855 2.323393 18.439629 40 43 25
-5.203585 2.325006 18.452431 17 28 36
-5.168918 2.326013 18.460421 39 34 27
-5.135845 2.327757 18.474264 29 19 35
-5.102270 2.329297 18.486485 41 28 19
-5.068619 2.330825 18.498610 40 26 16
-5.035505 2.332624 18.512886 32 44 16
-5.000793 2.333703 18.521456 40 26 34
-4.966409 2.334953 18.531376 32 18 26
-4.931146 2.335806 18.538141 17 38 25
-4.894941 2.336222 18.541443 32 18 40
-4.858461 2.336512 18.543743 31 28 37
-4.821106 2.336382 18.542715 42 44 34
-4.782842 2.335807 18.538147 37 26 24
-4.744312 2.335091 18.532467 30 35 40
-4.705465 2.334207 18.525454 30 35 40
-4.666520 2.333260 18.517937 30 35 40
-4.628297 2.332662 18.513189 30 35 40
-4.590125 2.332080 18.508568 30 35 40
-4.552698 2.331870 18.506903 30 35 40
-4.515482 2.331765 18.506075 30 35 40
-4.477902 2.331470 18.503727 30 35 40
-4.440455 2.331239 18.501898 30 35 40
-4.402369 2.330666 18.497351 30 35 40
-4.364220 2.330050 18.492458 30 35 40
-4.325983 2.329376 18.487108 22 44 38
-4.287587 2.328603 18.480978 20 16 28
-4.249730 2.328113 18.477087 30 35 40
-4.212167 2.327777 18.474417 30 35 40
-4.174935 2.327618 18.473162 30 35 40
-4.138503 2.327908 18.475462 30 35 40
-4.102529 2.328462 18.479858 30 35 40
-4.066658 2.329086 18.484810 30 35 40
-4.033347 2.331200 18.501591 30 35 40
-4.000117 2.333402 18.519062 30 35 40
-3.968277 2.336462 18.543350 30 35 40
-3.938076 2.340555 18.575830 30 35 40
-3.906115 2.343669 18.600548 30 35 40
-3.877205 2.348691 18.640408 15 21 42
-3.846239 2.352554 18.671064 42 38 38
-3.815897 2.356877 18.705376 41 29 23
-3.788580 2.363173 18.755344 24 27 35
-3.758569 2.367899 18.792847 42 40 30
-3.730115 2.373709 18.838963 31 34 36
-3.697840 2.377183 18.866531 36 30 16
-3.664708 2.380171 18.890247 17 44 20
-3.633803 2.384683 18.926056 30 22 39
-3.600590 2.387759 18.950472 44 35 36
-3.569774 2.392508 18.988159 24 28 22
-3.537131 2.396121 19.016834 21 21 15
-3.504605 2.399892 19.046764 24 21 27
-3.473775 2.404921 19.086674 41 33 29
-3.440473 2.408331 19.113737 31 32 22
-3.410601 2.414246 19.160681 29 43 33
-3.379471 2.419394 19.201542 23 42 20
-3.348383 2.424691 19.243582 25 26 24
-3.318626 2.431087 19.294338 15 44 33
-3.285430 2.435084 19.326061 34 21 16
-3.254049 2.440536 19.369337 33 24 15
-3.220304 2.444327 19.399420 38 21 23
-3.185978 2.447764 19.426695 18 24 41
-3.153267 2.452541 19.464611 44 30 31
-3.118338 2.455691 19.489614 43 39 34
-3.084656 2.459916 19.523140 22 19 29
-3.048961 2.462622 19.544622 33 37 23
-3.013158 2.465311 19.565958 44 23 19
-2.978895 2.469347 19.597992 21 35 22
-2.943148 2.472244 19.620987 39 40 27
-2.910326 2.477710 19.664366 33 16 19
-2.876741 2.482667 19.703703 42 15 25
-2.843471 2.488037 19.746325 26 40 31
-2.811171 2.494419 19.796978 38 22 25
-2.776048 2.498443 19.828911 31 27 18
-2.743503 2.504937 19.880455 34 28 20
-2.709334 2.510118 19.921574 37 28 27
-2.675257 2.515541 19.964607 36 23 41
-2.642866 2.522736 20.021713 15 44 41
-2.607872 2.527629 20.060551 21 27 23
-2.575164 2.534927 20.118469 38 41 16
-2.540241 2.540241 20.160646 18 32 27
-2.505383 2.545792 20.204700 28 41 17
-2.472789 2.553864 20.268761 16 36 16
-2.437848 2.559740 20.315399 21 42 33
-2.404614 2.567639 20.378084 22 25 40
-6.459780 2.335740 18.247967 22 24 42
-6.413851 2.332310 18.221169 22 27 38
-6.369476 2.329408 18.198502 38 23 35
-6.324624 2.326299 18.174208 22 33 18
-6.283128 2.324394 18.159328 20 25 34
-6.244751 2.323628 18.153345 44 42 30
-6.207816 2.323393 18.151508 24 31 32
-6.173482 2.324135 18.157301 29 29 25
-6.141267 2.325687 18.169430 44 18 18
-6.109497 2.327427 18.183025 19 29 43
-6.077280 2.329017 18.195448 23 22 17
-6.043056 2.329853 18.201975 44 33 40
-6.006141 2.329655 18.200426 34 32 44
-5.970937 2.330122 18.204077 17 20 22
-5.936775 2.331004 18.210966 43 44 28
-5.903265 2.332154 18.219954 26 35 39
-5.870149 2.333475 18.230276 36 33 25
-5.835914 2.334365 18.237230 32 19 16
-5.802781 2.335711 18.247740 43 42 44
-5.768901 2.336770 18.256016 26 26 41
-5.734839 2.337769 18.263819 32 34 43
-5.701339 2.339011 18.273521 41 44 19
-5.666635 2.339772 18.279467 27 23 39
-5.632211 2.340659 18.286400 29 30 32
-5.596608 2.341065 18.289568 31 44 40
-5.561041 2.341491 18.292898 39 35 35
-5.526743 2.342460 18.300472 27 42 22
-5.492168 2.343325 18.307228 34 27 29
-5.458516 2.344598 18.317169 17 23 37
-5.423978 2.345504 18.324249 32 19 21
-5.389551 2.346471 18.331806 19 38 27
-5.355933 2.347806 18.342236 34 40 18
-5.321369 2.348742 18.349548 17 32 16
-5.288329 2.350368 18.362253 28 20 34
-5.254732 2.351768 18.373190 31 28 34
-5.221228 2.353229 18.384605 35 25 32
-5.188283 2.354965 18.398167 28 26 16
-5.153821 2.356032 18.406504 32 19 43
-5.120940 2.357843 18.420649 38 30 42
-5.087490 2.359416 18.432934 28 34 28
-5.053938 2.360964 18.445030 15 38 19
-5.020968 2.362808 18.459440 41 35 20
-4.986396 2.363921 18.468134 37 42 36
-4.952226 2.365242 18.478456 18 40 22
-4.917186 2.366165 18.485662 26 21 38
-4.881226 2.366655 18.489492 31 18 30
-4.845011 2.367028 18.492407 15 40 39
-4.807866 2.366949 18.491793 19 42 27
-4.769847 2.366436 18.487780 30 35 40
-4.731513 2.365756 18.482471 30 35 40
-4.692858 2.364905 18.475821 30 35 40
-4.654143 2.364009 18.468822 30 35 40
-4.616105 2.363446 18.464420 30 35 40
-4.578190 2.362937 18.460443 30 35 40
-4.540997 2.362795 18.459337 30 35 40
-4.504035 2.362773 18.459162 30 35 40
-4.466763 2.362585 18.457699 30 35 40
-4.429560 2.362432 18.456501 30 35 40
-4.391815 2.361984 18.453003 30 35 40
-4.353963 2.361471 18.448996 30 35 40
-4.316017 2.360898 18.444519 30 35 40
-4.277970 2.360259 18.439526 19 31 15
-4.240369 2.359857 18.436386 30 35 40
-4.203059 2.359612 18.434467 30 35 40
-4.165995 2.359502 18.433607 30 35 40
-4.129674 2.359814 18.436045 30 35 40
-4.093816 2.360398 18.440613 30 35 40
-4.058023 2.361031 18.445559 30 35 40
-4.024736 2.363147 18.462090 30 35 40
-3.991524 2.365347 18.479277 30 35 40
-3.959650 2.368389 18.503036 30 35 40
-3.929350 2.372438 18.534668 30 35 40
-3.897309 2.375502 18.558613 30 35 40
-3.868247 2.380460 18.597342 16 30 17
-3.837194 2.384276 18.627157 24 17 40
-3.806758 2.388554 18.660578 28 36 40
-3.779285 2.394795 18.709333 29 15 31
-3.749197 2.399486 18.745983 19 19 26
-3.720581 2.405224 18.790812 30 18 18
-3.688214 2.408630 18.817419 18 31 33
-3.654988 2.411538 18.840143 18 32 36
-3.623934 2.415956 18.874659 41 39 22
-3.590663 2.418973 18.898224 35 17 32
-3.559660 2.423598 18.934361 44 43 34
-3.526854 2.427082 18.961580 24 42 39
-3.494176 2.430731 18.990086 30 44 26
-3.463184 2.435646 19.028486 42 28 22
-3.429863 2.439014 19.054794 19 42 38
-3.399855 2.444840 19.100311 40 43 18
-3.368618 2.449904 19.139877 29 24 36
-3.337425 2.455117 19.180601 15 23 43
-3.307517 2.461408 19.229752 30 24 17
-3.274279 2.465339 19.260464 20 43 29
-3.242849 2.470742 19.302671 38 34 26
-3.209148 2.474524 19.332218 16 19 39
-3.174913 2.477981 19.359224 43 32 42
-3.142255 2.482769 19.396633 34 19 23
-3.107412 2.485929 19.421324 35 34 40
-3.073854 2.490211 19.454771 43 41 24
-3.038330 2.492989 19.476477 43 34 22
-3.002724 2.495771 19.498207 22 38 24
-2.968652 2.499917 19.530605 32 20 29
-2.933078 2.502894 19.553856 21 39 42
-2.900412 2.508465 19.597380 41 27 44
-2.866963 2.513501 19.636730 39 31 43
-2.833804 2.518937 19.679197 16 19 38
-2.801610 2.525395 19.729649 31 36 19
-2.766592 2.529456 19.761372 23 23 16
-2.734098 2.535975 19.812305 17 26 16
-2.699953 2.541132 19.852596 21 43 41
-2.665919 2.546549 19.894917 21 44 33
-2.633606 2.553799 19.951557 23 26 31
-2.598752 2.558771 19.990400 15 15 26
-2.566285 2.566285 20.049099 28 41 32
-2.531707 2.571892 20.092909 18 44 38
-2.497138 2.577691 20.138212 37 16 37
-2.464631 2.585842 20.201893 23 27 17
-2.429641 2.591617 20.247007 25 27 22
-2.396400 2.599485 20.308475 18 43 30
-6.402282 2.364479 18.188301 19 18 43
-6.359010 2.361918 18.168600 34 28 40
-6.314938 2.359029 18.146374 17 31 24
-6.273502 2.357096 18.131510 17 21 30
-6.234833 2.356187 18.124516 23 42 29
-6.197713 2.355856 18.121967 27 23 31
-6.163233 2.356530 18.127157 20 18 44
-6.130689 2.357957 18.138132 30 41 40
-6.098562 2.359563 18.150482 21 41 38
-6.066062 2.361042 18.161863 21 23 29
-6.031707 2.361813 18.167791 22 33 16
-5.994896 2.361626 18.166351 17 16 44
-5.959758 2.362099 18.169994 25 26 26
-5.925620 2.362977 18.176748 33 23 19
-5.892128 2.364125 18.185579 16 21 39
-5.859040 2.365451 18.195778 44 22 33
-5.824853 2.366346 18.202665 42 43 23
-5.791669 2.367664 18.212797 26 39 27
-5.757709 2.368678 18.220598 15 21 16
-5.723522 2.369611 18.227777 15 21 23
-5.689857 2.370774 18.236721 16 22 28
-5.655062 2.371478 18.242136 28 34 22
-5.620497 2.372288 18.248367 21 32 33
-5.584796 2.372626 18.250967 15 44 30
-5.549182 2.373006 18.253889 44 41 38
-5.514832 2.373934 18.261032 22 37 18
-5.480289 2.374792 18.267630 35 33 41
-5.446766 2.376106 18.277737 21 34 32
-5.412415 2.377074 18.285187 40 16 26
-5.378243 2.378135 18.293344 28 17 43
-5.344919 2.379587 18.304516 40 36 43
-5.310593 2.380611 18.312391 23 24 18
-5.277845 2.382360 18.325850 23 37 32
-5.244473 2.383851 18.337318 37 38 31
-5.211173 2.385396 18.349201 19 19 33
-5.178467 2.387236 18.363358 27 29 20
-5.144175 2.388367 18.372053 38 41 19
-5.111465 2.390253 18.386564 30 33 31
-5.078115 2.391866 18.398966 20 43 20
-5.044645 2.393445 18.411114 37 22 15
-5.011794 2.395343 18.425713 16 18 42
-4.977335 2.396495 18.434574 33 24 37
-4.943324 2.397881 18.445240 24 32 40
-4.908450 2.398867 18.452820 31 30 25
-4.872652 2.399412 18.457016 24 23 32
-4.836593 2.399836 18.460278 32 34 18
-4.799550 2.399775 18.459808 43 32 15
-4.761630 2.399271 18.455929 20 38 22
-4.723369 2.398586 18.450661 30 35 40
-4.684778 2.397721 18.444010 30 35 40
-4.646133 2.396815 18.437037 30 35 40
-4.608166 2.396246 18.432663 30 35 40
-4.570346 2.395746 18.428816 30 35 40
-4.533253 2.395621 18.427856 30 35 40
-4.496411 2.395629 18.427914 30 35 40
-4.459281 2.395481 18.426781 30 35 40
-4.422207 2.395362 18.425861 30 35 40
-4.384645 2.394974 18.422876 30 35 40
-4.346962 2.394513 18.419329 30 35 40
-4.309192 2.393996 18.415352 40 19 19
-4.271336 2.393421 18.410933 32 33 41
-4.233881 2.393063 18.408178 29 39 27
-4.196711 2.392862 18.406628 30 35 40
-4.159740 2.392771 18.405930 30 35 40
-4.123476 2.393089 18.408377 30 35 40
-4.087681 2.393687 18.412975 30 35 40
-4.051934 2.394325 18.417883 30 35 40
-4.018664 2.396451 18.434240 30 35 40
-3.985474 2.398665 18.451269 30 35 40
-3.953593 2.401716 18.474735 30 35 40
-3.923256 2.405770 18.505922 30 35 40
-3.891188 2.408831 18.529467 38 15 43
-3.862071 2.413794 18.567648 19 19 24
-3.830989 2.417614 18.597034 35 38 22
-3.800544 2.421915 18.630116 35 39 32
-3.773082 2.428221 18.678623 19 32 17
-3.743052 2.432984 18.715260 39 35 26
-3.714435 2.438770 18.759771 40 41 21
-3.682040 2.442169 18.785917 42 41 24
-3.648762 2.445047 18.808050 42 31 34
-3.617648 2.449449 18.841917 22 16 38
-3.584362 2.452458 18.865061 42 22 39
-3.553262 2.457043 18.900328 32 24 35
-3.520356 2.460464 18.926645 15 42 36
-3.487583 2.464053 18.954256 15 23 23
-3.456511 2.468937 18.991821 40 18 25
-3.423194 2.472307 19.017744 44 15 44
-3.393132 2.478130 19.062540 29 41 39
-3.361842 2.483179 19.101374 22 29 26
-3.330602 2.488381 19.141390 35 37 26
-3.300633 2.494664 19.189726 29 21 32
-3.267393 2.498595 19.219961 33 41 37
-3.235985 2.504036 19.261818 41 19 15
-3.202364 2.507876 19.291351 25 19 20
-3.168238 2.511409 19.318527 41 44 17
-3.135667 2.516276 19.355967 25 40 40
-3.100904 2.519484 19.380648 20 16 25
-3.067461 2.523861 19.414312 22 19 33
-3.032077 2.526731 19.436394 40 18 34
-2.996609 2.529605 19.458502 25 37 22
-2.962658 2.533852 19.491171 21 41 30
-2.927173 2.536883 19.514488 39 29 43
-2.894562 2.542521 19.557854 40 15 42
-2.861151 2.547600 19.596926 16 20 30
-2.828007 2.553062 19.638939 43 31 41
-2.795819 2.559553 19.688868 19 19 30
-2.760830 2.563627 19.720211 23 22 30
-2.728305 2.570142 19.770327 24 36 37
-2.694116 2.575258 19.809677 41 15 22
-2.660060 2.580655 19.851192 32 31 40
-2.627756 2.587942 19.907246 44 28 35
-2.592981 2.592981 19.946011 43 22 43
-2.560677 2.600688 20.005289 18 28 15
-2.526381 2.606584 20.050646 44 22 43
-2.492014 2.612595 20.096888 35 23 26
-2.459419 2.620692 20.159172 43 20 23
-2.424192 2.626208 20.201601 33 36 17
-6.384539 2.394202 18.137894 44 24 27
-6.342828 2.392152 18.122366 32 15 15
-6.299823 2.389588 18.102940 28 40 15
-6.258388 2.387593 18.087828 42 40 37
-6.219263 2.386461 18.079252 22 44 34
-6.181931 2.386008 18.075821 18 38 43
-6.147366 2.386624 18.080488 29 16 21
-6.114428 2.387883 18.090023 36 24 44
-6.081770 2.389267 18.100506 16 19 23
-6.048823 2.390553 18.110249 33 17 35
-6.014289 2.391223 18.115328 24 41 42
-5.977660 2.391064 18.114120 27 35 20
-5.942670 2.391562 18.117895 32 44 38
-5.908621 2.392448 18.124605 37 34 29
-5.875209 2.393604 18.133360 24 38 28
-5.842171 2.394927 18.143387 19 30 38
-5.808046 2.395819 18.150143 25 33 38
-5.774832 2.397100 18.159849 34 32 26
-5.740833 2.398070 18.167194 35 25 40
-5.706586 2.398947 18.173840 35 40 33
-5.672843 2.400049 18.182190 21 43 38
-5.638046 2.400716 18.187244 43 20 39
-5.603441 2.401475 18.192989 41 18 23
-5.567731 2.401766 18.195198 34 27 40
-5.532162 2.402123 18.197901 34 40 34
-5.497879 2.403047 18.204899 34 42 36
-5.463459 2.403922 18.211529 20 25 16
-5.430200 2.405323 18.222147 33 34 29
-5.396167 2.406399 18.230295 23 39 30
-5.362383 2.407601 18.239399 44 41 15
-5.329490 2.409221 18.251677 29 29 44
-5.295498 2.410365 18.260338 44 27 20
-5.263170 2.412286 18.274895 21 42 25
-5.230131 2.413907 18.287172 39 21 15
-5.197140 2.415572 18.299788 19 25 42
-5.164813 2.417572 18.314941 33 27 21
-5.130805 2.418808 18.324303 44 29 28
-5.098367 2.420808 18.339451 30 37 40
-5.065185 2.422480 18.352121 35 37 21
-5.031842 2.424099 18.364388 40 21 35
-4.999167 2.426066 18.379290 38 18 15
-4.964854 2.427262 18.388348 30 35 17
-4.931044 2.428723 18.399418 30 41 16
-4.896379 2.429782 18.407440 37 44 23
-4.860769 2.430385 18.412004 26 15 23
-4.824862 2.430847 18.415504 40 25 22
-4.787901 2.430780 18.415003 33 26 34
-4.750024 2.430245 18.410944 28 36 36
-4.711788 2.429515 18.405420 30 35 40
-4.673210 2.428597 18.398464 30 35 40
-4.634581 2.427638 18.391195 30 35 40
-4.596663 2.427038 18.386654 30 35 40
-4.558915 2.426519 18.382721 30 35 40
-4.521915 2.426394 18.381769 30 35 40
-4.485204 2.426422 18.381983 30 35 40
-4.448230 2.426307 18.381117 30 35 40
-4.411309 2.426220 18.380453 30 35 40
-4.373967 2.425898 18.378012 30 35 40
-4.336508 2.425505 18.375034 30 35 40
-4.298966 2.425058 18.371649 25 15 29
-4.261356 2.424565 18.367914 36 28 22
-4.224083 2.424256 18.365578 35 33 17
-4.187066 2.424091 18.364325 30 42 36
-4.150186 2.424003 18.363657 30 35 40
-4.113970 2.424304 18.365938 30 35 40
-4.078226 2.424891 18.370386 30 35 40
-4.042527 2.425516 18.375122 30 35 40
-4.009268 2.427630 18.391136 30 35 40
-3.976092 2.429834 18.407835 30 35 40
-3.944216 2.432881 18.430916 30 35 40
-3.913853 2.436927 18.461569 120 120 120
-3.881788 2.439981 18.484707 30 28 17
-3.852664 2.444960 18.522425 23 17 16
-3.821609 2.448798 18.551498 38 40 18
-3.791212 2.453137 18.584372 29 23 19
-3.763803 2.459515 18.632687 24 26 22
-3.733858 2.464346 18.669289 24 44 39
-3.705312 2.470208 18.713697 25 28 20
-3.673010 2.473660 18.739847 44 26 28
-3.639794 2.476561 18.761824 30 36 41
-3.608672 2.480962 18.795168 27 30 33
-3.575370 2.483941 18.817738 22 25 37
-3.544154 2.488449 18.851883 27 25 39
-3.511136 2.491774 18.877073 41 27 41
-3.478256 2.495271 18.903564 22 31 41
-3.447092 2.500089 18.940067 16 18 21
-3.413795 2.503450 18.965527 29 20 37
-3.383682 2.509248 19.009451 25 33 29
-3.352347 2.514261 19.047428 22 40 15
-3.321071 2.519433 19.086613 42 42 41
-3.291040 2.525682 19.133951 18 19 24
-3.257807 2.529591 19.163570 23 24 43
-3.226447 2.535065 19.205040 43 32 26
-3.192948 2.538971 19.234629 43 34 34
-3.158990 2.542602 19.262133 30 28 17
-3.126566 2.547572 19.299788 43 22 35
-3.091935 2.550846 19.324594 15 32 30
-3.058689 2.555360 19.358791 21 32 18
-3.023526 2.558368 19.381575 30 38 23
-2.988284 2.561386 19.404440 31 40 16
-2.954557 2.565799 19.437872 20 30 44
-2.919240 2.568932 19.461603 30 31 39
-2.886757 2.574675 19.505116 18 21 32
-2.853430 2.579813 19.544039 26 21 21
-2.820324 2.585297 19.585583 29 19 43
-2.788153 2.591804 19.634880 41 40 35
-2.753196 2.595871 19.665686 16 39 31
-2.720609 2.602322 19.714561 41 20 41
-2.686333 2.607323 19.752449 22 32 30
-2.652211 2.612626 19.792622 26 33 23
-2.619891 2.619891 19.847656 44 15 30
-2.585203 2.624975 19.886177 25 24 41
-2.553060 2.632843 19.945782 42 15 42
-2.519070 2.639025 19.992617 43 43 17
-2.484892 2.645208 20.039455 38 22 42
-2.452092 2.653083 20.099113 20 18 16
-2.416501 2.658151 20.137510 38 21 40
-6.370739 2.425224 18.098690 35 44 44
-6.330227 2.423573 18.086363 36 22 20
-6.287938 2.421218 18.068789 19 32 15
-6.246319 2.419095 18.052944 20 38 30
-6.206683 2.417719 18.042683 25 36 40
-6.169184 2.417166 18.038549 37 30 44
-6.134672 2.417783 18.043154 32 16 16
-6.101561 2.418962 18.051954 38 26 41
-6.068576 2.420206 18.061237 21 36 32
-6.035344 2.421366 18.069893 27 24 39
-6.000706 2.421972 18.074417 44 31 43
-5.964211 2.421831 18.073368 36 39 28
-5.929353 2.422358 18.077295 33 20 32
-5.895412 2.423267 18.084085 34 28 21
-5.862102 2.424450 18.092907 29 30 17
-5.829142 2.425792 18.102924 30 30 28
-5.795070 2.426685 18.109592 37 39 24
-5.761895 2.427968 18.119165 40 19 44
-5.727935 2.428935 18.126377 34 18 17
-5.693727 2.429807 18.132889 22 28 44
-5.660045 2.430917 18.141169 42 18 27
-5.625332 2.431595 18.146233 41 29 26
-5.590818 2.432369 18.152008 39 15 18
-5.555183 2.432662 18.154192 19 25 18
-5.519712 2.433031 18.156946 30 42 20
-5.485550 2.433986 18.164072 24 26 37
-5.451254 2.434893 18.170847 38 34 35
-5.418240 2.436390 18.182013 27 37 17
-5.384464 2.437562 18.190758 20 41 26
-5.350980 2.438882 18.200613 20 26 22
-5.318416 2.440643 18.213755 39 42 37
-5.284658 2.441877 18.222960 28 20 39
-5.252643 2.443938 18.238342 32 18 30
-5.219852 2.445665 18.251232 30 31 28
-5.187103 2.447436 18.264446 15 24 16
-5.155087 2.449580 18.280451 37 37 32
-5.121311 2.450913 18.290398 32 42 37
-5.089115 2.453026 18.306168 29 26 16
-5.056079 2.454763 18.319126 18 42 32
-5.022846 2.456428 18.331554 41 22 36
-4.990320 2.458466 18.346764 22 32 38
-4.956127 2.459707 18.356026 28 25 31
-4.922465 2.461233 18.367407 32 25 42
-4.887951 2.462351 18.375757 43 24 27
-4.852463 2.462993 18.380543 41 21 17
-4.816634 2.463469 18.384098 20 15 28
-4.779708 2.463388 18.383492 22 40 19
-4.741810 2.462801 18.379110 19 19 37
-4.703545 2.462012 18.373222 30 35 40
-4.664929 2.461026 18.365864 30 35 40
-4.626255 2.459993 18.358156 30 35 40
-4.588340 2.459350 18.353361 30 35 40
-4.550603 2.458793 18.349205 30 35 40
-4.513641 2.458650 18.348135 30 35 40
-4.477007 2.458684 18.348389 30 35 40
-4.440116 2.458576 18.347586 30 35 40
-4.403291 2.458504 18.347048 30 35 40
-4.366098 2.458224 18.344952 30 35 40
-4.328796 2.457876 18.342358 30 35 40
-4.291419 2.457479 18.339397 32 32 20
-4.253976 2.457038 18.336103 42 35 36
-4.216825 2.456759 18.334023 20 23 39
-4.179906 2.456611 18.332920 35 25 42
-4.143083 2.456518 18.332226 29 26 16
-4.106895 2.456803 18.334352 23 21 40
-4.071177 2.457377 18.338634 37 42 39
-4.035511 2.457993 18.343233 30 35 40
-4.002264 2.460107 18.359011 40 36 25
-3.969107 2.462316 18.375494 120 120 120
-3.937249 2.465380 18.398361 120 120 120
-3.906904 2.469458 18.428793 120 120 120
-3.874883 2.472544 18.451824 30 30 42
-3.845816 2.477593 18.489498 41 43 33
-3.814835 2.481495 18.518616 15 34 21
-3.784529 2.485916 18.551613 21 19 37
-3.757193 2.492395 18.599966 31 17 23
-3.727313 2.497300 18.636566 27 29 18
-3.698873 2.503277 18.681175 26 18 33
-3.666718 2.506838 18.707747 24 36 36
-3.633620 2.509820 18.730001 32 35 36
-3.602544 2.514276 18.763252 29 42 38
-3.569235 2.517250 18.785446 40 20 31
-3.537942 2.521725 18.818842 18 24 42
-3.504851 2.525000 18.843283 26 26 42
-3.471897 2.528446 18.869003 27 34 39
-3.440676 2.533245 18.904812 26 38 37
-3.407397 2.536617 18.929981 25 41 40
-3.377253 2.542426 18.973331 30 36 16
-3.345898 2.547445 19.010786 38 29 38
-3.314600 2.552623 19.049425 17 21 38
-3.284524 2.558874 19.096071 36 20 28
-3.251288 2.562780 19.125221 35 21 44
-3.219954 2.568297 19.166395 34 29 30
-3.186537 2.572265 19.196005 25 43 29
-3.152692 2.575980 19.223732 34 15 41
-3.120361 2.581040 19.261490 27 21 42
-3.085815 2.584370 19.286341 17 27 42
-3.052704 2.589002 19.320913 23 35 23
-3.017695 2.592122 19.344196 39 38 44
-2.982617 2.595264 19.367643 30 29 22
-2.949056 2.599825 19.401682 41 41 32
-2.913864 2.603052 19.425758 42 20 37
-2.881476 2.608904 19.469431 32 38 22
-2.848214 2.614114 19.508314 25 24 39
-2.815125 2.619630 19.549477 30 43 42
-2.782957 2.626171 19.598288 35 42 42
-2.748003 2.630232 19.628593 23 19 30
-2.715342 2.636636 19.676388 23 23 25
-2.680976 2.641550 19.713060 18 43 34
-2.646783 2.646783 19.752111 21 37 34
-2.614423 2.654035 19.806234 40 32 35
-2.579784 2.659162 19.844496 39 42 21
-2.547767 2.667194 19.904430 27 42 20
-2.514047 2.673669 19.952757 34 21 27
-2.480037 2.680040 20.000299 32 18 21
-2.447039 2.687731 20.057697 40 31 33
-2.411093 2.692387 20.092438 21 16 24
-6.357133 2.456165 18.060036 38 31 15
-6.317668 2.454865 18.050480 39 37 31
-6.276088 2.452724 18.034735 43 37 38
-6.234448 2.450534 18.018635 32 24 22
-6.194501 2.448989 18.007269 20 17 24
-6.156941 2.448374 18.002752 43 15 15
-6.122486 2.448994 18.007311 26 21 17
-6.089141 2.450068 18.015209 25 37 38
-6.055709 2.451120 18.022943 32 30 24
-6.022076 2.452103 18.030167 37 31 42
-5.987320 2.452637 18.034098 41 23 35
-5.951018 2.452541 18.033388 18 25 29
-5.916340 2.453117 18.037622 20 24 37
-5.882519 2.454057 18.044537 32 17 34
-5.849291 2.455258 18.053368 28 16 43
-5.816373 2.456605 18.063269 27 27 33
-5.782310 2.457482 18.069719 15 15 36
-5.749152 2.458757 18.079096 41 21 25
-5.715232 2.459720 18.086178 25 22 19
-5.681111 2.460609 18.092710 33 18 37
-5.647540 2.461748 18.101089 36 24 30
-5.612960 2.462460 18.106323 39 21 16
-5.578617 2.463286 18.112394 15 25 27
-5.543131 2.463614 18.114807 40 17 43
-5.507833 2.464030 18.117870 21 31 41
-5.473888 2.465062 18.125456 34 16 35
-5.439776 2.466032 18.132587 24 43 24
-5.407054 2.467649 18.144478 28 28 24
-5.373563 2.468934 18.153929 27 18 28
-5.340376 2.470378 18.164543 22 27 19
-5.308136 2.472282 18.178547 20 33 29
-5.274603 2.473607 18.188286 39 27 35
-5.242882 2.475806 18.204453 24 19 24
-5.210331 2.477640 18.217941 32 42 40
-5.177812 2.479516 18.231733 20 16 38
-5.146105 2.481809 18.248598 24 38 38
-5.112564 2.483245 18.259157 26 31 24
-5.080601 2.485474 18.275543 24 35 43
-5.047701 2.487273 18.288773 19 26 26
-5.014560 2.488979 18.301315 23 35 19
-4.982146 2.491073 18.316711 28 26 39
-4.948037 2.492344 18.326061 40 34 22
-4.914466 2.493908 18.337559 23 15 31
-4.880057 2.495067 18.346079 20 18 38
-4.844632 2.495719 18.350878 15 27 40
-4.808808 2.496175 18.354229 16 24 41
-4.771859 2.496049 18.353304 28 43 31
-4.733867 2.495372 18.348320 27 19 33
-4.695518 2.494494 18.341866 20 34 41
-4.656812 2.493411 18.333904 30 35 40
-4.618041 2.492276 18.325560 30 35 40
-4.580093 2.491571 18.320372 30 35 40
-4.542317 2.490948 18.315796 30 35 40
-4.505365 2.490771 18.314491 30 35 40
-4.468768 2.490789 18.314625 30 35 40
-4.431916 2.490664 18.313704 30 35 40
-4.395157 2.490589 18.313154 30 35 40
-4.358062 2.490321 18.311184 30 35 40
-4.320881 2.489999 18.308819 38 31 42
-4.283630 2.489631 18.306110 28 15 30
-4.246303 2.489212 18.303032 35 24 26
-4.209239 2.488942 18.301041 35 42 32
-4.172360 2.488776 18.299826 27 21 33
-4.135547 2.488648 18.298880 37 30 23
-4.099342 2.488886 18.300634 18 39 17
-4.063602 2.489414 18.304512 29 21 22
-4.027941 2.490000 18.308825 24 27 27
-3.994671 2.492088 18.324179 15 24 33
-3.961508 2.494283 18.340315 120 120 120
-3.929659 2.497354 18.362894 120 120 120
-3.899326 2.501455 18.393049 120 120 120
-3.867355 2.504573 18.415977 33 36 38
-3.838357 2.509695 18.453638 33 40 40
-3.807470 2.513670 18.482864 42 18 32
-3.777269 2.518179 18.516024 36 28 18
-3.750015 2.524762 18.564428 20 16 37
-3.720196 2.529733 18.600981 39 17 22
-3.691905 2.535854 18.645987 38 24 34
-3.659979 2.539577 18.673363 35 28 33
-3.627089 2.542701 18.696333 26 32 16
-3.596110 2.547244 18.729738 44 23 21
-3.562799 2.550214 18.751574 26 18 32
-3.531456 2.554670 18.784342 39 31 40
-3.498330 2.557919 18.808228 21 15 35
-3.465340 2.561338 18.833368 33 28 23
-3.434097 2.566138 18.868664 15 18 23
-3.400851 2.569532 18.893616 26 43 38
-3.370712 2.575376 18.936586 38 25 42
-3.339371 2.580423 18.973700 19 30 29
-3.308091 2.585634 19.012014 40 41 27
-3.278016 2.591920 19.058233 29 27 27
-3.244807 2.595845 19.087097 26 43 17
-3.213539 2.601437 19.128210 19 15 23
-3.180232 2.605491 19.158022 19 26 41
-3.146530 2.609318 19.186159 39 36 34
-3.114346 2.614513 19.224360 22 16 15
-3.079928 2.617939 19.249552 41 38 28
-3.047012 2.622745 19.284889 38 43 18
-3.012197 2.626018 19.308952 40 36 22
-2.977323 2.629325 19.333269 20 39 20
-2.943993 2.634099 19.368376 29 30 28
-2.908976 2.637472 19.393175 28 42 39
-2.876745 2.643496 19.437469 30 31 28
-2.843589 2.648822 19.476635 40 22 25
-2.810551 2.654409 19.517715 27 19 22
-2.778414 2.661016 19.566296 44 44 42
-2.743478 2.665093 19.596273 15 35 41
-2.710752 2.671465 19.643127 19 26 40
-2.676300 2.676300 19.678675 26 21 36
-2.642020 2.681453 19.716568 27 29 33
-2.609612 2.688691 19.769789 43 38 42
-2.575007 2.693853 19.807743 22 31 21
-2.542979 2.701915 19.867023 19 41 44
-2.509293 2.708443 19.915024 34 19 24
-2.475244 2.714783 19.961643 41 30 35
-2.442000 2.722229 20.016390 27 35 35
-2.405792 2.726564 20.048264 36 40 24
-6.301279 2.484504 18.003654 23 44 24
-6.260756 2.482714 17.990679 35 34 26
-6.219546 2.480628 17.975567 18 29 31
-6.179673 2.479055 17.964165 21 22 34
-6.142251 2.478452 17.959797 39 37 30
-6.107816 2.479055 17.964165 32 23 29
-6.073976 2.479908 17.970345 31 24 16
-6.039696 2.480590 17.975286 30 15 35
-6.005284 2.481225 17.979893 42 29 43
-5.970255 2.481612 17.982697 38 36 34
-5.934243 2.481593 17.982555 21 19 25
-5.899805 2.482235 17.987209 27 42 16
-5.866107 2.483199 17.994194 27 29 33
-5.832946 2.484403 18.002920 30 19 30
-5.800001 2.485715 18.012426 38 38 15
-5.765898 2.486543 18.018431 39 43 36
-5.732673 2.487764 18.027275 24 34 16
-5.698747 2.488693 18.034010 26 36 24
-5.664669 2.489568 18.040346 37 27 25
-5.631164 2.490707 18.048603 24 19 16
-5.596698 2.491433 18.053864 32 27 19
-5.562523 2.492299 18.060141 33 39 40
-5.527203 2.492660 18.062754 17 24 17
-5.492123 2.493135 18.066193 32 31 41
-5.458469 2.494267 18.074402 34 40 35
-5.424624 2.495327 18.082079 43 38 43
-5.392305 2.497108 18.094984 35 43 27
-5.359178 2.498535 18.105330 19 36 33
-5.326381 2.500138 18.116943 27 25 35
-5.294582 2.502234 18.132132 38 28 34
-5.261363 2.503683 18.142632 39 20 25
-5.230048 2.506064 18.159887 31 15 19
-5.197812 2.508035 18.174168 21 24 42
-5.165596 2.510043 18.188719 16 17 24
-5.134266 2.512513 18.206615 32 31 42
-5.101008 2.514068 18.217886 18 39 17
-5.069308 2.516419 18.234921 30 17 22
-5.036563 2.518282 18.248417 26 31 29
-5.003506 2.520014 18.260971 39 28 27
-4.971184 2.522145 18.276411 29 17 22
-4.937134 2.523424 18.285683 44 33 40
-4.903627 2.525002 18.297117 38 18 25
-4.869311 2.526184 18.305681 26 40 20
-4.833942 2.526833 18.310387 15 18 17
-4.798099 2.527243 18.313356 40 41 35
-4.761116 2.527054 18.311983 34 29 15
-4.723000 2.526256 18.306202 26 22 34
-4.684555 2.525268 18.299042 20 15 32
-4.645751 2.524070 18.290359 28 16 43
-4.606870 2.522810 18.281229 30 35 40
-4.568903 2.522034 18.275612 30 35 40
-4.531101 2.521339 18.270569 30 35 40
-4.494166 2.521118 18.268969 30 35 40
-4.457630 2.521118 18.268974 30 35 40
-4.420830 2.520969 18.267891 30 35 40
-4.384151 2.520887 18.267296 30 35 40
-4.347171 2.520629 18.265425 35 21 43
-4.310130 2.520330 18.263264 16 28 29
-4.273023 2.519988 18.260782 15 27 27
-4.235824 2.519585 18.257862 26 15 23
-4.198862 2.519317 18.255920 35 26 32
-4.162001 2.519106 18.254389 22 15 44
-4.125171 2.518910 18.252968 44 28 21
-4.088909 2.519060 18.254057 20 35 30
-4.053089 2.519488 18.257158 35 39 19
-4.017407 2.520010 18.260942 22 29 20
-3.984052 2.522014 18.275467 37 21 24
-3.950836 2.524145 18.290909 120 120 120
-3.918950 2.527173 18.312849 120 120 120
-3.888558 2.531231 18.342253 120 120 120
-3.856598 2.534336 18.364752 35 17 27
-3.827609 2.539471 18.401964 34 16 39
-3.796781 2.543475 18.430975 24 15 43
-3.766664 2.548037 18.464037 16 22 30
-3.739448 2.554673 18.512121 19 35 29
-3.709678 2.559678 18.548389 15 44 33
-3.681544 2.565925 18.593657 37 21 28
-3.649903 2.569830 18.621956 38 28 34
-3.617276 2.573114 18.645754 19 35 21
-3.586414 2.577735 18.679241 28 35 31
-3.553103 2.580675 18.700542 24 17 43
-3.521710 2.585085 18.732502 39 27 25
-3.488566 2.588291 18.755730 20 44 28
-3.455561 2.591671 18.780224 18 41 34
-3.424311 2.596456 18.814898 21 38 18
-3.391121 2.599859 18.839560 26 21 26
-3.361011 2.605728 18.882084 34 36 25
-3.329706 2.610792 18.918783 15 43 40
-3.298478 2.616034 18.956768 20 16 40
-3.268439 2.622352 19.002552 29 35 29
-3.235298 2.626300 19.031162 35 30 27
-3.204160 2.631989 19.072382 18 19 35
-3.171024 2.636152 19.102552 33 30 18
-3.137550 2.640134 19.131405 23 40 32
-3.105622 2.645530 19.170506 22 33 33
-3.071428 2.649106 19.196423 28 15 29
-3.038842 2.654179 19.233179 23 30 38
-3.004336 2.657682 19.258562 21 40 22
-2.969790 2.661240 19.284351 20 17 37
-2.936842 2.666343 19.321329 40 19 21
-2.902115 2.669946 19.347431 15 22 15
-2.870180 2.676249 19.393108 33 27 42
-2.837226 2.681762 19.433056 19 30 21
-2.804316 2.687470 19.474419 16 30 26
-2.772304 2.694211 19.523268 18 20 29
-2.737438 2.698332 19.553131 40 43 16
-2.704683 2.704683 19.599152 18 21 35
-2.670161 2.709428 19.633539 40 24 29
-2.635790 2.714471 19.670078 40 38 43
-2.603349 2.721683 19.722342 22 42 29
-2.568810 2.726891 19.760077 19 15 23
-2.536612 2.734785 19.817284 30 35 19
-2.502641 2.740987 19.862226 42 40 42
-2.468279 2.746956 19.905479 36 15 34
-2.434760 2.754072 19.957047 38 39 40
-6.290478 2.516191 17.972795 34 17 43
-6.250729 2.514661 17.961864 33 41 41
-6.210112 2.512762 17.948301 31 15 42
-6.170617 2.511298 17.937840 39 23 22
-6.133458 2.510772 17.934088 35 15 26
-6.099018 2.511360 17.938288 34 19 39
-6.064730 2.512018 17.942987 32 32 42
-6.029689 2.512370 17.945503 24 36 23
-5.994568 2.512693 17.947807 33 28 40
-5.959285 2.512952 17.949654 33 32 34
-5.923513 2.513005 17.950039 31 36 39
-5.889250 2.513704 17.955030 32 43 33
-5.855620 2.514683 17.962025 19 21 23
-5.822473 2.515883 17.970596 17 37 40
-5.789461 2.517157 17.979692 21 27 22
-5.755273 2.517932 17.985228 31 28 22
-5.721949 2.519097 17.993551 39 18 34
-5.687988 2.519995 17.999962 28 32 23
-5.653919 2.520856 18.006113 28 20 27
-5.620433 2.521989 18.014208 37 18 27
-5.586033 2.522724 18.019461 34 43 16
-5.551974 2.523625 18.025890 35 19 19
-5.516776 2.524015 18.028679 17 32 26
-5.481873 2.524547 18.032478 39 15 26
-5.448455 2.525774 18.041241 26 18 16
-5.414823 2.526917 18.049410 16 44 42
-5.382809 2.528836 18.063116 31 20 28
-5.349938 2.530376 18.074114 24 30 35
-5.317399 2.532095 18.086390 33 27 31
-5.285902 2.534337 18.102404 40 39 33
-5.252899 2.535882 18.113443 16 25 27
-5.221856 2.538402 18.131443 22 27 30
-5.189832 2.540477 18.146265 27 36 41
-5.157811 2.542583 18.161306 38 15 43
-5.126721 2.545181 18.179861 25 37 23
-5.093638 2.546819 18.191563 25 16 22
-5.062091 2.549255 18.208961 17 30 34
-5.029432 2.551161 18.222578 38 42 35
-4.996406 2.552908 18.235060 19 31 44
-4.964100 2.555052 18.250368 37 20 42
-4.930054 2.556324 18.259460 29 28 28
-4.896532 2.557890 18.270641 31 34 26
-4.862236 2.559071 18.279081 18 18 37
-4.826867 2.559702 18.283588 17 15 44
-4.790965 2.560058 18.286127 19 22 15
-4.753931 2.559809 18.284351 23 22 21
-4.715705 2.558910 18.277925 31 15 31
-4.677177 2.557831 18.270224 32 40 21
-4.638299 2.556543 18.261021 37 15 27
-4.599332 2.555184 18.251316 44 19 25
-4.561349 2.554355 18.245396 23 33 32
-4.523517 2.553598 18.239988 40 42 30
-4.486587 2.553342 18.238159 30 35 40
-4.450073 2.553321 18.238005 19 20 44
-4.413289 2.553142 18.236731 42 21 21
-4.376651 2.553046 18.236044 35 17 31
-4.339717 2.552775 18.234106 44 39 42
-4.302746 2.552477 18.231976 18 16 23
-4.265706 2.552132 18.229513 40 35 24
-4.228555 2.551714 18.226528 26 40 16
-4.191638 2.551432 18.224514 30 33 24
-4.154749 2.551162 18.222584 23 30 21
-4.117874 2.550896 18.220682 25 43 19
-4.081533 2.550958 18.221128 16 18 30
-4.045613 2.551288 18.223484 17 38 21
-4.009889 2.551748 18.226768 27 40 25
-3.976429 2.553670 18.240501 42 28 17
-3.943149 2.555745 18.255320 120 120 120
-3.911203 2.558731 18.276651 120 120 120
-3.880728 2.562745 18.305321 120 120 120
-3.848750 2.565834 18.327383 40 31 33
-3.819728 2.570971 18.364079 31 19 24
-3.788917 2.574992 18.392801 34 37 28
-3.758832 2.579590 18.425646 28 16 37
-3.731611 2.586265 18.473320 38 27 21
-3.701854 2.591298 18.509270 23 28 30
-3.673824 2.597654 18.554668 30 32 38
-3.642397 2.601712 18.583656 30 35 15
-3.609980 2.605140 18.608145 40 43 20
-3.579211 2.609842 18.641726 29 30 40
-3.545905 2.612772 18.662657 36 35 36
-3.514502 2.617182 18.694159 42 23 18
-3.481375 2.620389 18.717068 19 33 26
-3.448395 2.623779 18.741276 28 25 23
-3.417167 2.628590 18.775644 21 31 34
-3.384028 2.632022 18.800158 18 29 42
-3.353962 2.637948 18.842484 16 34 35
-3.322708 2.643063 18.879025 44 30 43
-3.291543 2.648368 18.916912 16 18 21
-3.261567 2.654764 18.962599 25 18 31
-3.228499 2.658764 18.991173 20 25 31
-3.197489 2.664574 19.032671 33 20 44
-3.164491 2.668848 19.063198 18 17 20
-3.131199 2.672975 19.092678 44 35 22
-3.099495 2.678576 19.132683 30 35 23
-3.065496 2.682309 19.159348 37 31 35
-3.033197 2.687643 19.197449 23 40 17
-2.998938 2.691354 19.223959 31 17 19
-2.964657 2.695143 19.251020 20 41 43
-2.932035 2.700558 19.289703 26 25 37
-2.897552 2.704382 19.317011 44 19 44
-2.865886 2.710974 19.364098 32 29 41
-2.833120 2.716690 19.404928 25 17 28
-2.800343 2.722556 19.446829 42 25 21
-2.768467 2.729474 19.496246 16 28 33
-2.733679 2.733679 19.526279 32 27 24
-2.700940 2.740084 19.572027 38 42 36
-2.666394 2.744818 19.605841 31 16 30
-2.631965 2.749815 19.641533 19 38 38
-2.599515 2.757061 19.693295 43 44 29
-2.565025 2.762335 19.730965 29 17 27
-2.532575 2.770004 19.785744 38 17 29
-2.498139 2.775709 19.826496 31 20 23
-2.463349 2.781200 19.865715 30 37 23
-2.429652 2.788125 19.915182 35 20 18
-6.235697 2.544451 17.918671 18 25 26
-6.196034 2.542881 17.907612 39 41 39
-6.157232 2.541648 17.898930 43 30 28
-6.120212 2.541141 17.895357 24 44 31
-6.085395 2.541547 17.898220 27 29 18
-6.050395 2.541882 17.900578 24 31 17
-6.014612 2.541890 17.900631 34 15 30
-5.978916 2.541934 17.900946 23 38 16
-5.943474 2.542088 17.902029 16 16 32
-5.908029 2.542243 17.903118 39 43 43
-5.874019 2.543020 17.908594 28 22 23
-5.840495 2.544019 17.915628 18 30 33
-5.807371 2.545206 17.923985 33 25 42
-5.774313 2.546436 17.932650 42 37 36
-5.740067 2.547155 17.937710 31 17 44
-5.706707 2.548278 17.945620 30 18 19
-5.672794 2.549167 17.951880 31 41 17
-5.638837 2.550047 17.958078 35 27 33
-5.605464 2.551205 17.966232 43 23 42
-5.571192 2.551965 17.971586 44 19 40
-5.537348 2.552933 17.978401 17 35 43
-5.502361 2.553383 17.981571 25 17 36
-5.467720 2.554001 17.985922 22 32 24
-5.434618 2.555350 17.995422 43 31 34
-5.401254 2.556594 18.004181 29 21 42
-5.369568 2.558653 18.018684 21 17 36
-5.336962 2.560299 18.030275 38 41 15
-5.304668 2.562119 18.043089 24 40 41
-5.273455 2.564488 18.059776 41 44 34
-5.240657 2.566115 18.071230 28 41 24
-5.209866 2.568753 18.089811 23 19 18
-5.178046 2.570918 18.105057 29 32 29
-5.146218 2.573109 18.120485 37 30 17
-5.115372 2.575826 18.139618 25 21 26
-5.082489 2.577548 18.151745 18 21 21
-5.051081 2.580049 18.169357 21 32 22
-5.018480 2.581972 18.182899 24 35 24
-4.985444 2.583697 18.195051 23 34 35
-4.953094 2.585807 18.209906 31 39 42
-4.919013 2.587036 18.218565 18 43 44
-4.885409 2.588538 18.229137 29 30 31
-4.851102 2.589686 18.237225 16 23 39
-4.815697 2.590261 18.241278 34 20 25
-4.779675 2.590511 18.243034 40 32 24
-4.742548 2.590161 18.240570 25 40 18
-4.704156 2.589109 18.233162 34 43 32
-4.665508 2.587899 18.224640 29 16 39
-4.626540 2.586491 18.214725 19 40 23
-4.587468 2.585002 18.204237 19 17 15
-4.549478 2.584103 18.197910 35 41 42
-4.511623 2.583268 18.192030 24 19 24
-4.474719 2.582968 18.189917 23 16 15
-4.438256 2.582919 18.189573 29 38 41
-4.401503 2.582700 18.188030 30 19 32
-4.364929 2.582583 18.187204 35 31 44
-4.328062 2.582289 18.185135 17 34 24
-4.291188 2.581986 18.182999 29 42 29
-4.254235 2.581630 18.180490 16 28 25
-4.217146 2.581184 18.177355 32 35 34
-4.180292 2.580876 18.175180 29 37 36
-4.143367 2.580518 18.172663 19 17 23
-4.106438 2.580151 18.170078 21 37 44
-4.070014 2.580098 18.169704 36 26 44
-4.033989 2.580300 18.171124 25 19 27
-3.998235 2.580679 18.173794 29 29 42
-3.964688 2.582503 18.186642 19 27 34
-3.931367 2.584510 18.200773 120 120 120
-3.899399 2.587451 18.221489 120 120 120
-3.868873 2.591415 18.249403 120 120 120
-3.836916 2.594486 18.271027 18 15 21
-3.807879 2.599610 18.307110 24 40 41
-3.777095 2.603628 18.335411 30 44 20
-3.747043 2.608236 18.367857 29 35 24
-3.719791 2.614902 18.414804 28 19 39
-3.690030 2.619922 18.450151 36 21 21
-3.662144 2.626386 18.495678 42 41 39
-3.631053 2.630661 18.525780 44 21 37
-3.598956 2.634288 18.551321 20 19 21
-3.568296 2.639053 18.584877 35 42 41
-3.534950 2.641910 18.604998 43 38 26
-3.503487 2.646250 18.635567 38 20 17
-3.470380 2.649430 18.657957 30 25 44
-3.437435 2.652803 18.681713 35 32 19
-3.406216 2.657597 18.715471 41 32 25
-3.373125 2.661021 18.739586 34 34 15
-3.343107 2.666973 18.781498 16 18 27
-3.311931 2.672126 18.817787 31 41 21
-3.280876 2.677497 18.855610 36 18 17
-3.251013 2.683976 18.901239 37 27 17
-3.218083 2.688045 18.929897 44 42 36
-3.187290 2.694019 18.971966 22 23 38
-3.154521 2.698445 19.003136 43 44 34
-3.121520 2.702780 19.033661 32 16 21
-3.090178 2.708675 19.075174 32 24 38
-3.056494 2.712638 19.103085 19 39 41
-3.024629 2.718337 19.143221 22 26 24
-2.990735 2.722335 19.171375 41 17 23
-2.956829 2.726427 19.200190 19 38 17
-2.924666 2.732254 19.241226 39 41 30
-2.890529 2.736367 19.270191 23 33 21
-2.859232 2.743317 19.319136 40 35 21
-2.826726 2.749282 19.361137 37 34 42
-2.794128 2.755321 19.403669 38 36 17
-2.762441 2.762441 19.453808 22 34 23
-2.727765 2.766733 19.484034 32 31 23
-2.695062 2.773180 19.529438 29 43 25
-2.660516 2.777892 19.562618 40 16 41
-2.626033 2.782811 19.597258 18 26 18
