ply
format ascii 1.0
element vertex 1258
property float x
property float y
property float z
property uchar red
property uchar green
property uchar blue
end_header
-4.570909 1.741299 27.207792 38 15 44
-4.535438 1.748603 27.321917 44 39 21
-4.499876 1.756049 27.438269 19 23 33
-4.470958 1.766305 27.598509 38 38 23
-4.433455 1.773382 27.709091 25 40 41
-4.405056 1.784327 27.880104 23 28 26
-4.371092 1.793268 28.019819 19 33 17
-4.335311 1.801688 28.151371 40 27 17
-4.302065 1.811396 28.303057 30 42 21
-4.258150 1.816811 28.387669 44 29 17
-7.661577 1.570385 23.793716 15 25 23
-7.607664 1.569081 23.773949 34 34 29
-7.549893 1.566959 23.741802 30 18 40
-7.494816 1.565373 23.717772 27 26 37
-7.438494 1.563505 23.689470 25 31 34
-7.378598 1.560857 23.649351 41 16 18
-7.322065 1.558891 23.619566 21 43 25
-7.258270 1.555344 23.565811 28 36 32
-7.194761 1.551811 23.512291 38 24 32
-7.133520 1.548725 23.465525 39 37 15
-7.074346 1.546049 23.424988 35 18 39
-7.023403 1.545149 23.411345 24 43 21
-6.977763 1.545411 23.415314 19 22 21
-6.936282 1.546603 23.433386 15 41 33
-6.898944 1.548743 23.465796 33 32 22
-6.862141 1.551032 23.500483 42 32 27
-6.822351 1.552673 23.525347 22 42 42
-6.787607 1.555493 23.568079 26 22 22
-6.750467 1.557800 23.603033 40 18 44
-6.714364 1.560380 23.642126 43 23 28
-6.681700 1.563802 23.693972 21 40 24
-6.644440 1.566190 23.730145 36 28 29
-6.613420 1.570093 23.789282 37 31 27
-6.579674 1.573400 23.839397 19 17 35
-6.545397 1.576629 23.888311 15 38 23
-6.513265 1.580425 23.945827 19 26 28
-6.474544 1.582666 23.979792 22 19 20
-6.438163 1.585518 24.022997 15 40 17
-6.397527 1.587356 24.050854 21 34 28
-6.355500 1.588875 24.073864 30 26 30
-6.315850 1.591016 24.106297 26 19 36
-6.272925 1.592358 24.126635 18 16 24
-6.233134 1.594523 24.159435 42 18 26
-6.190839 1.596076 24.182966 30 37 35
-6.149785 1.597976 24.211750 28 27 35
-6.112791 1.600969 24.257109 23 42 21
-6.073318 1.603356 24.293270 38 18 16
-6.039598 1.607312 24.353218 32 16 37
-6.003572 1.610714 24.404764 30 34 44
-5.967147 1.614064 24.455523 21 35 32
-5.932256 1.617888 24.513454 18 38 38
-5.891225 1.620087 24.546772 42 22 28
-5.852459 1.622951 24.590162 19 30 22
-5.810196 1.624885 24.619476 34 41 18
-5.766594 1.626475 24.643564 35 20 42
-5.724647 1.628563 24.675201 26 40 28
-5.679544 1.629782 24.693670 29 32 41
-5.637294 1.631848 24.724976 25 26 25
-5.593100 1.633383 24.748228 15 39 15
-5.550099 1.635297 24.777225 27 44 41
-5.510145 1.638151 24.820475 19 26 16
-5.467852 1.640356 24.853874 29 41 37
-5.432982 1.644848 24.921934 29 35 33
-5.396925 1.649060 24.985762 120 120 120
-5.362412 1.653828 25.057999 120 120 120
-5.330787 1.659585 25.145224 120 120 120
-5.292484 1.663352 25.202303 40 27 20
-5.260778 1.669285 25.292200 34 35 38
-5.224173 1.673764 25.360065 28 16 32
-5.188654 1.678682 25.434580 42 18 20
-5.159647 1.685825 25.542807 39 42 38
-5.124571 1.691109 25.622856 32 41 23
-5.096386 1.698795 25.739325 35 38 39
-5.062146 1.704600 25.827274 19 17 21
-5.026551 1.710064 25.910055 17 15 24
-4.994636 1.716906 26.013727 36 42 44
-4.954661 1.721093 26.077166 33 38 35
-4.919704 1.727130 26.168636 29 42 23
-4.879924 1.731586 26.236151 20 38 15
-4.839179 1.735793 26.299887 44 27 33
-4.801584 1.741234 26.382332 22 37 33
-4.758129 1.744647 26.434050 28 40 19
-4.721396 1.750630 26.524698 30 30 22
-4.680895 1.755336 26.595995 28 42 34
-4.642785 1.761057 26.682674 26 27 33
-4.611810 1.769648 26.812849 37 41 20
-4.575464 1.776357 26.914494 27 32 34
-4.547557 1.786540 27.068790 30 22 18
-4.512815 1.794252 27.185631 36 31 28
-4.478212 1.802207 27.306173 42 27 19
-4.449734 1.812855 27.467497 33 42 26
-4.412325 1.820084 27.577030 33 15 33
-4.383916 1.831256 27.746302 27 41 44
-4.349970 1.840372 27.884424 31 31 41
-4.314219 1.848951 28.014412 34 35 40
-4.281087 1.858893 28.165045 17 40 36
-4.237426 1.864467 28.249506 38 36 19
-4.200323 1.873117 28.380564 44 24 34
-4.158564 1.879899 28.483316 16 43 31
-7.653870 1.606368 23.623056 19 31 25
-7.599312 1.604824 23.600348 36 36 30
-7.546666 1.603666 23.583330 42 28 18
-7.490576 1.601758 23.555269 33 15 39
-7.437138 1.600397 23.535248 28 21 36
-7.381944 1.598638 23.509377 26 37 33
-7.321874 1.595793 23.467546 18 28 15
-7.264273 1.593454 23.433140 30 32 29
-7.201784 1.590004 23.382416 32 26 16
-7.141065 1.586903 23.336813 34 22 25
-7.084332 1.584653 23.303722 33 37 40
-7.031326 1.583212 23.282536 44 33 20
-6.985565 1.583395 23.285215 37 23 44
-6.944957 1.584755 23.305225 25 30 39
-6.905512 1.586401 23.329433 37 42 38
-6.869278 1.588813 23.364891 33 27 27
-6.834915 1.591693 23.407244 38 34 44
-6.796942 1.593766 23.437733 23 44 43
-6.764732 1.597228 23.488651 40 34 25
-6.729616 1.600048 23.530125 38 31 32
-6.695253 1.603089 23.574835 23 32 40
-6.664607 1.607068 23.633360 42 39 18
-6.628521 1.609784 23.673288 20 34 25
-6.598043 1.613910 23.733969 17 33 18
-6.564078 1.617237 23.782890 23 38 16
-6.528890 1.620308 23.828064 42 27 37
-6.495622 1.623905 23.880962 30 19 41
-6.455945 1.625942 23.910908 39 30 18
-6.418245 1.628510 23.948675 43 16 42
-6.376737 1.630143 23.972694 26 16 21
-6.333967 1.631476 23.992298 34 25 39
-6.293393 1.633400 24.020582 34 30 36
-6.250019 1.634620 24.038534 30 17 41
-6.209485 1.636608 24.067770 34 17 15
-6.166672 1.638022 24.088564 32 42 33
-6.125131 1.639799 24.114689 39 18 27
-6.087460 1.642648 24.156586 29 43 15
-6.047622 1.644953 24.190489 29 26 21
-6.013298 1.648808 24.247169 24 38 41
-5.977035 1.652188 24.296888 36 24 42
-5.940194 1.655464 24.345058 34 29 26
-5.904177 1.659025 24.397425 44 28 44
-5.862125 1.660935 24.425522 30 24 28
-5.822394 1.663541 24.463842 15 38 16
-5.779939 1.665406 24.491266 28 28 38
-5.736391 1.666985 24.514490 15 22 28
-5.694167 1.668980 24.543821 44 31 42
-5.648937 1.670121 24.560596 42 31 40
-5.606393 1.672082 24.589443 27 27 41
-5.562049 1.673537 24.610838 40 33 24
-5.518939 1.675392 24.638123 32 20 22
-5.478755 1.678177 24.679075 27 34 43
-5.436410 1.680345 24.710953 32 30 24
-5.401540 1.684884 24.777706 41 17 36
-5.365590 1.689167 24.840693 120 120 120
-5.331441 1.694103 24.913277 120 120 120
-5.300447 1.700143 25.002108 120 120 120
-5.262891 1.704174 25.061386 22 39 23
-5.232049 1.710478 25.154083 25 37 43
-5.196079 1.715211 25.223684 35 36 40
-5.161162 1.720387 25.299814 32 41 23
-5.133003 1.727942 25.410906 21 31 40
-5.098663 1.733545 25.493315 43 36 17
-5.070717 1.741458 25.609682 30 22 28
-5.036119 1.747225 25.694485 33 37 32
-5.000027 1.752587 25.773336 20 36 31
-4.967952 1.759483 25.874748 31 26 41
-4.928200 1.763777 25.937897 38 21 40
-4.893669 1.770051 26.030155 37 44 35
-4.854564 1.774787 26.099806 27 28 25
-4.814417 1.779241 26.165308 43 18 21
-4.777085 1.784845 26.247719 28 25 44
-4.733640 1.788264 26.297998 25 19 27
-4.696434 1.794143 26.384460 34 38 29
-4.655472 1.798705 26.451544 30 19 18
-4.616651 1.804208 26.532476 22 31 18
-4.584601 1.812517 26.654655 17 24 21
-4.547507 1.819003 26.750040 36 39 24
-4.518732 1.829010 26.897213 41 20 42
-4.483635 1.836670 27.009848 32 24 37
-4.448958 1.844690 27.127792 39 38 44
-4.420325 1.855445 27.285957 43 34 40
-4.383089 1.862813 27.394306 32 33 25
-4.354693 1.874172 27.561350 39 18 21
-4.320654 1.883362 27.696501 36 16 39
-4.285032 1.892092 27.824881 27 44 40
-4.252471 1.902421 27.976784 43 28 33
-4.209693 1.908394 28.064621 32 41 23
-4.173303 1.917464 28.197994 33 44 33
-4.131882 1.924438 28.300560 19 29 39
-4.089822 1.931305 28.401543 25 41 40
-7.718213 1.647180 23.531137 18 28 18
-7.666559 1.646194 23.517054 31 28 28
-7.615088 1.645235 23.503359 40 26 16
-7.561554 1.643816 23.483088 27 15 22
-7.509991 1.642810 23.468721 31 24 23
-7.454977 1.641033 23.443323 18 22 19
-7.402225 1.639733 23.424763 32 28 17
-7.347384 1.637952 23.399313 40 29 23
-7.286843 1.634869 23.355267 40 16 31
-7.228337 1.632205 23.317215 15 15 32
-7.168026 1.629097 23.272812 23 28 28
-7.111607 1.626838 23.240545 19 44 44
-7.060307 1.625729 23.224693 23 22 32
-7.012818 1.625488 23.221252 24 26 44
-6.970518 1.626454 23.235062 26 40 21
-6.932505 1.628441 23.263441 22 33 15
-6.893085 1.630121 23.287449 23 17 36
-6.856173 1.632422 23.320316 43 31 31
-6.822754 1.635592 23.365597 25 43 23
-6.786110 1.638027 23.400379 42 38 32
-6.755649 1.641998 23.457115 33 22 41
-6.721812 1.645199 23.502838 35 18 43
-6.688543 1.648585 23.551208 26 27 34
-6.659237 1.653002 23.614315 18 34 36
-6.623955 1.655989 23.656981 18 27 17
-6.593264 1.660174 23.716778 18 40 27
-6.558300 1.663337 23.761957 36 33 44
-6.521337 1.666035 23.800499 19 42 16
-6.485829 1.669147 23.844959 37 29 39
-6.444398 1.670770 23.868139 35 21 25
-6.404988 1.672945 23.899210 31 39 31
-6.362757 1.674410 23.920139 19 23 15
-6.319834 1.675714 23.938765 39 22 20
-6.279037 1.677605 23.965790 43 21 31
-6.235813 1.678873 23.983896 33 38 35
-6.195305 1.680897 24.012810 18 34 30
-6.152457 1.682312 24.033035 25 31 44
-6.110828 1.684086 24.058376 22 21 34
-6.072982 1.686940 24.099136 27 32 22
-6.033034 1.689250 24.132137 24 15 27
-5.998527 1.693133 24.187609 39 32 30
-5.962248 1.696575 24.236780 23 41 24
-5.925293 1.699879 24.283989 34 32 41
-5.888820 1.703378 24.333967 16 44 16
-5.846328 1.705179 24.359701 23 27 29
-5.806076 1.707669 24.395277 37 33 22
-5.763407 1.709485 24.421217 43 21 21
-5.719715 1.711026 24.443226 35 15 28
-5.677166 1.712938 24.470545 27 33 25
-5.631750 1.714011 24.485868 23 26 40
-5.588927 1.715899 24.512838 33 23 19
-5.544461 1.717311 24.533014 19 40 27
-5.501266 1.719146 24.559223 31 20 32
-5.460891 1.721903 24.598610 16 37 42
-5.418479 1.724061 24.629448 27 37 18
-5.383501 1.728647 24.694960 30 35 40
-5.347446 1.732969 24.756697 120 120 120
-5.313410 1.738031 24.829018 120 120 120
-5.282894 1.744352 24.919312 120 120 120
-5.246013 1.748671 24.981012 25 41 30
-5.215787 1.755313 25.075899 24 39 23
-5.180167 1.760251 25.146442 26 28 39
-5.145389 1.765575 25.222496 30 44 40
-5.117333 1.773333 25.333330 28 25 34
-5.083018 1.779056 25.415091 29 26 17
-5.054513 1.786949 25.527843 41 27 15
-5.018949 1.792482 25.606884 21 18 38
-4.982041 1.797644 25.680626 28 33 19
-4.949758 1.804599 25.779987 24 31 41
-4.910467 1.809119 25.844563 40 21 43
-4.876799 1.815829 25.940420 19 31 40
-4.838667 1.821004 26.014338 30 27 21
-4.799469 1.825885 26.084072 43 33 20
-4.762868 1.831872 26.169605 43 30 31
-4.719716 1.835445 26.220646 42 43 42
-4.682516 1.841439 26.306271 37 20 36
-4.641475 1.846041 26.372017 25 39 18
-4.602207 1.851462 26.449463 17 32 21
-4.569315 1.859605 26.565783 43 22 25
-4.531455 1.865893 26.655617 35 26 30
-4.501417 1.875591 26.794151 22 24 34
-4.465240 1.882933 26.899036 22 32 39
-4.429726 1.890737 27.010523 27 31 23
-4.400510 1.901455 27.163639 43 20 27
-4.363385 1.908981 27.271154 26 33 29
-4.334922 1.920535 27.436216 39 32 41
-4.300621 1.929766 27.568081 18 36 24
-4.265038 1.938654 27.695051 38 43 29
-4.233143 1.949474 27.849625 24 28 23
-4.191391 1.955982 27.942604 38 34 24
-4.155853 1.965606 28.080090 34 25 42
-4.114761 1.972831 28.183294 17 33 18
-4.072811 1.979839 28.283407 34 38 39
-4.035363 1.989263 28.418047 29 17 19
-3.991001 1.995500 28.507147 39 26 28
-7.718259 1.683984 23.388662 35 21 32
-7.665925 1.682764 23.371723 24 26 25
-7.615181 1.681880 23.359451 37 38 30
-7.564353 1.680967 23.346769 40 29 29
-7.511725 1.679640 23.328339 21 31 18
-7.460814 1.678683 23.315042 38 36 41
-7.407238 1.677111 23.293201 33 35 34
-7.355774 1.675999 23.277767 36 36 18
-7.302888 1.674548 23.257605 15 29 37
-7.245080 1.671941 23.221409 33 21 36
-7.188835 1.669665 23.189791 27 28 23
-7.133584 1.667591 23.160986 34 16 25
-7.082689 1.666515 23.146044 29 32 34
-7.036962 1.666649 23.147902 39 21 24
-6.994844 1.667645 23.161734 38 19 16
-6.955257 1.669262 23.184189 28 26 32
-6.919459 1.671816 23.219660 42 23 43
-6.880480 1.673630 23.244865 29 27 41
-6.843232 1.675894 23.276300 36 31 44
-6.810363 1.679268 23.323160 42 42 33
-6.774312 1.681898 23.359697 32 16 25
-6.744527 1.686132 23.418497 15 24 29
-6.711237 1.689542 23.465864 24 38 39
-6.678247 1.693077 23.514956 35 28 37
-6.649014 1.697620 23.578062 16 24 20
-6.613559 1.700629 23.619852 15 37 39
-6.581964 1.704681 23.676128 24 44 19
-6.545926 1.707633 23.717125 35 34 35
-6.507593 1.710024 23.750338 30 35 40
-6.470401 1.712753 23.788239 20 44 17
-6.427823 1.714086 23.806751 33 18 28
-6.387241 1.715975 23.832991 23 19 19
-6.344503 1.717309 23.851515 43 42 42
-6.301432 1.718572 23.869062 24 24 23
-6.260384 1.720411 23.894596 25 35 39
-6.217205 1.721688 23.912327 34 34 15
-6.176523 1.723681 23.940010 35 44 34
-6.133509 1.725049 23.959019 28 17 42
-6.091586 1.726749 23.982622 18 34 17
-6.053210 1.729489 24.020676 19 24 16
-6.012856 1.731702 24.051422 40 39 19
-5.977673 1.735453 24.103519 25 22 18
-5.940955 1.738816 24.150223 20 28 16
-5.903510 1.742019 24.194714 37 18 39
-5.866255 1.745332 24.240723 17 41 27
-5.823239 1.746972 24.263496 38 41 29
-5.782267 1.749257 24.295240 29 15 18
-5.739216 1.750947 24.318712 25 17 28
-5.695228 1.752378 24.338581 36 26 26
-5.652188 1.754127 24.362879 31 38 17
-5.606541 1.755091 24.376265 20 36 37
-5.563417 1.756869 24.400953 22 35 34
-5.518891 1.758231 24.419872 29 42 38
-5.475703 1.760047 24.445101 30 35 40
-5.435191 1.762765 24.482843 30 35 40
-5.392748 1.764900 24.512493 30 35 40
-5.357689 1.769512 24.576553 30 35 40
-5.321552 1.773851 24.636814 30 35 40
-5.287670 1.779029 24.708736 30 35 40
-5.257693 1.785632 24.800440 30 35 40
-5.221567 1.790252 24.864607 18 29 34
-5.192023 1.797239 24.961651 34 30 28
-5.156828 1.802386 25.033144 23 28 40
-5.122211 1.807839 25.108877 34 36 29
-5.094156 1.815739 25.218596 31 17 42
-5.059740 1.821506 25.298698 42 19 17
-5.030686 1.829340 25.407503 40 23 34
-4.994436 1.834691 25.481817 38 35 23
-4.956953 1.839694 25.551306 28 20 44
-4.924407 1.846652 25.647951 36 41 25
-4.885366 1.851296 25.712450 27 43 20
-4.852209 1.858293 25.809624 15 40 19
-4.814783 1.863787 25.885929 44 44 22
-4.776297 1.868986 25.958138 23 34 35
-4.740181 1.875236 26.044949 15 23 20
-4.697251 1.878900 26.095839 23 36 15
-4.660051 1.884964 26.180059 17 33 15
-4.619116 1.889638 26.244978 21 40 29
-4.579584 1.895000 26.319447 39 29 20
-4.545826 1.902904 26.429222 17 37 23
-4.507098 1.908888 26.512339 26 40 33
-4.475714 1.918163 26.641155 33 26 31
-4.438537 1.925149 26.738174 22 44 39
-4.402253 1.932696 26.843004 38 44 42
-4.372394 1.943286 26.990084 27 31 27
-4.335312 1.950890 27.095701 24 20 43
-4.306523 1.962466 27.256475 20 39 16
-4.271690 1.971549 27.382631 27 15 43
-4.235879 1.980411 27.505707 36 30 17
-4.204344 1.991532 27.660160 23 34 17
-4.163502 1.998481 27.756678 42 35 44
-4.128854 2.008632 27.897665 40 29 41
-4.088385 2.016190 28.002636 27 37 19
-4.046879 2.023440 28.103329 39 34 20
-4.009729 2.033102 28.237528 29 38 31
-3.965522 2.039411 28.325155 33 34 20
-3.927163 2.048954 28.457701 23 34 31
-7.730004 1.722953 23.283146 29 24 36
-7.681175 1.722445 23.276289 31 23 18
-7.630551 1.721527 23.263874 35 16 20
-7.580865 1.720810 23.254189 43 39 17
-7.530493 1.719927 23.242262 23 31 21
-7.477756 1.718491 23.222845 15 15 25
-7.426221 1.717314 23.206942 30 44 20
-7.373231 1.715783 23.186262 28 16 32
-7.322712 1.714812 23.173138 23 27 41
-7.272405 1.713879 23.160524 23 37 24
-7.219455 1.712307 23.139278 35 42 34
-7.168000 1.711071 23.122580 20 23 34
-7.118686 1.710334 23.112616 18 19 44
-7.072042 1.710232 23.111248 28 28 31
-7.029331 1.711087 23.122799 26 41 19
-6.989674 1.712702 23.144617 44 30 26
-6.950445 1.714443 23.168150 28 43 32
-6.915274 1.717216 23.205616 37 21 26
-6.877103 1.719276 23.233458 35 18 27
-6.840186 1.721679 23.265938 26 23 42
-6.807123 1.725093 23.312065 37 39 23
-6.770430 1.727627 23.346310 30 19 16
-6.739623 1.731709 23.401470 21 38 36
-6.705654 1.735029 23.446344 33 17 32
-6.671754 1.738415 23.492092 26 40 34
-6.640966 1.742665 23.549524 20 31 30
-6.604210 1.745398 23.586466 30 35 40
-6.571342 1.749206 23.637920 30 35 40
-6.534755 1.752072 23.676647 30 35 40
-6.496306 1.754477 23.709145 30 35 40
-6.459013 1.757231 23.746370 30 35 40
-6.416620 1.758629 23.765259 30 35 40
-6.376131 1.760573 23.791533 30 35 40
-6.333399 1.761923 23.809772 25 19 35
-6.290252 1.763177 23.826714 37 38 22
-6.249069 1.765004 23.851410 23 31 28
-6.205780 1.766261 23.868385 43 17 38
-6.164788 1.768195 23.894527 37 41 41
-6.121546 1.769510 23.912291 17 28 44
-6.079276 1.771128 23.934156 29 39 16
-6.040285 1.773734 23.969383 25 38 33
-5.999442 1.775835 23.997766 22 40 41
-5.963461 1.779420 24.046215 36 28 29
-5.926135 1.782658 24.089979 19 21 26
-5.888125 1.785743 24.131660 26 19 42
-5.850189 1.788901 24.174335 24 39 20
-5.806838 1.790442 24.195160 17 39 18
-5.765348 1.792587 24.224152 26 22 20
-5.721940 1.794168 24.245508 27 28 17
-5.677664 1.795500 24.263519 18 25 38
-5.634244 1.797130 24.285536 41 42 26
-5.588440 1.798020 24.297567 16 24 32
-5.545153 1.799743 24.320847 22 33 29
-5.500640 1.801095 24.339117 30 35 40
-5.457531 1.802934 24.363976 30 35 40
-5.416985 1.805662 24.400831 30 35 40
-5.374554 1.807805 24.429792 30 35 40
-5.339480 1.812484 24.493027 30 35 40
-5.303350 1.816888 24.552546 30 35 40
-5.269589 1.822194 24.624249 30 35 40
-5.239933 1.829033 24.716665 30 35 40
-5.204241 1.833875 24.782099 30 35 40
-5.175092 1.841139 24.880251 33 35 29
-5.140190 1.846476 24.952377 16 43 33
-5.105687 1.852063 25.027878 28 16 34
-5.077531 1.860086 25.136293 24 27 35
-5.042916 1.865879 25.214579 30 27 29
-5.013627 1.873780 25.321346 28 20 36
-4.977360 1.879207 25.394695 41 22 23
-4.939866 1.884279 25.463228 25 21 22
-4.907116 1.891284 25.557896 18 18 22
-4.867931 1.895931 25.620689 18 31 22
-4.834586 1.902975 25.715881 17 33 39
-4.797154 1.908545 25.791153 16 16 23
-4.758698 1.913824 25.862492 17 39 33
-4.722476 1.920127 25.947668 40 16 30
-4.679512 1.923800 25.997292 27 26 19
-4.642272 1.929933 26.080179 25 30 32
-4.601546 1.934741 26.145147 32 39 24
-4.562069 1.940190 26.218786 24 19 17
-4.527864 1.948035 26.324791 40 44 18
-4.488600 1.953861 26.403532 27 29 30
-4.456506 1.962985 26.526819 24 36 18
-4.418960 1.969898 26.620243 18 38 28
-4.382407 1.977428 26.721994 41 42 28
-4.352194 1.988039 26.865395 28 17 44
-4.315051 1.995711 26.969067 43 25 33
-4.285855 2.007299 27.125666 21 36 33
-4.250525 2.016275 27.246956 21 24 29
-4.214353 2.025079 27.365927 33 16 25
-4.182684 2.036307 27.517658 28 16 16
-4.142123 2.043447 27.614153 22 42 18
-4.107941 2.053971 27.756361 43 27 43
-4.068102 2.061915 27.863710 33 23 41
-4.027197 2.069532 27.966644 30 28 26
-3.990328 2.079467 28.100899 27 31 22
-3.946159 2.085827 28.186848 17 42 35
-3.907975 2.095581 28.318657 16 35 17
-3.865843 2.103473 28.425316 26 33 20
-7.745390 1.762424 23.189791 41 31 38
-7.695556 1.761633 23.179384 23 26 28
-7.648418 1.761454 23.177025 35 42 27
-7.599533 1.760867 23.169308 16 38 43
-7.550854 1.760322 23.162130 37 25 26
-7.500978 1.759489 23.151167 38 23 17
-7.448462 1.758022 23.131870 22 23 42
-7.396693 1.756715 23.114666 21 29 20
-7.344819 1.755366 23.096916 19 33 34
-7.295630 1.754645 23.087437 30 27 40
-7.248226 1.754348 23.083523 33 44 39
-7.200699 1.754016 23.079163 39 15 43
-7.154452 1.753995 23.078878 22 17 40
-7.110543 1.754550 23.086178 36 23 30
-7.066906 1.755179 23.094465 18 31 28
-7.025533 1.756383 23.110306 22 43 38
-6.986690 1.758240 23.134735 32 26 27
-6.946791 1.759854 23.155970 23 28 27
-6.911333 1.762622 23.192392 21 22 41
-6.873743 1.764880 23.222105 32 35 23
-6.837149 1.767426 23.255608 22 32 18
-6.803500 1.770774 23.299656 19 44 15
-6.765788 1.773103 23.330303 43 43 18
-6.733477 1.776890 23.380127 32 17 16
-6.698478 1.780015 23.421253 36 37 22
-6.663382 1.783159 23.462612 37 32 24
-6.630677 1.786991 23.513039 30 35 40
-6.592409 1.789368 23.544317 30 35 40
-6.558272 1.792909 23.590906 30 35 40
-6.521325 1.795727 23.627991 30 35 40
-6.483158 1.798248 23.661160 30 35 40
-6.446302 1.801173 23.699638 30 35 40
-6.404568 1.802767 23.720621 30 35 40
-6.364635 1.804896 23.748636 30 35 40
-6.322135 1.806324 23.767426 30 35 40
-6.279004 1.807592 23.784107 32 40 29
-6.237771 1.809430 23.808285 33 41 24
-6.194358 1.810659 23.824455 33 19 15
-6.153053 1.812527 23.849041 43 31 38
-6.109610 1.813790 23.865664 42 22 24
-6.066980 1.815317 23.885748 27 33 43
-6.027334 1.817767 23.917992 33 41 32
-5.985940 1.819726 23.943760 44 18 16
-5.949033 1.823091 23.988037 23 25 27
-5.910930 1.826141 24.028170 34 38 31
-5.872223 1.829053 24.066486 29 35 22
-5.833623 1.832047 24.105879 36 40 17
-5.790060 1.833519 24.125248 22 18 41
-5.748132 1.835538 24.151814 42 32 23
-5.704354 1.836995 24.170992 31 19 34
-5.659766 1.838214 24.187033 35 36 31
-5.615977 1.839717 24.206799 36 40 38
-5.570041 1.840535 24.217571 44 32 40
-5.526662 1.842221 24.239746 35 27 23
-5.482254 1.843590 24.257761 30 35 40
-5.439313 1.845481 24.282646 30 35 40
-5.398827 1.848247 24.319038 30 35 40
-5.356461 1.850414 24.347551 30 35 40
-5.321402 1.855168 24.410103 30 35 40
-5.285282 1.859636 24.468899 30 35 40
-5.251590 1.865051 24.540140 30 35 40
-5.222123 1.872082 24.632658 30 35 40
-5.186729 1.877102 24.698711 30 35 40
-5.157799 1.884580 24.797110 17 19 15
-5.123076 1.890067 24.869299 41 26 24
-5.088613 1.895758 24.944181 24 34 43
-5.060252 1.903857 25.050751 29 30 40
-5.025393 1.909649 25.126966 15 20 43
-4.995972 1.917646 25.232180 32 17 21
-4.959962 1.923251 25.305931 39 28 24
-4.922710 1.928484 25.374792 18 38 33
-4.889829 1.935557 25.467857 37 44 20
-4.850399 1.940160 25.528418 18 33 17
-4.816667 1.947163 25.620567 25 15 16
-4.779011 1.952714 25.693605 19 19 40
-4.740380 1.957983 25.762934 41 33 39
-4.703942 1.964284 25.845837 24 16 35
-4.660954 1.967958 25.894190 40 23 20
-4.623778 1.974197 25.976282 34 26 17
-4.583392 1.979192 26.042000 36 33 37
-4.544168 1.984809 26.115908 44 32 32
-4.509779 1.992693 26.219645 22 17 32
-4.470188 1.998437 26.295221 42 30 28
-4.437661 2.007513 26.414646 42 40 19
-4.399974 2.014446 26.505867 35 19 20
-4.363312 2.022022 26.605558 39 34 16
-4.332846 2.032693 26.745962 31 29 23
-4.295614 2.040417 26.847586 17 25 36
-4.265935 2.051969 26.999590 19 44 28
-4.230046 2.060792 27.115681 36 35 40
-4.193379 2.069460 27.229731 30 27 32
-4.161318 2.080659 27.377094 40 33 29
-4.120793 2.087869 27.471954 24 17 23
-4.086858 2.098657 27.613903 17 30 23
-4.047588 2.106964 27.723206 35 21 16
-4.007268 2.114947 27.828247 16 31 22
-3.970598 2.125109 27.961960 34 33 43
-3.926396 2.131472 28.045687 18 43 16
-3.888322 2.141394 28.176243 22 16 32
-3.846666 2.149608 28.284309 27 19 34
-3.803520 2.157220 28.384480 44 25 23
-7.746294 1.798247 23.054447 39 18 27
-7.697649 1.797655 23.046854 36 43 34
-7.650347 1.797371 23.043215 17 23 20
-7.604803 1.797499 23.044859 35 29 40
-7.557471 1.797204 23.041071 24 35 38
-7.509324 1.796709 23.034735 36 26 42
-7.460044 1.795936 23.024826 39 33 26
-7.409134 1.794759 23.009733 34 42 35
-7.358986 1.793753 22.996830 29 27 38
-7.310017 1.793023 22.987476 24 15 36
-7.263299 1.792840 22.985123 44 27 43
-7.218908 1.793232 22.990152 18 28 26
-7.175736 1.793934 22.999153 42 33 24
-7.132933 1.794738 23.009462 30 29 36
-7.092423 1.796133 23.027348 39 40 31
-7.050407 1.797163 23.040546 27 30 35
-7.009669 1.798533 23.058121 23 21 28
-6.971659 1.800627 23.084965 31 40 37
-6.931938 1.802304 23.106461 19 31 15
-6.896602 1.805151 23.142960 21 22 20
-6.859154 1.807480 23.172819 16 43 42
-6.822484 1.810047 23.205727 18 27 36
-6.788553 1.813381 23.248468 23 32 18
-6.750527 1.815659 23.277679 28 35 25
-6.717694 1.819375 23.325325 31 17 35
-6.682401 1.822473 23.365038 21 40 44
-6.646910 1.825560 23.404613 21 23 44
-6.613411 1.829241 23.451813 30 35 40
-6.574485 1.831464 23.480305 30 35 40
-6.539630 1.834860 23.523849 30 35 40
-6.502310 1.837609 23.559093 30 35 40
-6.464046 1.840130 23.591408 30 35 40
-6.427218 1.843099 23.629477 30 35 40
-6.385776 1.844780 23.651024 30 35 40
-6.346032 1.846979 23.679222 30 35 40
-6.303632 1.848433 23.697865 30 35 40
-6.260490 1.849690 23.713976 25 15 15
-6.219150 1.851503 23.737215 15 28 26
-6.175659 1.852698 23.752535 21 43 27
-6.134056 1.854482 23.775410 39 20 34
-6.090439 1.855681 23.790779 25 29 30
-6.047458 1.857093 23.808889 42 22 23
-6.007126 1.859349 23.837803 36 31 21
-5.965172 1.861134 23.860689 29 18 40
-5.927234 1.864211 23.900137 28 21 16
-5.888254 1.867007 23.935991 18 23 29
-5.848742 1.869680 23.970255 23 30 41
-5.809352 1.872436 24.005587 26 41 23
-5.765536 1.873799 24.023067 37 29 16
-5.723095 1.875636 24.046618 24 42 21
-5.678923 1.876932 24.063232 37 15 23
-5.634010 1.878003 24.076967 19 19 28
-5.589812 1.879333 24.094015 30 18 28
-5.543746 1.880053 24.103245 23 33 30
-5.500284 1.881676 24.124054 26 32 27
-5.456032 1.883055 24.141733 30 35 40
-5.413328 1.884998 24.166643 30 35 40
-5.372946 1.887792 24.202461 30 35 40
-5.330701 1.889976 24.230459 30 35 40
-5.295653 1.894775 24.291985 30 35 40
-5.259518 1.899270 24.349619 30 35 40
-5.225878 1.904759 24.419992 30 35 40
-5.196607 1.911959 24.512297 30 35 40
-5.161565 1.917153 24.578882 30 35 40
-5.132866 1.924825 24.677238 31 32 29
-5.098290 1.930421 24.748981 27 18 33
-5.063848 1.936177 24.822786 17 30 27
-5.035355 1.944345 24.927502 18 22 34
-5.000386 1.950151 25.001930 29 30 16
-4.970867 1.958220 25.105387 18 33 40
-4.935017 1.963935 25.178656 34 26 42
-4.897938 1.969274 25.247101 21 33 27
-4.864988 1.976401 25.338478 17 18 33
-4.825489 1.980990 25.397312 16 23 24
-4.791629 1.988016 25.487387 34 15 26
-4.753983 1.993606 25.559048 36 27 37
-4.715438 1.998936 25.627380 21 28 41
-4.679049 2.005307 25.709061 42 28 39
-4.636238 2.009036 25.756878 42 32 40
-4.599255 2.015404 25.838511 39 42 18
-4.559240 2.020572 25.904770 17 32 40
-4.520249 2.026318 25.978441 37 31 32
-4.485707 2.034216 26.079691 32 32 43
-4.445853 2.039862 26.152075 17 28 23
-4.412883 2.048839 26.267160 32 27 19
-4.374986 2.055716 26.355339 25 44 37
-4.338143 2.063263 26.452089 15 28 32
-4.307428 2.073947 26.589060 42 25 30
-4.270198 2.081721 26.688736 35 33 20
-4.240027 2.093178 26.835617 43 44 18
-4.203489 2.101745 26.945444 24 43 16
-4.166249 2.110178 27.053562 27 24 43
-4.133815 2.121300 27.196154 33 27 34
-4.093457 2.128598 27.289715 25 44 29
-4.059728 2.139587 27.430597 16 23 15
-4.020875 2.148139 27.540241 28 23 23
-3.980949 2.156348 27.645481 23 44 16
-3.944318 2.166597 27.776884 43 23 15
-3.900072 2.172898 27.857660 23 34 20
-3.862006 2.182873 27.985550 44 25 38
-3.820562 2.191205 28.092369 20 33 39
-3.777839 2.199041 28.192827 15 20 25
-3.736978 2.208214 28.310436 18 39 30
-7.762956 1.837386 22.967325 35 33 36
-7.715310 1.836978 22.962231 44 35 15
-7.668100 1.836671 22.958384 33 37 36
-7.622169 1.836667 22.958340 28 42 37
-7.577354 1.836934 22.961679 35 42 28
-7.530676 1.836750 22.959377 32 35 15
-7.482428 1.836179 22.952232 26 33 42
-7.433514 1.835436 22.942945 17 30 19
-7.384484 1.834654 22.933180 20 41 22
-7.336585 1.834146 22.926828 26 41 29
-7.290543 1.834099 22.926237 17 38 31
-7.246033 1.834439 22.930485 22 36 16
-7.203411 1.835264 22.940798 15 35 37
-7.161977 1.836404 22.955053 19 22 27
-7.119921 1.837399 22.967487 44 16 37
-7.079512 1.838834 22.985428 27 22 32
-7.036802 1.839687 22.996084 43 24 28
-6.995144 1.840827 23.010344 44 44 40
-6.956825 1.842868 23.035845 39 35 22
-6.917335 1.844623 23.057783 31 25 42
-6.881945 1.847502 23.093777 39 24 34
-6.844150 1.849770 23.122129 20 25 27
-6.807167 1.852290 23.153629 16 28 22
-6.773136 1.855654 23.195671 30 16 19
-6.735270 1.858006 23.225069 39 32 20
-6.702647 1.861846 23.273079 41 28 30
-6.667576 1.865056 23.313204 19 32 34
-6.632311 1.868257 23.353209 41 37 19
-6.599040 1.872068 23.400852 30 35 40
-6.560283 1.874366 23.429581 30 35 40
-6.525448 1.877827 23.472834 30 35 40
-6.488016 1.880584 23.507303 30 35 40
-6.449614 1.883099 23.538736 30 35 40
-6.412752 1.886104 23.576294 30 35 40
-6.371406 1.887824 23.597801 30 35 40
-6.331718 1.890065 23.625814 30 35 40
-6.289364 1.891538 23.644224 30 35 40
-6.246237 1.892799 23.659988 17 17 28
-6.204857 1.894613 23.682661 40 23 28
-6.161343 1.895798 23.697474 20 43 26
-6.119605 1.897552 23.719398 27 31 41
-6.075931 1.898728 23.734106 33 31 30
-6.032774 1.900086 23.751078 26 16 22
-5.992069 1.902244 23.778053 35 26 17
-5.949793 1.903934 23.799173 40 26 28
-5.911217 1.906844 23.835552 21 18 35
-5.871657 1.909482 23.868525 36 24 40
-5.831619 1.912006 23.900080 43 22 29
-5.791756 1.914630 23.932877 41 30 20
-5.747837 1.915946 23.949322 19 26 16
-5.705128 1.917690 23.971127 36 34 42
-5.660737 1.918894 23.986172 39 19 21
-5.615651 1.919881 23.998508 21 42 21
-5.571219 1.921110 24.013874 16 44 36
-5.525098 1.921773 24.022167 35 18 24
-5.481629 1.923378 24.042231 30 35 40
-5.437531 1.924790 24.059872 30 35 40
-5.395031 1.926797 24.084959 30 35 40
-5.354772 1.929648 24.120594 30 35 40
-5.312646 1.931871 24.148392 30 35 40
-5.277611 1.936738 24.209225 30 35 40
-5.241465 1.941283 24.266043 30 35 40
-5.207809 1.946845 24.335558 30 35 40
-5.178592 1.954186 24.427320 30 35 40
-5.143704 1.959506 24.493828 30 35 40
-5.115053 1.967328 24.591600 30 35 40
-5.080474 1.973000 24.662497 37 18 39
-5.046003 1.978825 24.735310 21 15 38
-5.017444 1.987107 24.838833 44 34 21
-4.982492 1.992997 24.912460 43 26 38
-4.952990 2.001208 25.015102 37 18 21
-4.917273 2.007050 25.088129 44 29 31
-4.880335 2.012509 25.156366 19 24 24
-4.847423 2.019760 25.246996 17 25 30
-4.807970 2.024408 25.305105 17 32 29
-4.774130 2.031545 25.394310 30 32 16
-4.736559 2.037230 25.465370 25 39 41
-4.698139 2.042669 25.533363 43 17 20
-4.661915 2.049193 25.614916 38 31 43
-4.619324 2.053033 25.662909 18 42 21
-4.582575 2.059584 25.744801 15 42 44
-4.542816 2.064916 25.811455 23 32 41
-4.504018 2.070813 25.885159 35 20 28
-4.469532 2.078852 25.985653 40 35 43
-4.429680 2.084556 26.056944 37 26 15
-4.396600 2.093619 26.170238 41 38 22
-4.358646 2.100552 26.256903 16 24 38
-4.321734 2.108163 26.352034 15 28 35
-4.290934 2.118980 26.487249 29 27 40
-4.253754 2.126877 26.585960 25 19 37
-4.223297 2.138378 26.729731 27 18 19
-4.186345 2.146844 26.835545 31 15 44
-4.148698 2.155168 26.939594 37 43 28
-4.115978 2.166304 27.078802 19 35 25
-4.075677 2.173694 27.171177 20 25 42
-4.041932 2.184828 27.310349 21 33 26
-4.003156 2.193510 27.418877 17 26 43
-3.963292 2.201829 27.522863 26 37 22
-3.926538 2.212134 27.651674 35 16 17
-3.882220 2.218411 27.730143 17 20 35
-3.844063 2.228442 27.855528 18 15 40
-3.802526 2.236780 27.959747 33 35 20
-3.760053 2.244808 28.060099 39 18 15
-3.720107 2.254610 28.182627 32 30 28
-3.673419 2.260565 28.257069 21 27 17
-7.761628 1.871922 22.828318 25 34 28
-7.715454 1.871797 22.826788 19 44 34
-7.669697 1.871771 22.826479 31 27 44
-7.624761 1.871947 22.828627 40 37 29
-7.581162 1.872456 22.834826 36 31 44
-7.537851 1.873042 22.841972 28 20 33
-7.493079 1.873270 22.844753 31 40 35
-7.445925 1.872901 22.840260 22 26 22
-7.398380 1.872429 22.834505 21 21 30
-7.352043 1.872259 22.832432 36 19 24
-7.306628 1.872323 22.833212 22 36 21
-7.263577 1.872998 22.841436 26 26 43
-7.221202 1.873856 22.851906 31 22 34
-7.180064 1.875049 22.866447 16 19 42
-7.139917 1.876517 22.884348 28 19 22
-7.098169 1.877580 22.897320 21 35 16
-7.057810 1.879027 22.914967 28 30 36
-7.014890 1.879807 22.924479 44 22 18
-6.972926 1.880855 22.937258 22 17 21
-6.934603 1.882906 22.962263 35 26 17
-6.895362 1.884732 22.984539 24 43 28
-6.860011 1.887654 23.020172 20 31 37
-6.822046 1.889891 23.047451 19 36 33
-6.784918 1.892392 23.077951 33 39 26
-6.750951 1.895815 23.119696 24 41 43
-6.713354 1.898259 23.149496 22 26 33
-6.681020 1.902235 23.197987 24 40 32
-6.646225 1.905561 23.238550 30 43 42
-6.611198 1.908867 23.278868 30 35 40
-6.578126 1.912788 23.326687 30 35 40
-6.539509 1.915142 23.355391 30 35 40
-6.504616 1.918628 23.397898 30 35 40
-6.467000 1.921355 23.431158 30 35 40
-6.428391 1.923825 23.461281 30 35 40
-6.391438 1.926831 23.497934 30 35 40
-6.350195 1.928578 23.519241 30 35 40
-6.310526 1.930832 23.546738 30 35 40
-6.268191 1.932299 23.564627 30 35 40
-6.225035 1.933534 23.579679 30 35 40
-6.183525 1.935302 23.601240 35 37 35
-6.139948 1.936445 23.615183 25 18 27
-6.097966 1.938113 23.635527 15 39 35
-6.054187 1.939232 23.649166 23 24 39
-6.010766 1.940483 23.664433 17 15 43
-5.969489 1.942453 23.688448 29 40 25
-5.926750 1.943974 23.707001 43 24 16
-5.887205 1.946576 23.738729 37 30 15
-5.846778 1.948926 23.767389 33 21 36
-5.805916 1.951169 23.794739 23 21 40
-5.765250 1.953515 23.823349 31 44 23
-5.721067 1.954698 23.837778 31 15 20
-5.677874 1.956242 23.856613 25 25 34
-5.633154 1.957282 23.869297 23 24 23
-5.587817 1.958124 23.879559 40 15 27
-5.543020 1.959171 23.892326 44 27 32
-5.496786 1.959724 23.899071 25 17 23
-5.453259 1.961260 23.917803 43 23 37
-5.409359 1.962688 23.935215 30 35 40
-5.367136 1.964755 23.960430 30 35 40
-5.327043 1.967646 23.995687 30 35 40
-5.285080 1.969893 24.023090 30 35 40
-5.250070 1.974797 24.082890 30 35 40
-5.213889 1.979347 24.138374 30 35 40
-5.180229 1.984947 24.206676 30 35 40
-5.151128 1.992417 24.297771 30 35 40
-5.116527 1.997882 24.364414 30 35 40
-5.088017 2.005853 24.461620 41 36 39
-5.053506 2.011590 24.531584 21 19 37
-5.019043 2.017459 24.603153 44 16 42
-4.990427 2.025817 24.705082 30 16 29
-4.955511 2.031759 24.777554 37 26 31
-4.926039 2.040077 24.878983 34 22 30
-4.890516 2.046032 24.951611 42 15 25
-4.853784 2.051599 25.019505 26 37 23
-4.820942 2.058944 25.109072 22 17 32
-4.781574 2.063627 25.166182 24 34 22
-4.747775 2.070838 25.254122 34 42 21
-4.710311 2.076589 25.324253 27 31 20
-4.672067 2.082117 25.391666 15 31 26
-4.636060 2.088774 25.472858 36 38 26
-4.593785 2.092724 25.521030 43 43 19
-4.557344 2.099450 25.603054 38 43 29
-4.517949 2.104953 25.670162 22 15 44
-4.479399 2.110981 25.743673 30 19 31
-4.444914 2.119087 25.842522 41 33 44
-4.404988 2.124759 25.911694 31 28 19
-4.371647 2.133780 26.021709 25 29 36
-4.333577 2.140682 26.105883 43 40 39
-4.296533 2.148267 26.198374 28 23 31
-4.265553 2.159107 26.330576 17 42 15
-4.228398 2.167054 26.427488 24 30 38
-4.197570 2.178486 26.566896 32 21 33
-4.160155 2.186748 26.667658 18 36 30
-4.122114 2.194892 26.766972 36 32 43
-4.089193 2.206012 26.902584 23 34 43
-4.049133 2.213526 26.994223 29 23 28
-4.015575 2.224845 27.132261 41 41 33
-3.977060 2.233691 27.240135 40 41 34
-3.937445 2.242156 27.343367 31 42 30
-3.900769 2.252557 27.470205 35 41 44
-3.856555 2.258840 27.546824 39 22 36
-3.818439 2.268927 27.669846 22 25 26
-3.776916 2.277258 27.771442 33 35 29
-3.734749 2.285443 27.871258 39 24 43
-3.695616 2.295761 27.997087 16 20 41
-3.649995 2.302305 28.076887 34 32 44
-3.606328 2.310304 28.174437 24 39 16
-7.774526 1.909533 22.732533 31 34 43
-7.727091 1.909046 22.726738 23 41 20
-7.680982 1.908883 22.724798 20 43 37
-7.636226 1.909057 22.726864 19 30 25
-7.592942 1.909602 22.733360 16 30 44
-7.551151 1.910532 22.744431 40 24 41
-7.509227 1.911440 22.755234 22 23 17
-7.466616 1.912182 22.764072 29 34 38
-7.421306 1.912238 22.764744 40 21 44
-7.375570 1.912185 22.764105 32 17 33
-7.331336 1.912522 22.768124 21 25 40
-7.287242 1.912901 22.772631 22 26 35
-7.245551 1.913919 22.784752 40 30 35
-7.204028 1.914995 22.797556 17 39 42
-7.163218 1.916275 22.812798 38 42 26
-7.123078 1.917752 22.830379 25 36 38
-7.080939 1.918706 22.841738 18 38 30
-7.040552 1.920150 22.858934 37 16 29
-6.998118 1.921052 22.869667 27 41 36
-6.956773 1.922266 22.884123 31 18 42
-6.918886 1.924458 22.910219 33 25 44
-6.879844 1.926356 22.932814 21 35 32
-6.844727 1.929386 22.968882 25 39 27
-6.806934 1.931697 22.996397 29 33 27
-6.769989 1.934283 23.027174 29 17 23
-6.736307 1.937842 23.069544 39 32 23
-6.698975 1.940393 23.099915 39 25 15
-6.666928 1.944521 23.149055 18 40 24
-6.632347 1.947962 23.190023 44 42 19
-6.597447 1.951358 23.230448 38 22 43
-6.564456 1.955370 23.278212 30 35 40
-6.525853 1.957756 23.306618 30 35 40
-6.490809 1.961252 23.348232 30 35 40
-6.452992 1.963954 23.380407 30 35 40
-6.414176 1.966390 23.409401 30 35 40
-6.377074 1.969391 23.445126 30 35 40
-6.335853 1.971154 23.466124 30 35 40
-6.296093 1.973402 23.492886 30 35 40
-6.253687 1.974849 23.510103 30 35 40
-6.210419 1.976042 23.524313 36 26 43
-6.168718 1.977757 23.544725 42 26 26
-6.125027 1.978855 23.557796 17 17 23
-6.082781 1.980440 23.576670 26 32 28
-6.038869 1.981504 23.589331 18 41 23
-5.995211 1.982668 23.603193 15 17 37
-5.953449 1.984483 23.624796 32 28 37
-5.910314 1.985865 23.641254 41 34 22
-5.869987 1.988221 23.669302 37 40 29
-5.828864 1.990344 23.694571 34 17 17
-5.787320 1.992356 23.718523 29 26 17
-5.745916 1.994450 23.743456 30 24 19
-5.701409 1.995493 23.755869 26 20 42
-5.657731 1.996846 23.771978 20 16 44
-5.612726 1.997750 23.782738 34 39 27
-5.567186 1.998477 23.791395 29 33 39
-5.522047 1.999362 23.801928 20 32 41
-5.475665 1.999808 23.807240 21 27 25
-5.432026 2.001273 23.824675 33 37 34
-5.388218 2.002700 23.841671 30 35 40
-5.346160 2.004810 23.866785 30 35 40
-5.306132 2.007726 23.901495 30 35 40
-5.264264 2.009992 23.928473 30 35 40
-5.229227 2.014932 23.987282 30 35 40
-5.192979 2.019492 24.041569 30 35 40
-5.159291 2.025142 24.108835 30 35 40
-5.130287 2.032755 24.199469 30 35 40
-5.095945 2.038378 24.266405 30 35 40
-5.067590 2.046527 24.363415 23 28 23
-5.033165 2.052359 24.432840 19 35 43
-4.998727 2.058299 24.503563 23 27 26
-4.970077 2.066765 24.604343 17 31 43
-4.935175 2.072774 24.675877 16 26 39
-4.905717 2.081213 24.776346 35 16 28
-4.870336 2.087287 24.848654 17 29 15
-4.833756 2.092966 24.916267 32 18 34
-4.800954 2.100417 25.004969 16 30 41
-4.761649 2.105150 25.061310 40 27 22
-4.727850 2.112444 25.148140 32 24 22
-4.690443 2.118264 25.217434 23 16 41
-4.652288 2.123871 25.284176 21 21 19
-4.616389 2.130641 25.364773 41 29 37
-4.574297 2.134672 25.412760 43 34 40
-4.538005 2.141530 25.494408 35 29 44
-4.498840 2.147174 25.561592 18 25 23
-4.460395 2.153294 25.634455 38 26 42
-4.425760 2.161418 25.731161 15 44 19
-4.385649 2.167027 25.797937 39 16 39
-4.351964 2.175982 25.904549 26 26 38
-4.313713 2.182843 25.986221 23 25 18
-4.276532 2.190419 26.076412 33 21 35
-4.245345 2.201290 26.205835 43 19 40
-4.208188 2.209299 26.301178 41 44 38
-4.177151 2.220764 26.437662 28 15 35
-4.139488 2.228955 26.535177 17 40 30
-4.101327 2.237087 26.631990 24 24 40
-4.068497 2.248380 26.766426 24 25 29
-4.028813 2.256135 26.858751 29 32 31
-3.995676 2.267816 26.997810 41 22 44
-3.957562 2.276954 27.106590 20 15 30
-3.918320 2.285687 27.210554 16 17 34
-3.881968 2.296375 27.337803 19 35 21
-3.837999 2.302800 27.414282 31 32 37
-3.800079 2.313092 27.536804 28 25 18
-3.758699 2.321549 27.637489 17 31 44
-3.716719 2.329883 27.736706 21 40 41
-3.677862 2.340458 27.862595 38 25 40
-3.632588 2.347211 27.942987 27 33 18
-3.589559 2.355648 28.043430 39 43 17
-3.541105 2.360737 28.104008 19 41 27
-7.787361 1.946840 22.637676 25 34 17
-7.740292 1.946389 22.632433 36 21 29
-7.692203 1.945675 22.624126 42 19 35
-7.646454 1.945547 22.622644 16 35 24
-7.602913 1.945984 22.627716 22 39 28
-7.561534 1.946982 22.639324 18 34 30
-7.521833 1.948427 22.656124 16 19 17
-7.481457 1.949713 22.671082 43 30 25
-7.441187 1.951043 22.686544 34 33 23
-7.397890 1.951591 22.692913 15 15 34
-7.353955 1.951976 22.697392 33 35 43
-7.311582 1.952783 22.706776 41 34 37
-7.268447 1.953395 22.713896 15 41 37
-7.227534 1.954616 22.728094 16 26 18
-7.186361 1.955782 22.741650 38 17 33
-7.145381 1.957015 22.755989 38 27 23
-7.104696 1.958346 22.771461 39 28 38
-7.061837 1.959090 22.780121 22 41 33
-7.021217 1.960470 22.796160 25 23 38
-6.979345 1.961515 22.808317 26 19 15
-6.938756 1.962937 22.824854 34 30 30
-6.901217 1.965247 22.851713 41 18 29
-6.862206 1.967166 22.874022 32 36 31
-6.827175 1.970259 22.909983 17 39 38
-6.789540 1.972637 22.937635 41 24 37
-6.752782 1.975303 22.968645 44 44 25
-6.719341 1.978984 23.011440 25 39 43
-6.682235 1.981628 23.042191 15 27 21
-6.650394 1.985881 23.091644 20 23 17
-6.615953 1.989413 23.132704 42 31 44
-6.581134 1.992879 23.173006 33 17 23
-6.548197 1.996968 23.220558 30 35 40
-6.509636 1.999388 23.248699 30 35 40
-6.474514 2.002907 23.289619 30 35 40
-6.436577 2.005600 23.320930 30 35 40
-6.397634 2.008016 23.349028 30 35 40
-6.360450 2.011025 23.384007 30 35 40
-6.319276 2.012806 23.404726 30 35 40
-6.279480 2.015057 23.430897 30 35 40
-6.237060 2.016493 23.447596 30 35 40
-6.193745 2.017659 23.461157 37 38 16
-6.151929 2.019335 23.480644 37 21 38
-6.108177 2.020397 23.492987 32 24 18
-6.065741 2.021914 23.510624 16 40 29
-6.021760 2.022935 23.522499 37 39 40
-5.977930 2.024024 23.535158 34 27 39
-5.935764 2.025697 23.554621 27 42 24
-5.892315 2.026956 23.569262 38 30 31
-5.851303 2.029081 23.593966 36 30 20
-5.809561 2.030985 23.616100 28 32 21
-5.767401 2.032773 23.636890 21 32 38
-5.725334 2.034623 23.658403 18 35 36
-5.680544 2.035528 23.668934 21 42 20
-5.636457 2.036703 23.682590 20 31 36
-5.591229 2.037482 23.691647 23 43 24
-5.545545 2.038106 23.698912 41 19 32
-5.500142 2.038846 23.707508 18 27 22
-5.453671 2.039199 23.711613 23 19 42
-5.409975 2.040605 23.727962 31 43 40
-5.366296 2.042042 23.744671 30 35 40
-5.324435 2.044203 23.769800 30 35 40
-5.284533 2.047162 23.804205 30 35 40
-5.242797 2.049457 23.830894 30 35 40
-5.207802 2.054454 23.889002 30 35 40
-5.171540 2.059039 23.942314 30 35 40
-5.137876 2.064754 24.008766 30 35 40
-5.109012 2.072524 24.099112 30 35 40
-5.074932 2.078306 24.166344 30 35 40
-5.046762 2.086642 24.263277 32 37 17
-5.012460 2.092580 24.332329 30 29 44
-4.978091 2.098607 24.402407 22 39 41
-4.949458 2.107195 24.502270 17 29 30
-4.914605 2.113280 24.573023 43 15 42
-4.885191 2.121850 24.672680 33 15 35
-4.849949 2.128039 24.744637 17 31 43
-4.813523 2.133830 24.811975 23 17 44
-4.780804 2.141402 24.900019 37 25 34
-4.741597 2.146197 24.955774 30 20 38
-4.707870 2.153600 25.041862 28 27 34
-4.670561 2.159507 25.110544 35 20 43
-4.632545 2.165211 25.176876 39 18 43
-4.596822 2.172125 25.257263 22 29 32
-4.554966 2.176262 25.305368 41 16 22
-4.518910 2.183293 25.387133 37 37 39
-4.480017 2.189099 25.454641 39 40 15
-4.441747 2.195346 25.527281 40 17 18
-4.407090 2.203545 25.622614 29 29 23
-4.366900 2.209138 25.687649 27 35 43
-4.333003 2.218085 25.791687 20 35 34
-4.294661 2.224945 25.871454 24 24 16
-4.257384 2.232531 25.959660 43 21 15
-4.226013 2.243439 26.086498 40 34 17
-4.188820 2.251491 26.180128 16 17 31
-4.157580 2.262986 26.313795 38 21 17
-4.119737 2.271137 26.408567 39 26 28
-4.081491 2.279274 26.503187 16 20 21
-4.048706 2.290715 26.636223 20 43 38
-4.009299 2.298665 26.728659 39 26 32
-3.976442 2.310635 26.867853 37 38 35
-3.938599 2.319997 26.976706 41 44 18
-3.899635 2.328949 27.080801 41 18 20
-3.863563 2.339904 27.208187 25 28 32
-3.819867 2.346490 27.284767 44 40 43
-3.782144 2.356988 27.406839 15 32 20
-3.740913 2.365578 27.506716 25 19 16
-3.699060 2.374024 27.604929 31 34 41
-3.660239 2.384701 27.729086 40 25 20
-3.615033 2.391484 27.807949 23 23 22
-3.572628 2.400360 27.911160 21 20 29
-3.525309 2.406163 27.978645 26 22 34
-3.476803 2.411331 28.038736 44 41 29
-7.783100 1.979517 22.494509 40 27 22
-7.737565 1.979377 22.492922 30 40 19
-7.689795 1.978661 22.484779 37 22 31
-7.642400 1.978033 22.477648 26 35 18
-7.598696 1.978359 22.481348 29 42 25
-7.557566 1.979363 22.492756 33 25 25
-7.519132 1.981089 22.512371 21 40 33
-7.482630 1.983348 22.538042 15 16 21
-7.444391 1.985171 22.558760 24 25 25
-7.406634 1.987146 22.581202 40 19 37
-7.364930 1.988079 22.591808 32 40 18
-7.322267 1.988764 22.599588 19 20 20
-7.281735 1.990039 22.614084 20 38 16
-7.239885 1.990968 22.624640 27 21 38
-7.200275 1.992529 22.642374 44 24 28
-7.159887 1.993893 22.657871 32 43 39
-7.119269 1.995209 22.672832 30 36 24
-7.078768 1.996576 22.688360 42 35 18
-7.035779 1.997253 22.696060 44 36 18
-6.995222 1.998635 22.711760 39 22 36
-6.953775 1.999779 22.724756 21 26 26
-6.913549 2.001291 22.741938 27 33 36
-6.876002 2.003603 22.768219 26 27 27
-6.836783 2.005456 22.789276 21 43 19
-6.801475 2.008489 22.823742 23 21 23
-6.763733 2.010840 22.850451 20 39 41
-6.726926 2.013502 22.880699 15 22 36
-6.693438 2.017201 22.922733 36 38 39
-6.656429 2.019882 22.953205 28 25 28
-6.624587 2.024179 23.002037 39 28 36
-6.590145 2.027737 23.042463 44 20 17
-6.555320 2.031226 23.082111 43 30 27
-6.522370 2.035350 23.128973 30 35 40
-6.483887 2.037793 23.156740 30 35 40
-6.448740 2.041328 23.196907 30 35 40
-6.410770 2.044014 23.227427 30 35 40
-6.371824 2.046425 23.254831 30 35 40
-6.334716 2.049467 23.289398 30 35 40
-6.293744 2.051294 23.310162 30 35 40
-6.254107 2.053587 23.336220 30 35 40
-6.211838 2.055044 23.352774 30 35 40
-6.168639 2.056213 23.366056 31 27 36
-6.126869 2.057880 23.384995 16 37 28
-6.083179 2.058922 23.396843 18 40 43
-6.040661 2.060380 23.413414 31 20 42
-5.996690 2.061362 23.424572 30 20 28
-5.952720 2.062360 23.435907 23 39 42
-5.910161 2.063866 23.453020 38 28 19
-5.866375 2.064964 23.465502 27 18 36
-5.824589 2.066789 23.486244 25 39 21
-5.782116 2.068399 23.504538 15 27 30
-5.739273 2.069902 23.521612 36 36 31
-5.696564 2.071478 23.539520 15 23 43
-5.651616 2.072259 23.548399 44 30 15
-5.607195 2.073248 23.559641 30 20 42
-5.561760 2.073877 23.566780 15 31 30
-5.515962 2.074379 23.572487 26 37 37
-5.470364 2.074966 23.579155 44 28 34
-5.423901 2.075232 23.582178 32 35 26
-5.380293 2.076604 23.597778 23 16 21
-5.336882 2.078078 23.614521 28 35 35
-5.295377 2.080327 23.640076 30 35 40
-5.255766 2.083367 23.674623 30 35 40
-5.214306 2.085722 23.701389 30 35 40
-5.179501 2.090808 23.759178 30 35 40
-5.143361 2.095443 23.811855 30 35 40
-5.109823 2.101236 23.877678 30 35 40
-5.081197 2.109176 23.967911 30 35 40
-5.047448 2.115121 24.035465 32 40 44
-5.019522 2.123644 24.132317 28 29 39
-4.985393 2.129682 24.200935 30 41 32
-4.951128 2.135781 24.270235 23 37 35
-4.922541 2.144473 24.369017 30 31 38
-4.887771 2.150619 24.438854 43 34 35
-4.858417 2.159297 24.537460 41 41 31
-4.823349 2.165585 24.608925 32 35 23
-4.787113 2.171474 24.675838 34 42 33
-4.754510 2.179150 24.763071 35 28 33
-4.715451 2.183998 24.818161 33 42 39
-4.681873 2.191515 24.903580 36 39 23
-4.644743 2.197513 24.971737 32 24 19
-4.606993 2.203345 25.038006 21 35 21
-4.571614 2.210451 25.118759 26 33 36
-4.530158 2.214744 25.167545 24 35 20
-4.494566 2.222032 25.250368 37 27 20
-4.456150 2.228075 25.319033 29 19 33
-4.418270 2.234527 25.392355 34 15 26
-4.383862 2.242906 25.487572 22 30 31
-4.343799 2.248555 25.551762 40 35 41
-4.309901 2.257567 25.654173 25 36 44
-4.271618 2.264472 25.732641 23 17 21
-4.234309 2.272068 25.818958 34 41 23
-4.202780 2.282991 25.943085 41 25 30
-4.165516 2.291034 26.034477 21 33 25
-4.133912 2.302432 26.164001 40 39 29
-4.095744 2.310420 26.254768 17 32 44
-4.057205 2.318403 26.345486 40 26 39
-4.024139 2.329764 26.474596 19 29 33
-3.984772 2.337733 26.565145 22 24 16
-3.951823 2.349733 26.701509 35 23 31
-3.913974 2.359108 26.808043 37 41 20
-3.875062 2.368094 26.910156 29 31 22
-3.839007 2.379103 27.035263 19 19 17
-3.795492 2.385738 27.110659 34 40 27
-3.757867 2.396321 27.230917 29 30 19
-3.716757 2.404961 27.329098 40 43 25
-3.675090 2.413492 27.426046 39 39 18
-3.636382 2.424255 27.548347 27 35 34
-3.591367 2.431079 27.625902 39 29 32
-3.549834 2.440511 27.733076 28 28 35
-3.503906 2.447172 27.808775 36 22 24
-3.456870 2.453262 27.877981 32 43 39
-3.412287 2.461322 27.969563 36 41 16
-7.799900 2.017215 22.413506 26 21 29
-7.749882 2.015865 22.398504 28 37 22
-7.701580 2.014948 22.388313 34 17 18
-7.653187 2.013997 22.377741 27 36 27
-7.607126 2.013651 22.373901 19 40 31
-7.565725 2.014542 22.383802 28 31 16
-7.526700 2.016080 22.400892 31 23 28
-7.490573 2.018418 22.426867 29 18 16
-7.456567 2.021359 22.459539 17 16 44
-7.419892 2.023607 22.484520 16 36 42
-7.383622 2.025994 22.511042 27 28 34
-7.342488 2.027067 22.522968 36 20 43
-7.300105 2.027807 22.531189 17 24 41
-7.260377 2.029298 22.547754 44 20 23
-7.219238 2.030411 22.560118 44 42 38
-7.180386 2.032185 22.579830 27 36 33
-7.140487 2.033683 22.596478 33 17 32
-7.100200 2.035089 22.612103 42 22 30
-7.060054 2.036554 22.628378 41 15 27
-7.017262 2.037270 22.636330 27 42 21
-6.976848 2.038689 22.652103 15 18 19
-6.935549 2.039867 22.665192 28 32 33
-6.895302 2.041372 22.681913 39 41 40
-6.857462 2.043615 22.706829 24 38 40
-6.817900 2.045370 22.726334 33 21 44
-6.782145 2.048299 22.758877 41 33 35
-6.744151 2.050586 22.784294 28 17 27
-6.707169 2.053215 22.813501 34 29 32
