ply
format ascii 1.0
element vertex 1288
property float x
property float y
property float z
property uchar red
property uchar green
property uchar blue
end_header
6.305756 2.191362 22.360836 35 38 43
6.350882 2.191502 22.362261 22 32 21
6.398059 2.192342 22.370834 42 42 24
6.445517 2.193266 22.380268 37 15 27
6.492793 2.194116 22.388943 27 20 30
6.538481 2.194422 22.392057 35 15 34
6.582949 2.194316 22.390982 39 25 23
6.624606 2.193282 22.380426 39 21 26
6.663815 2.191456 22.361795 42 27 37
6.702942 2.189628 22.343142 23 21 26
6.735256 2.185613 22.302172 36 27 37
6.766065 2.181166 22.256794 25 31 39
6.797611 2.177013 22.214415 41 27 24
6.831749 2.173738 22.181002 33 21 37
6.873219 2.172824 22.171675 39 34 27
6.915426 2.172153 22.164827 41 24 27
6.960059 2.172248 22.165794 33 30 19
7.005361 2.172549 22.168865 16 34 29
7.047291 2.171807 22.161291 17 31 32
7.088236 2.170772 22.150738 18 37 28
7.132190 2.170667 22.149658 42 44 40
7.180933 2.172011 22.163374 39 26 17
7.229384 2.173250 22.176025 35 24 35
7.272735 2.172951 22.172972 21 32 37
7.312799 2.171680 22.159996 29 34 23
7.351413 2.169995 22.142809 44 30 30
7.388343 2.167837 22.120789 15 26 44
7.430870 2.167337 22.115685 42 32 20
7.482199 2.169395 22.136684 26 39 36
7.538473 2.172854 22.171978 25 22 31
7.612494 2.181358 22.258755 42 29 33
7.689371 2.190577 22.352823 20 23 40
7.769887 2.200719 22.456320 33 36 25
7.850672 2.210821 22.559402 38 27 38
7.914737 2.216126 22.613533 32 16 44
4.670782 2.624035 26.240347 26 35 28
4.692222 2.606790 26.067898 26 25 35
4.704972 2.585149 25.851494 16 23 34
4.731029 2.571212 25.712116 25 43 31
4.761027 2.559692 25.596922 40 35 19
4.783295 2.544306 25.443060 43 22 19
4.816465 2.534982 25.349815 36 17 38
4.841557 2.521644 25.216440 16 39 24
4.874205 2.512477 25.124767 29 20 19
4.905842 2.502980 25.029804 17 17 20
4.928291 2.489036 24.890356 39 34 41
4.957879 2.478940 24.789396 19 41 38
4.974340 2.462545 24.625446 25 29 43
4.997009 2.449514 24.495144 24 40 41
5.017630 2.435743 24.357428 21 38 22
5.029266 2.417916 24.179163 20 40 24
5.052376 2.405893 24.058933 120 120 120
5.063721 2.388548 23.885477 120 120 120
5.082597 2.375045 23.750454 120 120 120
5.104706 2.363290 23.632898 31 21 21
5.123114 2.350052 23.500523 22 37 29
5.154780 2.343082 23.430817 44 16 28
5.183506 2.334913 23.349127 23 21 36
5.218660 2.329759 23.297588 42 23 30
5.258084 2.326586 23.265860 38 44 41
5.295958 2.322788 23.227884 30 31 31
5.339047 2.321325 23.213247 15 28 28
5.380917 2.319361 23.193609 21 31 44
5.425593 2.318629 23.186295 19 34 33
5.468452 2.317141 23.171408 23 25 42
5.505057 2.313049 23.130491 24 39 27
5.541344 2.308893 23.088932 43 24 24
5.572592 2.302724 23.027239 42 41 30
5.607238 2.298048 22.980484 41 39 26
5.641762 2.293399 22.933990 36 44 17
5.673183 2.287574 22.875736 40 15 27
5.709661 2.283865 22.838646 41 31 41
5.742784 2.278882 22.788824 24 39 28
5.779828 2.275523 22.755230 39 44 32
5.817411 2.272426 22.724260 39 23 28
5.851604 2.268064 22.680635 27 38 28
5.889357 2.265137 22.651375 15 42 36
5.923068 2.260713 22.607130 15 16 21
5.959396 2.257347 22.573469 41 16 35
5.995587 2.253980 22.539801 37 23 35
6.028835 2.249565 22.495651 25 41 24
6.065941 2.246645 22.466448 40 16 22
6.099030 2.242290 22.422905 20 19 36
6.133911 2.238654 22.386536 22 37 36
6.170304 2.235617 22.356174 30 38 30
6.206375 2.232509 22.325089 44 35 39
6.247207 2.231145 22.311453 15 23 41
6.289516 2.230325 22.303247 33 37 15
6.334483 2.230452 22.304518 38 27 26
6.381556 2.231313 22.313133 43 38 44
6.429055 2.232311 22.323107 34 33 41
6.476443 2.233256 22.332563 44 42 33
6.521423 2.233364 22.333641 43 39 43
6.564473 2.232814 22.328140 36 17 28
6.604625 2.231292 22.312923 27 44 22
6.642888 2.229157 22.291571 22 39 44
6.681837 2.227279 22.272789 35 19 30
6.713998 2.223178 22.231783 25 15 27
6.744541 2.218599 22.185989 29 21 37
6.776109 2.214415 22.144146 34 35 41
6.810627 2.211242 22.112425 25 19 27
6.852591 2.210513 22.105131 18 18 44
6.895905 2.210226 22.102261 21 17 30
6.941626 2.210709 22.107090 44 35 42
6.988089 2.211420 22.114204 40 15 42
7.031274 2.211093 22.110926 38 32 17
7.072883 2.210276 22.102758 17 26 25
7.117863 2.210517 22.105165 29 31 18
7.167442 2.212173 22.121735 35 24 30
7.216573 2.213673 22.136728 28 36 26
7.260420 2.213543 22.135426 15 20 20
7.300460 2.212261 22.122606 24 21 42
7.340237 2.210915 22.109146 22 35 33
7.378798 2.209221 22.092209 30 23 27
7.423545 2.209388 22.093884 40 19 17
7.478084 2.212451 22.124508 35 36 23
7.536976 2.216758 22.167576 36 39 21
7.612071 2.225752 22.257517 28 21 27
7.688274 2.234963 22.349634 20 34 28
7.765926 2.244487 22.444874 38 15 38
7.840191 2.252929 22.529285 19 23 16
7.897123 2.256321 22.563208 24 37 22
4.685144 2.654915 26.028576 35 27 16
4.697925 2.632903 25.812773 35 43 44
4.723640 2.618539 25.671955 38 30 35
4.752729 2.606335 25.552307 42 26 33
4.773978 2.590137 25.393497 34 17 42
4.806266 2.580206 25.296135 41 44 21
4.829938 2.565905 25.155928 42 29 34
4.861326 2.555955 25.058384 23 32 16
4.891697 2.545679 24.957638 31 26 22
4.912687 2.530778 24.811550 20 22 17
4.941326 2.520076 24.706629 15 42 44
4.956912 2.502995 24.539169 43 39 42
4.979093 2.489547 24.407320 41 43 20
4.999603 2.475531 24.269917 28 42 20
5.011212 2.457421 24.092363 21 20 16
5.034448 2.445303 23.973560 120 120 120
5.046215 2.427896 23.802902 120 120 120
5.065494 2.414394 23.670534 120 120 120
5.088052 2.402691 23.555796 21 37 17
5.106994 2.389511 23.426579 41 34 28
5.138940 2.382599 23.358818 37 36 33
5.167874 2.374429 23.278713 27 20 40
5.202997 2.369222 23.227665 42 16 39
5.242183 2.365941 23.195501 25 41 15
5.279725 2.361982 23.156689 20 20 24
5.322408 2.360372 23.140905 39 19 38
5.364023 2.358321 23.120790 17 42 15
5.408628 2.357607 23.113794 23 16 23
5.451585 2.356194 23.099937 38 22 25
5.488386 2.352165 23.060444 40 41 34
5.524850 2.348061 23.020208 15 43 31
5.556330 2.341924 22.960041 17 28 26
5.591104 2.337265 22.914362 25 39 40
5.625638 2.332582 22.868448 30 35 40
5.657001 2.326670 22.810490 26 32 26
5.693291 2.322863 22.773163 19 25 31
5.726017 2.317674 22.722290 24 37 28
5.762620 2.314123 22.687479 17 43 23
5.799645 2.310796 22.654861 30 37 40
5.833199 2.306148 22.609297 20 27 32
5.870464 2.303028 22.578707 38 20 26
5.903461 2.298294 22.532295 22 31 16
5.939160 2.294675 22.496817 25 17 22
5.974717 2.291057 22.461344 39 40 39
6.007220 2.286330 22.414999 41 41 42
6.043800 2.283213 22.384445 26 15 44
6.076281 2.278605 22.339268 36 37 38
6.110755 2.274807 22.302025 33 31 33
6.146765 2.271631 22.270887 31 23 34
6.182269 2.268314 22.238377 15 26 22
6.222621 2.266812 22.223646 18 17 32
6.264376 2.265838 22.214100 44 25 25
6.308953 2.265891 22.214622 40 20 17
6.355643 2.266698 22.222527 43 16 26
6.402743 2.267638 22.231747 22 27 27
6.449856 2.268570 22.240883 15 37 22
6.493743 2.268362 22.238846 35 22 16
6.535168 2.267303 22.228462 43 43 20
6.573696 2.265260 22.208433 33 34 25
6.610823 2.262765 22.183971 33 31 26
6.649451 2.260813 22.164837 29 42 19
6.681485 2.256661 22.124123 17 20 23
6.711896 2.252018 22.078606 24 43 30
6.743731 2.247910 22.038336 23 42 34
6.778921 2.244967 22.009483 44 43 33
6.821563 2.244514 22.005043 16 15 43
6.866339 2.244765 22.007496 23 38 19
6.913414 2.245759 22.017241 40 17 36
6.961334 2.247013 22.029537 17 19 23
7.006235 2.247283 22.032185 44 22 37
7.048826 2.246813 22.027582 38 43 24
7.095029 2.247494 22.034252 37 40 44
7.145300 2.249446 22.053394 30 36 23
7.194901 2.251165 22.070248 36 35 23
7.239126 2.251192 22.070505 18 38 23
7.279063 2.249892 22.057768 35 15 24
7.320832 2.249171 22.050699 19 44 34
7.362689 2.248486 22.043978 16 28 27
7.411054 2.249784 22.056707 26 15 25
7.468949 2.253943 22.097483 37 24 37
7.529490 2.258847 22.145559 25 32 44
7.604099 2.267889 22.234209 33 30 18
7.676209 2.276085 22.314562 28 36 17
7.750824 2.284925 22.401226 34 24 36
7.827547 2.294281 22.492952 35 31 22
4.680310 2.704179 26.001724 36 38 31
4.692771 2.681584 25.784458 35 18 43
4.717893 2.666635 25.640720 17 43 24
4.745968 2.653659 25.515955 23 32 35
4.766160 2.636599 25.351917 39 16 17
4.797678 2.626097 25.250935 24 15 25
4.820137 2.610908 25.104881 36 38 36
4.850446 2.600239 25.002300 18 19 36
4.879794 2.589278 24.896908 36 18 26
4.899652 2.573555 24.745718 33 42 40
4.927604 2.562354 24.638021 25 27 16
4.942657 2.544734 24.468599 38 41 19
4.964599 2.530972 24.336267 32 30 37
4.985206 2.516803 24.200031 19 41 18
4.997060 2.498530 24.024328 36 15 41
5.020598 2.486391 23.907608 120 120 120
5.032976 2.469007 23.740454 120 120 120
5.052782 2.455558 23.611132 120 120 120
5.075890 2.443947 23.499493 30 33 37
5.095493 2.430878 23.373823 21 15 42
5.127798 2.424050 23.308172 32 20 19
5.157069 2.415924 23.230040 34 27 44
5.192294 2.410708 23.179884 35 25 23
5.231385 2.407363 23.147720 25 20 28
5.268769 2.403298 23.108635 26 39 33
5.311203 2.401587 23.092186 30 37 36
5.352507 2.399400 23.071152 17 23 21
5.396759 2.398560 23.063074 30 34 40
5.439539 2.397085 23.048895 37 37 28
5.476536 2.393108 23.010654 33 22 34
5.513392 2.389137 22.972467 30 35 40
5.545204 2.383063 22.914066 30 35 40
5.580041 2.378378 22.869019 30 35 40
5.614461 2.373593 22.823011 30 35 40
5.645691 2.367548 22.764881 30 35 40
5.681774 2.363618 22.727097 30 35 40
5.714070 2.358187 22.674879 30 35 40
5.750225 2.354423 22.638681 30 43 20
5.786695 2.350845 22.604279 33 26 25
5.819582 2.345878 22.556520 40 33 31
5.856337 2.342535 22.524374 16 19 17
5.888596 2.337458 22.475555 39 32 17
5.923676 2.333569 22.438166 36 25 25
5.958625 2.329688 22.400846 17 42 18
5.990389 2.324629 22.352200 42 24 27
6.026456 2.321301 22.320206 35 27 22
6.058332 2.316421 22.273279 16 29 24
6.092392 2.312441 22.235008 35 30 37
6.128019 2.309109 22.202967 37 17 16
6.162971 2.305572 22.168961 36 15 35
6.202865 2.303921 22.153088 35 19 33
6.244048 2.302769 22.142014 35 19 18
6.288234 2.302734 22.141668 41 33 31
6.334477 2.303446 22.148520 22 34 43
6.380907 2.304216 22.155928 37 23 38
6.427439 2.305013 22.163582 41 18 29
6.470295 2.304489 22.158545 40 37 26
6.510596 2.303068 22.144886 28 43 22
6.548118 2.300690 22.122021 40 37 35
6.584435 2.297924 22.095421 22 23 26
6.622766 2.295892 22.075888 21 19 43
6.654721 2.291692 22.035500 22 35 26
6.685123 2.287016 21.990536 34 15 34
6.717271 2.282994 21.951866 29 32 24
6.753053 2.280251 21.925495 32 40 28
6.796254 2.280033 21.923399 19 19 22
6.842148 2.280716 21.929962 36 15 34
6.890214 2.282109 21.943357 36 38 34
6.939159 2.283774 21.959364 42 26 35
6.985258 2.284487 21.966221 26 42 33
7.028517 2.284268 21.964115 38 33 44
7.075458 2.285241 21.973473 34 42 41
7.126174 2.287414 21.994366 19 22 26
7.175874 2.289236 22.011885 39 16 18
7.219580 2.289135 22.010914 16 25 44
7.258542 2.287541 21.995583 41 32 16
7.301739 2.287292 21.993191 32 27 24
7.347531 2.287854 21.998596 25 20 24
7.399619 2.290358 22.022676 33 20 31
7.459069 2.295098 22.068251 32 27 30
7.518756 2.299855 22.113989 24 37 36
7.588372 2.307575 22.188223 37 33 22
7.649130 2.312528 22.235844 24 44 42
7.718175 2.319914 22.306864 41 25 31
7.807964 2.333415 22.436678 36 44 16
4.690267 2.731694 25.770699 22 23 29
4.715019 2.716261 25.625105 28 34 36
4.741987 2.702423 25.494553 40 44 26
4.761015 2.684402 25.324549 16 19 16
4.791564 2.673188 25.218756 29 20 26
4.812510 2.656907 25.065159 39 30 39
4.841516 2.645364 24.956268 23 18 31
4.869628 2.633574 24.845041 22 20 15
4.888124 2.616874 24.687494 27 44 17
4.915269 2.605093 24.576347 25 27 40
4.929676 2.586860 24.404335 30 43 41
4.951342 2.572756 24.271284 20 26 17
4.972056 2.558436 24.136192 44 42 36
4.984142 2.539995 23.962219 31 18 26
5.007980 2.527838 23.847525 120 120 120
5.021005 2.510503 23.683987 120 120 120
5.041391 2.497138 23.557903 120 120 120
5.065105 2.485654 23.449562 37 28 22
5.085413 2.472724 23.327583 26 16 20
5.118112 2.465999 23.264145 17 26 40
5.147746 2.457933 23.188046 24 17 33
5.183090 2.452712 23.138796 25 39 30
5.222098 2.449302 23.106627 34 18 17
5.259371 2.445146 23.067417 30 41 15
5.301592 2.443342 23.050400 18 16 26
5.342515 2.440976 23.028080 44 25 26
5.386222 2.439913 23.018044 32 27 42
5.428664 2.438298 23.002813 16 24 40
5.465914 2.434399 22.966026 30 35 40
5.503374 2.430657 22.930723 30 35 40
5.535630 2.424697 22.874502 30 35 40
5.570468 2.419957 22.829786 30 35 40
5.604639 2.415007 22.783087 30 35 40
5.635626 2.408776 22.724298 30 35 40
5.671442 2.404691 22.685766 30 35 40
5.703208 2.398968 22.631777 30 35 40
5.738835 2.394947 22.593838 30 35 40
5.774673 2.391075 22.557316 38 25 33
5.806797 2.385738 22.506964 42 23 19
5.842986 2.382140 22.473022 19 20 30
5.874462 2.376691 22.421612 31 26 27
5.908907 2.372516 22.382223 23 39 23
5.943261 2.368367 22.343088 28 23 38
5.974305 2.362971 22.292183 44 43 43
6.009878 2.359434 22.258808 32 33 32
6.041194 2.354289 22.210274 33 25 31
6.074904 2.350145 22.171183 19 40 35
6.110203 2.346672 22.138418 28 24 18
6.144651 2.342924 22.103060 26 18 41
6.184119 2.341131 22.086140 33 22 32
6.224716 2.339787 22.073462 24 42 32
6.268432 2.339626 22.071945 22 20 20
6.314155 2.340211 22.077465 33 16 34
6.359827 2.340770 22.082733 19 26 42
6.405715 2.341399 22.088671 33 34 37
6.447837 2.340653 22.081635 20 17 21
6.487613 2.339071 22.066710 35 27 26
6.524744 2.336564 22.043053 26 39 32
6.560622 2.333644 22.015511 25 20 17
6.598675 2.331532 21.995583 29 28 17
6.630705 2.327334 21.955978 40 34 25
6.661378 2.322717 21.912428 32 32 20
6.694021 2.318844 21.875885 27 17 44
6.730405 2.316308 21.851965 36 29 17
6.773994 2.316269 21.851595 44 20 44
6.820656 2.317274 21.861076 17 36 33
6.869337 2.318948 21.876869 26 41 15
6.918976 2.320922 21.895494 15 21 33
6.966138 2.322046 21.906094 38 22 41
7.010166 2.322117 21.906769 37 38 15
7.057638 2.323322 21.918131 23 43 35
7.108065 2.325478 21.938471 16 37 28
7.157444 2.327267 21.955351 38 15 32
7.201369 2.327272 21.955393 16 42 35
7.240732 2.325811 21.941612 43 30 40
7.285855 2.326207 21.945347 42 27 33
7.334572 2.327738 21.959795 23 19 40
7.389260 2.331136 21.991846 25 22 40
7.449654 2.336282 22.040396 20 18 31
7.508409 2.340857 22.083557 33 33 26
7.577191 2.348486 22.155529 37 21 40
7.635053 2.352662 22.194921 42 44 44
7.705489 2.360641 22.270199 23 40 24
4.689387 2.782713 25.765862 15 29 18
4.714339 2.767112 25.621408 24 15 26
4.740046 2.752285 25.484118 36 32 21
4.757642 2.733114 25.306608 32 30 37
4.786709 2.720866 25.193203 34 15 34
4.805439 2.703059 25.028328 27 28 21
4.832653 2.690343 24.910582 44 22 42
4.859063 2.677443 24.791138 18 26 15
4.875617 2.659427 24.624327 33 21 30
4.901608 2.646868 24.508039 36 19 30
4.914969 2.627805 24.331528 21 35 19
4.936121 2.613241 24.196672 17 23 27
4.956787 2.598704 24.062071 18 27 41
4.968878 2.579994 23.888838 36 31 21
4.992882 2.567768 23.775629 120 120 120
5.006438 2.550449 23.615273 120 120 120
5.027360 2.537172 23.492334 120 120 120
5.051675 2.525838 23.387384 42 20 36
5.072657 2.513059 23.269068 30 29 36
5.105725 2.506447 23.207842 15 36 21
5.135665 2.498432 23.133627 36 35 18
5.171059 2.493189 23.085087 40 34 37
5.209893 2.489683 23.052624 17 36 30
5.246956 2.485400 23.012966 42 43 33
5.288903 2.483485 22.995230 19 17 30
5.329425 2.480939 22.971659 34 32 42
5.372596 2.479660 22.959810 26 22 31
5.414770 2.477946 22.943941 30 35 40
5.452436 2.474214 22.909393 30 35 40
5.490661 2.470797 22.877752 30 35 40
5.523477 2.465023 22.824284 30 35 40
5.558304 2.460233 22.779936 30 35 40
5.592156 2.455093 22.732342 30 35 40
5.622845 2.448658 22.672764 30 35 40
5.658347 2.444406 22.633389 30 35 40
5.689500 2.438357 22.577379 30 35 40
5.724505 2.434042 22.537422 30 35 40
5.759618 2.429839 22.498508 30 35 40
5.790892 2.424094 22.445316 17 32 24
5.826471 2.420226 22.409502 40 44 28
5.857122 2.414386 22.355427 20 20 19
5.890903 2.409915 22.314028 16 34 38
5.924651 2.405497 22.273123 28 27 32
5.954980 2.399768 22.220076 25 18 16
5.990081 2.396032 22.185486 28 18 43
6.020892 2.390648 22.135633 23 22 42
6.054305 2.386368 22.096004 32 18 26
6.089336 2.382784 22.062811 37 41 43
6.123338 2.378851 22.026396 33 38 31
6.162395 2.376924 22.008553 19 23 16
6.202406 2.375390 21.994349 21 20 21
6.245585 2.375082 21.991497 35 20 40
6.290782 2.375540 21.995743 39 21 16
6.335914 2.375968 21.999702 34 40 36
6.381445 2.376538 22.004984 37 19 18
6.423210 2.375708 21.997293 41 44 17
6.462722 2.374061 21.982046 15 36 15
6.499658 2.371497 21.958303 27 16 37
6.535223 2.368470 21.930277 26 26 44
6.572978 2.366272 21.909927 39 32 26
6.605180 2.362117 21.871456 34 28 44
6.636346 2.357649 21.830086 28 23 19
6.669677 2.354004 21.796331 41 27 16
6.706691 2.351697 21.774971 35 20 27
6.750561 2.351809 21.776005 19 31 18
6.797859 2.353105 21.788010 44 18 25
6.846983 2.355013 21.805679 39 19 30
6.897292 2.357302 21.826874 26 39 18
6.945929 2.358995 21.842543 36 30 28
6.991325 2.359572 21.847891 25 41 24
7.039337 2.361020 21.861294 22 30 32
7.088242 2.362747 21.877291 21 20 29
7.136697 2.364305 21.891708 21 35 35
7.183028 2.365144 21.899477 30 35 26
7.226209 2.364941 21.897604 28 20 18
7.274511 2.366407 21.911179 22 37 40
7.323644 2.368124 21.927078 31 37 16
7.378041 2.371513 21.958456 29 18 38
7.437137 2.376363 22.003365 20 38 31
7.493856 2.380401 22.040754 22 38 34
7.573619 2.391669 22.145084 29 19 32
7.655279 2.403401 22.253717 29 43 22
7.747514 2.418299 22.391659 26 29 17
4.716816 2.819836 25.634871 19 20 16
4.741710 2.804237 25.493065 25 16 16
4.758333 2.784131 25.310284 32 20 21
4.786189 2.770951 25.190466 36 41 37
4.803176 2.751819 25.016541 41 25 27
4.829051 2.738121 24.892014 36 32 32
4.854191 2.724291 24.766281 25 19 34
4.869282 2.705156 24.592331 33 42 29
4.894407 2.691924 24.472034 37 33 16
4.906925 2.672088 24.291710 17 19 35
4.927648 2.657065 24.155136 24 26 40
4.948190 2.642237 24.020338 19 37 25
4.960133 2.623147 23.846794 28 34 43
4.984131 2.610736 23.733959 120 120 120
4.997897 2.593248 23.574984 120 120 120
5.019082 2.579902 23.453655 120 120 120
5.043718 2.568560 23.350546 25 42 39
5.065051 2.555760 23.234179 33 44 36
5.098306 2.549153 23.174118 19 39 37
5.128374 2.541086 23.100784 20 23 30
5.163748 2.535769 23.052446 44 36 35
5.202449 2.532165 23.019686 25 27 15
5.239368 2.527765 22.979685 41 43 39
5.281145 2.525765 22.961498 19 34 38
5.321431 2.523092 22.937202 27 15 31
5.364253 2.521657 22.924156 42 30 35
5.406281 2.519877 22.907969 30 35 40
5.444296 2.516271 22.875195 30 35 40
5.483115 2.513094 22.846313 30 35 40
5.516342 2.507428 22.794800 30 35 40
5.551134 2.502560 22.750549 30 35 40
5.584711 2.497229 22.702078 30 35 40
5.615176 2.490602 22.641838 30 35 40
5.650465 2.486205 22.601862 30 35 40
5.681210 2.479893 22.544485 30 35 40
5.715803 2.475348 22.503160 30 35 40
5.750457 2.470899 22.462721 30 35 40
5.781200 2.464853 22.407751 41 30 31
5.816414 2.460791 22.370825 23 36 23
5.846601 2.454680 22.315271 31 29 27
5.880019 2.450008 22.272799 41 30 23
5.913453 2.445413 22.231026 36 17 43
5.943432 2.439469 22.176987 32 25 18
5.978311 2.435608 22.141893 30 25 40
6.008924 2.430080 22.091633 35 35 22
6.042248 2.425720 22.052000 42 25 33
6.077211 2.422077 22.018879 33 32 26
6.111045 2.418039 21.982176 41 27 30
6.149916 2.416039 21.963987 37 19 24
6.189628 2.414394 21.949034 38 43 37
6.232457 2.413980 21.945271 29 30 20
6.277363 2.414370 21.948822 19 39 38
6.322345 2.414785 21.952587 30 15 27
6.367878 2.415402 21.958200 23 19 31
6.409841 2.414666 21.951509 16 18 32
6.449646 2.413133 21.937572 36 26 23
6.486864 2.410659 21.915081 40 26 30
6.522513 2.407639 21.887629 15 26 44
6.560109 2.405373 21.867031 41 24 40
6.592534 2.401254 21.829582 27 33 40
6.624225 2.396924 21.790215 44 20 29
6.658111 2.393438 21.758532 19 35 40
6.695471 2.391240 21.738543 19 16 37
6.739343 2.391380 21.739815 44 24 27
6.786727 2.392756 21.752329 28 38 39
6.835793 2.394704 21.770041 21 30 40
6.886280 2.397123 21.792027 42 34 18
6.935898 2.399210 21.811001 22 17 42
6.982449 2.400217 21.820154 40 19 27
7.030626 2.401767 21.834244 36 30 30
7.077544 2.402870 21.844273 26 19 43
7.124888 2.404103 21.855486 18 25 39
7.174274 2.406007 21.872787 27 43 19
7.222408 2.407469 21.886086 25 39 23
7.273409 2.409865 21.907860 28 38 20
7.320554 2.410961 21.917828 29 16 20
7.372177 2.413510 21.941002 39 23 24
7.428401 2.417527 21.977518 24 19 23
7.482839 2.420919 22.008350 26 25 28
7.578222 2.437440 22.158545 42 35 44
7.695252 2.460691 22.369919 19 40 38
4.743653 2.856393 25.503510 40 28 18
4.759946 2.835713 25.318863 16 29 39
4.787061 2.821846 25.195057 31 37 17
4.802330 2.801359 25.012135 44 33 43
4.826457 2.786408 24.878645 19 24 34
4.849610 2.771206 24.742907 44 38 29
4.862458 2.750482 24.557871 42 25 23
4.886143 2.736240 24.430716 30 43 29
4.897166 2.715260 24.243395 29 18 18
4.917062 2.699563 24.103245 44 33 40
4.937206 2.684306 23.967018 43 33 15
4.948660 2.664663 23.791634 42 27 42
4.972471 2.651984 23.678432 120 120 120
4.986298 2.634271 23.520273 120 120 120
5.007729 2.620868 23.400604 120 120 120
5.032708 2.609552 23.299574 43 33 38
5.054328 2.596719 23.184990 16 44 20
5.087685 2.590094 23.125843 16 44 25
5.117741 2.581923 23.052887 41 34 38
5.152949 2.576475 23.004238 20 17 25
5.191346 2.572702 22.970556 17 36 41
5.227941 2.568112 22.929567 32 16 33
5.269428 2.565982 22.910555 18 36 41
5.309248 2.563085 22.884689 23 15 16
5.351462 2.561384 22.869497 29 17 37
5.393106 2.559440 22.852146 30 35 40
5.431325 2.555918 22.820692 30 35 40
5.470713 2.552999 22.794636 30 35 40
5.504287 2.547438 22.744986 30 35 40
5.538966 2.542476 22.700682 30 35 40
5.572167 2.536922 22.651087 30 35 40
5.602236 2.530042 22.589663 30 35 40
5.637155 2.525445 22.548618 30 35 40
5.667280 2.518791 22.489206 30 35 40
5.701275 2.513948 22.445963 30 35 40
5.735308 2.509197 22.403547 30 35 40
5.765382 2.502802 22.346443 18 37 21
5.800158 2.498530 22.308300 15 16 27
5.829844 2.492147 22.251314 23 30 25
5.862893 2.487288 22.207930 43 44 28
5.896049 2.482547 22.165596 21 23 41
5.925721 2.476421 22.110901 21 35 40
5.960406 2.472465 22.075579 25 42 18
5.990922 2.466850 22.025448 23 44 29
6.024276 2.462478 21.986410 31 28 20
6.059253 2.458827 21.953815 28 44 20
6.092959 2.454717 21.917118 25 43 19
6.131598 2.452639 21.898565 28 29 28
6.170802 2.450815 21.882277 28 34 30
6.213015 2.450203 21.876812 39 27 30
6.257261 2.450396 21.878536 42 30 28
6.301518 2.450590 21.880272 19 17 26
6.346537 2.451076 21.884611 28 17 32
6.388670 2.450449 21.879007 31 22 36
6.429355 2.449278 21.868553 17 34 43
6.467567 2.447188 21.849890 42 40 36
6.503564 2.444293 21.824041 28 37 24
6.540838 2.441913 21.802794 15 21 20
6.573502 2.437855 21.766563 33 19 22
6.605942 2.433768 21.730074 42 20 37
6.640600 2.430546 21.701307 23 24 41
6.678355 2.428493 21.682970 37 24 15
6.722100 2.428630 21.684195 18 24 15
6.769503 2.430078 21.697124 27 28 30
6.818491 2.432073 21.714939 28 25 30
6.869211 2.434657 21.738010 36 44 28
6.919778 2.437154 21.760307 38 35 17
6.967401 2.438590 21.773127 18 40 43
7.016777 2.440618 21.791233 30 16 29
7.063731 2.441784 21.801640 37 16 29
7.111762 2.443305 21.815222 35 44 44
7.164148 2.446294 21.841913 22 36 19
7.215709 2.448968 21.865786 25 15 34
7.269867 2.452485 21.897190 23 38 29
7.315152 2.452985 21.901653 34 44 19
7.368613 2.456204 21.930395 23 34 18
7.438638 2.464874 22.007805 30 23 22
7.510440 2.474027 22.089529 32 36 33
7.622626 2.496299 22.288380 21 30 17
4.762138 2.887679 25.330519 19 16 21
4.789517 2.873710 25.207985 23 44 42
4.803971 2.852358 25.020681 18 36 41
4.826654 2.836281 24.879658 33 44 36
4.847854 2.819670 24.733950 25 17 44
4.858604 2.797378 24.538406 24 29 25
4.880904 2.782116 24.404522 42 43 37
4.890497 2.759983 24.210381 22 40 31
4.909643 2.743624 24.066879 30 15 39
4.929438 2.727941 23.929310 29 40 25
4.940404 2.707721 23.751942 41 31 25
4.964013 2.694750 23.638155 120 120 120
4.977832 2.676759 23.480339 120 120 120
4.999441 2.663253 23.361872 120 120 120
5.024681 2.651915 23.262413 29 24 33
5.046487 2.638988 23.149021 30 44 40
5.079883 2.632303 23.090376 18 38 27
5.109882 2.623993 23.017485 43 30 20
5.144934 2.618404 22.968456 15 28 18
5.183080 2.614474 22.933981 39 26 23
5.219422 2.609711 22.892202 41 25 21
5.260706 2.607480 22.872635 24 34 26
5.300155 2.604386 22.845495 30 39 23
5.341869 2.602449 22.828501 30 35 40
5.383170 2.600345 22.810041 30 35 40
5.421471 2.596839 22.779289 30 35 40
5.461246 2.594092 22.755194 30 35 40
5.494970 2.588539 22.706486 30 35 40
5.529406 2.583411 22.661499 30 35 40
5.562185 2.577598 22.610510 30 35 40
5.591873 2.570458 22.547876 30 35 40
5.626509 2.565688 22.506037 30 35 40
5.656187 2.558751 22.445185 30 35 40
5.689741 2.553663 22.400555 30 35 40
5.723349 2.548679 22.356833 30 35 40
5.752981 2.542015 22.298374 30 35 40
5.787476 2.537586 22.259523 23 32 18
5.816889 2.531013 22.201866 26 34 40
5.849746 2.526027 22.158129 39 19 42
5.882797 2.521199 22.115780 27 23 36
5.912358 2.514958 22.061039 19 27 44
5.946966 2.510941 22.025799 20 42 34
5.977520 2.505284 21.976175 28 28 41
6.011008 2.500930 21.937986 40 15 18
6.046070 2.497290 21.906052 19 38 35
6.079741 2.493131 21.869572 41 41 20
6.118205 2.490983 21.850731 40 31 20
6.156964 2.488985 21.833204 33 26 16
6.198639 2.488186 21.826195 25 25 15
6.242237 2.488164 21.826002 15 38 31
6.285565 2.488036 21.824879 35 31 28
6.329796 2.488265 21.826883 27 37 41
6.372038 2.487713 21.822046 39 15 30
6.413914 2.487028 21.816032 20 28 24
6.453424 2.485440 21.802109 20 17 33
6.489669 2.482625 21.777414 22 25 41
6.526306 2.479996 21.754353 30 27 43
6.558784 2.475832 21.717827 25 20 39
6.591703 2.471889 21.683235 17 35 24
6.626881 2.468838 21.656475 25 24 39
6.664686 2.466799 21.638592 37 19 33
6.708086 2.466845 21.638988 28 37 34
6.755253 2.468265 21.651451 39 27 39
6.804102 2.470279 21.669115 34 40 37
6.854918 2.472977 21.692778 40 16 38
6.905683 2.475622 21.715984 32 21 35
6.953514 2.477190 21.729733 16 32 24
7.004572 2.479879 21.753328 29 18 24
7.053934 2.481940 21.771400 21 17 32
7.104658 2.484451 21.793430 20 36 41
7.159481 2.488356 21.827686 16 42 21
7.212163 2.491475 21.855040 41 24 44
7.267149 2.495346 21.889002 26 33 37
7.306810 2.493941 21.876677 42 32 22
7.363149 2.498211 21.914135 19 39 21
7.463079 2.517133 22.080116 22 17 16
7.574621 2.539726 22.278297 16 42 21
4.791836 2.925542 25.220188 43 32 40
4.806051 2.903656 25.031513 29 15 17
4.827881 2.886774 24.885986 40 39 22
4.847692 2.869042 24.733120 32 19 41
4.856898 2.845455 24.529787 30 26 39
4.878071 2.829281 24.390354 27 29 25
4.886340 2.806017 24.189802 26 36 43
4.904655 2.788921 24.042425 19 36 40
4.923862 2.772660 23.902241 35 23 41
4.934105 2.751712 23.721659 26 44 27
4.957327 2.738333 23.606318 120 120 120
4.970843 2.719895 23.447374 120 120 120
4.992406 2.706164 23.329000 120 120 120
5.017676 2.694678 23.229980 43 15 43
5.039361 2.681495 23.116333 42 16 31
5.072592 2.674639 23.057236 43 16 15
5.102282 2.666057 22.983253 23 38 15
5.137021 2.660243 22.933130 34 34 29
5.174800 2.656092 22.897346 24 30 16
5.210738 2.651077 22.854113 43 44 33
5.251737 2.648702 22.833637 36 32 26
5.290687 2.645344 22.804688 21 29 28
5.331841 2.643135 22.785645 36 17 34
5.372656 2.640797 22.765491 30 35 40
5.410658 2.637128 22.733858 30 35 40
5.450414 2.634367 22.710060 30 35 40
5.484070 2.628728 22.661446 30 35 40
5.518424 2.623513 22.616493 30 35 40
5.551036 2.617562 22.565187 30 35 40
5.580395 2.610185 22.501591 30 35 40
5.614668 2.605206 22.458673 30 35 40
5.643864 2.597969 22.396284 30 35 40
5.676999 2.592645 22.350389 30 35 40
5.710232 2.587449 22.305593 30 35 40
5.739506 2.580553 22.246149 22 31 44
5.773800 2.576003 22.206923 28 37 20
5.803080 2.569302 22.149158 21 42 21
5.835872 2.564247 22.105577 16 32 16
5.868947 2.559390 22.063711 22 40 35
5.898550 2.553104 22.009516 16 18 34
5.933184 2.549072 21.974756 28 36 36
5.963905 2.543430 21.926121 38 33 25
5.997614 2.539136 21.889103 21 24 15
6.032833 2.535539 21.858091 43 36 36
6.066562 2.531371 21.822165 22 24 36
6.104918 2.529180 21.803278 27 41 20
6.143248 2.527010 21.784567 15 17 30
6.184378 2.526014 21.775980 36 25 43
6.227248 2.525737 21.773594 32 30 31
6.269527 2.525226 21.769190 31 41 33
6.312848 2.525139 21.768440 41 30 24
6.355075 2.524619 21.763956 18 18 34
6.397991 2.524377 21.761873 41 41 25
6.438812 2.523318 21.752745 16 20 27
6.475681 2.520735 21.730473 26 31 25
6.512188 2.518046 21.707293 42 22 34
6.544929 2.513946 21.671949 40 22 34
6.578428 2.510189 21.639565 34 30 32
6.614132 2.507318 21.614811 44 22 25
6.652186 2.505369 21.598005 27 20 41
6.695440 2.505391 21.598194 32 29 37
6.742575 2.506855 21.610817 31 33 43
6.791387 2.508920 21.628620 15 18 42
6.842338 2.511744 21.652969 37 42 21
6.893346 2.514554 21.677189 39 39 38
6.941379 2.516250 21.691809 44 23 30
6.994260 2.519671 21.721304 30 22 21
7.046727 2.522902 21.749157 38 42 39
7.100175 2.526442 21.779676 31 22 26
7.154895 2.530390 21.813705 22 16 26
7.205165 2.532725 21.833834 42 18 38
7.262126 2.537369 21.873873 28 33 25
7.304414 2.536862 21.869503 19 15 19
7.370153 2.544458 21.934980 41 25 37
7.496907 2.572903 22.180197 33 18 44
4.805456 2.953353 25.028416 24 18 17
4.827126 2.936087 24.882095 35 15 16
4.846466 2.917770 24.726868 40 43 39
4.854727 2.893221 24.518822 29 21 16
4.874956 2.876224 24.374779 36 20 17
4.881927 2.851819 24.167955 15 21 41
4.899263 2.833887 24.015993 26 21 41
4.917600 2.816878 23.871843 41 25 37
4.926859 2.795045 23.686821 23 37 30
4.949523 2.781161 23.569159 120 120 120
4.962503 2.762148 23.408035 120 120 120
4.983843 2.748100 23.288986 120 120 120
5.008971 2.736382 23.189682 40 29 18
5.030293 2.722819 23.074739 25 31 29
5.063191 2.715711 23.014503 22 19 28
5.092324 2.706731 22.938396 41 30 20
5.126544 2.700590 22.886356 39 29 22
5.163750 2.696117 22.848452 29 31 22
5.199016 2.690719 22.802702 42 35 35
5.239539 2.688111 22.780603 18 23 24
5.277713 2.684354 22.748762 40 29 38
5.318119 2.681787 22.727005 44 16 38
5.358228 2.679114 22.704355 30 35 40
5.395453 2.675056 22.669970 30 35 40
5.434725 2.672073 22.644690 30 35 40
5.468235 2.666329 22.596012 30 35 40
5.502980 2.661277 22.553198 30 35 40
5.535939 2.655451 22.503819 30 35 40
5.564999 2.647862 22.439512 30 35 40
5.598588 2.642533 22.394350 30 35 40
5.626981 2.634856 22.329290 30 35 40
5.659558 2.629243 22.281723 30 35 40
5.692332 2.623809 22.235670 30 35 40
5.721138 2.616645 22.174953 33 36 41
5.755164 2.611959 22.135244 40 32 22
5.784246 2.605119 22.077276 41 19 16
5.816941 2.599996 22.033867 41 23 29
5.850016 2.595120 21.992542 30 20 20
5.879655 2.588803 21.939011 36 22 41
5.914299 2.584768 21.904810 41 23 44
5.945177 2.579158 21.857267 42 24 28
5.979087 2.574935 21.821486 42 28 33
6.014433 2.571388 21.791426 33 35 28
6.048200 2.567222 21.756117 16 16 33
6.086417 2.564990 21.737204 31 17 42
6.124223 2.562618 21.717104 36 26 25
6.164654 2.561370 21.706530 21 21 20
6.206638 2.560781 21.701532 36 24 26
6.247787 2.559857 21.693705 31 15 27
6.290197 2.559459 21.690334 33 42 37
6.332131 2.558875 21.685379 27 39 40
6.375384 2.558828 21.684980 35 23 23
6.417141 2.558184 21.679529 26 37 26
6.455241 2.556102 21.661882 31 35 42
6.492759 2.553819 21.642530 37 43 34
6.526786 2.550201 21.611876 36 35 15
6.561054 2.546725 21.582415 33 35 27
6.597365 2.544082 21.560015 18 16 25
6.636271 2.542468 21.546335 34 15 17
6.679992 2.542707 21.548361 41 28 23
6.727758 2.544473 21.563328 37 29 26
6.776755 2.546679 21.582022 23 34 27
6.828127 2.549744 21.607998 43 41 39
6.880430 2.553116 21.636574 42 42 34
6.929789 2.555360 21.655592 23 18 41
6.984560 2.559559 21.691179 37 32 19
7.039521 2.563776 21.726917 39 16 43
7.093572 2.567612 21.759424 30 17 24
7.142174 2.569441 21.774921 25 34 39
7.183296 2.568573 21.767565 31 36 28
7.246241 2.575471 21.826027 44 17 35
7.312693 2.583526 21.894289 36 27 19
7.402347 2.599634 22.030794 25 20 31
4.825798 2.985030 24.875246 19 43 31
4.845802 2.966818 24.723480 34 16 25
4.854241 2.941964 24.516369 27 33 41
4.874220 2.924532 24.371099 40 32 32
4.880593 2.899362 24.161350 19 30 42
4.897298 2.880764 24.006365 16 30 40
4.914907 2.863053 23.858774 32 34 30
4.923407 2.840427 23.670227 42 34 15
4.945604 2.826059 23.550495 120 120 120
4.958036 2.806435 23.386961 120 120 120
4.979057 2.791994 23.266621 120 120 120
5.003900 2.779945 23.166204 42 27 22
5.024757 2.765921 23.049343 24 18 36
5.057289 2.758521 22.987677 33 37 44
5.085862 2.749115 22.909290 20 36 17
5.119626 2.742657 22.855473 37 33 31
5.156357 2.737888 22.815737 23 38 30
5.191037 2.732125 22.767708 32 24 33
5.231156 2.729299 22.744158 29 32 40
5.268704 2.725192 22.709932 38 34 18
5.308586 2.722352 22.686266 23 35 39
5.348123 2.719384 22.661537 30 35 40
5.384468 2.714858 22.623814 30 35 40
5.423002 2.711501 22.595842 30 35 40
5.456300 2.705603 22.546694 30 35 40
5.491643 2.700808 22.506733 30 35 40
5.525251 2.695244 22.460369 30 35 40
5.554204 2.687518 22.395983 30 35 40
5.587173 2.681843 22.348694 30 35 40
5.614924 2.673773 22.281443 30 35 40
5.647129 2.667935 22.232792 30 35 40
5.679642 2.662332 22.186102 30 35 40
5.708172 2.654964 22.124699 36 40 28
5.742048 2.650176 22.084801 35 21 16
5.771057 2.643232 22.026934 38 15 27
5.803721 2.638055 21.983791 41 27 37
5.836838 2.633160 21.943001 15 16 23
5.866551 2.626814 21.890114 17 44 42
5.901230 2.622769 21.856409 16 15 25
5.932233 2.617161 21.809679 25 36 26
5.966259 2.612960 21.774670 41 42 18
6.001679 2.609426 21.745213 38 21 19
6.035487 2.605246 21.710386 15 22 42
6.073644 2.602990 21.691586 19 44 41
6.111122 2.600477 21.670645 32 32 37
6.151091 2.599052 21.658770 18 27 15
6.192480 2.598243 21.652029 22 21 39
6.232942 2.597059 21.642159 34 33 16
6.274836 2.596484 21.637365 25 33 33
6.316370 2.595768 21.631403 43 39 21
6.359248 2.595611 21.630095 15 21 27
6.401219 2.595089 21.625740 28 41 35
6.440520 2.593498 21.612484 44 20 44
6.479559 2.591824 21.598530 24 15 20
6.515128 2.588793 21.573273 23 27 25
6.549929 2.585498 21.545820 25 30 16
6.586574 2.582970 21.524752 30 41 36
6.626397 2.581713 21.514275 26 23 33
6.670869 2.582272 21.518932 16 20 31
6.719501 2.584424 21.536863 38 43 15
6.768777 2.586794 21.556614 19 20 29
6.820577 2.590093 21.584105 19 35 25
6.874304 2.594077 21.617310 30 16 15
6.925151 2.596932 21.641096 15 23 39
6.981011 2.601619 21.680159 36 19 32
7.037178 2.606362 21.719687 41 32 30
7.090040 2.609831 21.748590 23 17 38
7.129989 2.608532 21.737770 16 29 16
7.159958 2.603621 21.696842 23 23 42
7.229135 2.612940 21.774504 35 30 17
7.326884 2.632413 21.936777 38 34 24
4.844841 3.015666 24.718576 34 23 36
4.854047 2.990877 24.515387 40 32 22
4.874676 2.973552 24.373379 16 37 32
4.880782 2.947799 24.162285 38 38 25
4.896437 2.928261 24.002140 32 23 42
4.912506 2.909348 23.847115 42 35 40
4.919501 2.885476 23.651445 21 25 34
4.940738 2.870333 23.527323 120 120 120
4.951925 2.849692 23.358135 120 120 120
4.972112 2.834569 23.234169 120 120 120
4.996184 2.821919 23.130482 21 15 18
5.015937 2.807084 23.008884 38 34 26
5.047673 2.799164 22.943970 28 20 30
5.075156 2.789049 22.861061 42 16 39
5.108094 2.782087 22.803991 19 21 17
5.144051 2.776877 22.761290 23 20 41
5.177778 2.770565 22.709551 24 24 37
5.217273 2.767423 22.683794 42 25 28
5.253853 2.762802 22.645916 15 30 23
5.292907 2.759550 22.619259 31 43 37
5.331597 2.756165 22.591513 24 41 23
5.366771 2.751034 22.549459 30 35 40
5.404408 2.747241 22.518368 30 35 40
5.437216 2.741076 22.467834 30 35 40
5.472778 2.736389 22.429417 30 35 40
5.506827 2.731028 22.385477 30 35 40
5.535859 2.723285 22.322012 30 35 40
5.568645 2.717499 22.274580 30 35 40
5.596035 2.709192 22.206490 30 35 40
5.627772 2.703103 22.156584 30 35 40
5.659816 2.697256 22.108656 44 21 20
5.688004 2.689676 22.046526 35 41 35
5.721725 2.684810 22.006636 37 32 31
5.750727 2.677819 21.949339 31 20 44
5.783438 2.672650 21.906963 32 22 15
5.816715 2.667817 21.867350 20 31 25
5.846668 2.661543 21.815924 27 27 26
5.881500 2.657567 21.783333 36 23 21
5.912838 2.652082 21.738377 25 20 28
5.947151 2.648001 21.704929 38 35 32
5.982808 2.644575 21.676842 15 26 33
6.016882 2.640502 21.643461 22 17 18
6.055115 2.638300 21.625412 40 23 42
6.092406 2.635722 21.604277 38 37 41
6.131946 2.634146 21.591360 30 43 28
6.172746 2.633130 21.583029 36 21 39
6.212614 2.631732 21.571577 19 32 41
6.254051 2.631015 21.565693 17 34 41
6.295291 2.630224 21.559216 18 21 26
6.337813 2.629977 21.557186 42 40 29
6.380066 2.629622 21.554276 29 38 15
6.420679 2.628600 21.545902 41 20 30
6.461311 2.627600 21.537703 32 15 26
6.499141 2.625481 21.520334 16 20 28
6.535607 2.622842 21.498707 39 28 27
6.573703 2.620888 21.482691 15 25 43
6.615124 2.620276 21.477674 19 21 17
6.660354 2.621171 21.485012 37 20 19
6.710056 2.623804 21.506590 32 33 20
6.760236 2.626589 21.529415 22 42 18
6.812613 2.630186 21.558903 24 23 24
6.866741 2.634410 21.593525 43 20 39
6.917484 2.637291 21.617138 24 44 31
6.972909 2.641910 21.654997 34 37 36
7.027556 2.646178 21.689987 44 44 15
7.080244 2.649662 21.718540 36 39 29
7.122881 2.649364 21.716101 22 19 28
7.156731 2.645822 21.687065 36 40 35
7.234354 2.658407 21.790222 22 40 28
4.853929 3.039834 24.514793 33 29 39
4.876054 3.023153 24.380268 37 23 42
4.882372 2.997099 24.170156 20 16 31
4.896738 2.976449 24.003618 32 44 33
4.910859 2.956051 23.839123 38 27 17
4.916254 2.930844 23.635836 28 22 36
4.936628 2.914961 23.507753 120 120 120
4.946617 2.893304 23.333099 120 120 120
4.965941 2.877461 23.205332 120 120 120
4.989206 2.864174 23.098175 23 33 19
5.007857 2.848506 22.971819 18 36 25
5.038823 2.840064 22.903742 34 27 39
5.065309 2.829272 22.816708 16 43 25
5.097522 2.821843 22.756796 30 15 20
5.132853 2.816256 22.711739 31 39 41
5.165829 2.809486 22.657146 38 39 16
5.204857 2.806097 22.629812 30 31 40
5.240742 2.801086 22.589403 30 18 44
5.279187 2.797518 22.560629 42 21 30
5.317289 2.793830 22.530884 24 31 27
5.351757 2.788311 22.486376 38 23 44
5.388896 2.784263 22.453732 30 35 40
5.421325 2.777869 22.402170 30 35 40
5.456712 2.773083 22.363573 30 35 40
5.490841 2.767741 22.320494 30 35 40
5.520204 2.760102 22.258886 30 35 40
5.553393 2.754483 22.213572 30 35 40
5.580970 2.746192 22.146708 30 35 40
5.612449 2.739936 22.096254 41 44 25
5.644114 2.733868 22.047321 17 34 18
5.672134 2.726142 21.985016 43 24 35
5.705797 2.721226 21.945374 32 23 42
5.734896 2.714226 21.888918 38 40 39
5.767708 2.709075 21.847378 18 26 35
5.801174 2.704307 21.808926 25 19 36
5.831412 2.698116 21.758999 27 24 25
5.866422 2.694209 21.727489 44 42 41
5.898101 2.688840 21.684195 23 15 20
5.932690 2.684867 21.652153 34 36 19
5.968586 2.681539 21.625313 35 19 15
6.002936 2.677568 21.593294 36 29 17
6.041266 2.675418 21.575951 31 29 19
6.078495 2.672813 21.554947 40 36 41
6.117772 2.671140 21.541451 30 41 32
6.158190 2.669984 21.532131 37 42 29
6.197692 2.668451 21.519764 40 32 20
6.238851 2.667647 21.513279 36 36 17
6.279831 2.666778 21.506271 29 29 37
6.322016 2.666429 21.503456 27 43 31
6.364279 2.666117 21.500942 30 23 32
6.405376 2.665324 21.494551 18 36 32
6.446673 2.664625 21.488911 26 29 38
6.486201 2.663208 21.477488 44 21 20
6.524610 2.661354 21.462532 36 25 38
6.564619 2.660173 21.453005 32 18 20
6.607496 2.660161 21.452908 23 19 24
6.653073 2.661229 21.461527 39 15 44
6.703879 2.664362 21.486792 15 37 15
6.756387 2.668127 21.517157 30 36 22
6.809540 2.672098 21.549177 32 25 26
6.860681 2.675234 21.574469 19 31 37
6.906473 2.676258 21.582727 24 21 22
6.956551 2.678920 21.604195 24 23 23
7.004440 2.680711 21.618641 44 31 36
7.057583 2.684479 21.649027 25 30 27
7.117793 2.690873 21.700588 36 35 28
4.885130 3.047160 24.183811 24 44 20
4.898816 3.025739 24.013802 35 43 17
4.911535 3.004143 23.842402 18 18 37
4.915512 2.977666 23.632269 26 19 27
4.934847 2.960908 23.499269 120 120 120
4.943394 2.938055 23.317898 120 120 120
4.961685 2.921366 23.185444 120 120 120
4.983966 2.907313 23.073915 37 35 31
5.001317 2.890669 22.941820 41 28 15
5.031401 2.881620 22.870003 33 16 36
5.056773 2.870060 22.778257 42 41 22
5.088216 2.862122 22.715252 24 33 16
5.122892 2.856126 22.667664 42 28 42
5.155049 2.848843 22.609863 34 25 44
5.193558 2.845167 22.580688 23 25 27
5.228658 2.839702 22.537317 42 24 21
5.266415 2.835762 22.506046 25 18 27
5.303849 2.831716 22.473938 31 17 20
5.337544 2.825759 22.426655 23 40 20
5.374176 2.821442 22.392401 27 36 18
5.405990 2.814689 22.338802 22 43 27
5.440759 2.809572 22.298191 24 29 29
5.474597 2.804062 22.254459 30 35 40
5.504237 2.796508 22.194506 36 41 42
5.538055 2.791180 22.152222 21 27 20
5.565982 2.782991 22.087229 38 18 33
5.597182 2.776555 22.036148 29 24 39
5.628405 2.770231 21.985958 34 34 25
5.656228 2.762344 21.923365 30 31 31
5.689832 2.757380 21.883970 35 32 30
5.719038 2.750377 21.828390 19 23 24
5.751973 2.745260 21.787775 34 38 30
5.785665 2.740578 21.750622 25 25 15
5.816235 2.734499 21.702370 20 29 35
5.851467 2.730684 21.672098 31 26 20
5.883571 2.725478 21.630777 38 40 22
5.918499 2.721645 21.600361 29 32 40
5.954734 2.718465 21.575123 23 19 26
5.989545 2.714686 21.545126 25 36 29
6.028156 2.712670 21.529129 31 24 21
6.065657 2.710187 21.509420 36 18 23
6.104972 2.708544 21.496382 17 28 34
6.145371 2.707401 21.487310 24 27 24
6.185014 2.705944 21.475742 17 26 20
6.226283 2.705213 21.469942 26 31 26
6.267490 2.704465 21.464006 23 24 23
6.309712 2.704162 21.461607 43 23 33
6.352223 2.703987 21.460213 20 38 27
6.393898 2.703460 21.456034 20 32 34
6.435748 2.703014 21.452494 30 38 19
6.476967 2.702311 21.446909 25 26 18
6.517521 2.701341 21.439215 23 17 31
6.559581 2.701004 21.436539 27 17 42
6.603871 2.701584 21.441139 22 29 20
6.649629 2.702752 21.450415 36 25 15
6.700771 2.706081 21.476830 31 41 43
6.753731 2.710096 21.508698 39 16 20
6.807039 2.714199 21.541262 38 39 37
6.857838 2.717257 21.565529 19 43 20
6.902947 2.718035 21.571709 35 37 37
6.952519 2.720551 21.591673 26 28 43
6.997539 2.721265 21.597342 43 30 44
7.052514 2.725818 21.633478 20 23 28
4.914000 3.053359 23.854370 27 42 37
4.916920 3.025797 23.639040 42 23 27
4.934881 3.007928 23.499435 120 120 120
4.941608 2.983613 23.309473 120 120 120
4.958691 2.965946 23.171453 120 120 120
4.979807 2.950997 23.054663 30 29 44
4.995609 2.933201 22.915636 29 22 24
5.024640 2.923427 22.839272 22 35 25
5.048657 2.910938 22.741699 37 29 38
5.079179 2.902388 22.674908 21 36 18
5.113034 2.895878 22.624046 27 20 21
5.144110 2.887921 22.561884 15 20 41
5.181902 2.883841 22.530008 38 25 43
5.215861 2.877717 22.482161 19 43 23
5.252617 2.873226 22.447081 15 33 20
5.289049 2.868637 22.411226 44 34 32
5.321548 2.862009 22.359446 28 19 40
5.357388 2.857273 22.322449 17 30 34
5.388204 2.849959 22.265305 26 29 38
5.422057 2.844358 22.221544 41 34 18
5.455371 2.838567 22.176304 19 23 17
5.485074 2.831006 22.117233 29 25 39
5.519452 2.825959 22.077808 35 36 25
5.547513 2.817784 22.013941 38 32 18
5.578150 2.811036 21.961222 34 33 15
5.608661 2.804330 21.908831 17 19 24
5.636075 2.796192 21.845253 30 31 40
5.669547 2.791161 21.805948 19 38 23
5.698822 2.784157 21.751230 16 19 24
5.731879 2.779093 21.711662 21 23 38
5.765843 2.774541 21.676100 19 22 19
5.796788 2.768615 21.629805 20 21 31
5.832275 2.764930 21.601019 19 44 30
5.864916 2.759961 21.562193 17 19 39
5.900266 2.756329 21.533819 19 26 27
5.936977 2.753381 21.510788 26 39 30
5.972479 2.749918 21.483738 29 40 37
6.011534 2.748130 21.469763 24 28 33
6.049581 2.745909 21.452414 16 40 42
6.089103 2.744384 21.440502 18 42 16
6.129696 2.743361 21.432505 40 23 42
6.169811 2.742138 21.422956 29 25 21
6.211449 2.741605 21.418791 19 15 24
6.253413 2.741222 21.415798 25 26 34
6.296192 2.741199 21.415619 22 16 37
6.339499 2.741405 21.417227 23 33 29
6.382405 2.741436 21.417467 26 21 28
6.425221 2.741428 21.417404 24 20 33
6.468667 2.741687 21.419428 29 40 43
6.512095 2.741935 21.421366 16 40 15
6.556312 2.742510 21.425858 36 18 19
6.601261 2.743381 21.432667 40 36 15
6.645971 2.744143 21.438616 29 34 42
6.693858 2.746198 21.454672 40 20 24
6.739812 2.747439 21.464371 21 35 42
6.790496 2.750581 21.488911 30 38 15
6.850345 2.757372 21.541965 19 22 27
6.910393 2.764157 21.594978 19 23 33
6.976862 2.773411 21.667274 40 20 27
4.937104 3.056303 23.510021 120 120 120
4.942553 3.030811 23.313929 120 120 120
4.958833 3.012375 23.172117 120 120 120
4.979163 2.996719 23.051682 18 26 26
4.993930 2.978031 22.907934 27 21 27
5.022264 2.967702 22.828474 22 29 24
5.045383 2.954504 22.726952 39 29 36
5.075314 2.945495 22.657652 22 27 25
5.108634 2.938595 22.604576 40 20 38
5.138954 2.930105 22.539272 32 39 29
5.176231 2.925696 22.505352 32 31 19
5.209333 2.919023 22.454023 35 20 38
5.245343 2.914080 22.415997 19 25 44
5.281007 2.909029 22.377150 37 25 23
5.312593 2.901837 22.321819 43 25 32
5.347840 2.896746 22.282665 26 42 27
5.377794 2.888898 22.222290 41 21 27
5.410800 2.882803 22.175411 26 23 19
5.443536 2.876665 22.128195 19 40 42
5.473122 2.868975 22.069040 15 32 42
5.507852 2.864083 22.031408 24 26 30
5.535918 2.855831 21.967928 30 27 26
5.566064 2.848773 21.913637 22 28 23
5.595988 2.841713 21.859327 33 18 15
5.623046 2.833318 21.794752 36 29 30
5.656404 2.828202 21.755402 40 40 26
5.685706 2.821152 21.701168 15 23 27
5.718833 2.816092 21.662245 34 38 29
5.752981 2.811607 21.627748 22 43 41
5.784175 2.805757 21.582743 41 21 38
5.819826 2.802139 21.554913 20 25 16
5.852850 2.797318 21.517832 33 38 25
5.888503 2.793815 21.490887 43 44 31
5.925586 2.791037 21.469513 15 21 36
5.961656 2.787825 21.444805 17 38 39
6.001129 2.786238 21.432602 30 40 18
6.039767 2.784290 21.417612 25 44 20
6.079624 2.782926 21.407125 26 22 33
6.120598 2.782090 21.400694 27 28 27
6.161379 2.781178 21.393677 27 43 24
6.203529 2.780892 21.391479 26 25 26
6.246420 2.780940 21.391850 36 15 42
6.289969 2.781279 21.394451 25 28 37
6.334136 2.781884 21.399107 31 36 28
6.378127 2.782404 21.403111 37 44 44
6.421644 2.782713 21.405481 36 19 38
6.466603 2.783637 21.412594 26 23 25
6.512160 2.784805 21.421577 19 23 37
6.557637 2.785924 21.430185 37 35 31
6.602269 2.786672 21.435940 39 19 33
6.645352 2.786760 21.436619 28 17 44
6.688473 2.786864 21.437412 20 29 27
6.724522 2.784038 21.415676 43 21 29
6.771507 2.785747 21.428820 32 36 29
6.843780 2.797772 21.521320 42 33 27
4.961907 3.060616 23.186483 120 120 120
4.981155 3.044039 23.060904 22 28 30
4.994513 3.024201 22.910610 44 41 29
5.021948 3.013169 22.827036 26 31 27
5.043856 2.999050 22.720074 27 44 42
5.073002 2.989448 22.647331 34 37 30
5.105564 2.982011 22.590992 32 38 21
5.134768 2.972760 22.520912 24 18 17
5.171235 2.967839 22.483629 24 23 26
5.202997 2.960326 22.426710 40 35 31
5.237865 2.954693 22.384039 43 24 39
5.272326 2.948928 22.340366 33 25 44
5.302443 2.940851 22.279173 17 15 40
5.336711 2.935191 22.236298 42 15 36
5.365175 2.926459 22.170143 33 37 22
5.396821 2.919592 22.118120 27 23 26
5.428417 2.912809 22.066734 22 34 43
5.457040 2.904553 22.004192 21 42 22
5.491445 2.899483 21.965778 31 43 24
5.519076 2.890945 21.901096 44 42 38
5.548859 2.883659 21.845901 31 44 35
5.578434 2.876380 21.790756 42 32 16
5.604949 2.867648 21.724609 22 17 15
5.637833 2.862284 21.683971 44 37 39
5.666808 2.855033 21.629040 30 18 24
5.699816 2.849908 21.590212 17 27 16
5.734072 2.845480 21.556664 32 17 21
5.765465 2.839707 21.512930 33 16 26
5.801309 2.836195 21.486328 29 41 25
5.834860 2.831623 21.451693 31 31 31
5.870917 2.828325 21.426704 44 31 43
5.908618 2.825861 21.408037 24 28 24
5.945710 2.823143 21.387447 26 22 42
5.986000 2.821972 21.378572 25 39 30
6.026033 2.820696 21.368912 36 35 25
6.066912 2.819833 21.362368 34 18 23
6.109120 2.819594 21.360559 39 35 19
6.151740 2.819548 21.360209 40 25 19
6.195282 2.819921 21.363041 18 19 37
6.240581 2.821085 21.371853 25 20 27
6.286213 2.822381 21.381678 17 42 40
6.332531 2.823967 21.393686 38 26 15
6.379357 2.825755 21.407238 31 33 15
6.424812 2.826917 21.416039 28 15 32
6.470972 2.828372 21.427059 42 22 31
6.515147 2.828946 21.431406 15 37 20
6.560219 2.829899 21.438625 28 17 40
6.608663 2.832284 21.456697 37 43 40
6.657110 2.834640 21.474548 39 31 35
6.707487 2.837783 21.498356 31 15 29
6.748988 2.837154 21.493593 23 43 18
4.996503 3.071245 22.919739 25 27 28
5.023241 3.059610 22.832912 15 35 23
5.044177 3.044683 22.721518 24 23 33
5.072667 3.034542 22.645834 42 32 37
5.104554 3.026594 22.586521 21 31 44
5.132742 3.016612 22.512028 18 17 34
5.168454 3.011186 22.471539 41 27 28
5.198974 3.002856 22.409370 38 19 37
5.232810 2.996566 22.362436 24 40 23
5.266179 2.990118 22.314316 28 21 36
5.294921 2.981174 22.247568 39 30 41
