ply
format ascii 1.0
element vertex 1289
property float x
property float y
property float z
property uchar red
property uchar green
property uchar blue
end_header
7.950420 1.417517 30.815580 18 18 24
8.007442 1.416701 30.797855 17 28 27
8.062458 1.415546 30.772739 21 25 30
8.119715 1.414799 30.756495 42 42 26
8.176438 1.413971 30.738489 37 25 32
8.229612 1.412545 30.707508 28 26 40
8.284236 1.411388 30.682356 40 42 35
8.335907 1.409749 30.646715 26 31 37
8.390393 1.408606 30.621874 20 17 43
8.444630 1.407438 30.596487 31 32 43
8.495517 1.405733 30.559414 27 26 20
8.549115 1.404498 30.532555 28 38 25
8.600626 1.402939 30.498672 28 19 23
8.655913 1.402014 30.478565 36 43 42
8.711367 1.401129 30.459324 23 37 20
8.763347 1.399701 30.428289 29 40 21
8.817499 1.398638 30.405169 28 19 39
8.867772 1.396978 30.369083 39 41 27
8.920365 1.395703 30.341379 29 29 15
8.972388 1.394358 30.312122 39 25 27
9.021698 1.392611 30.274153 19 21 21
9.074647 1.391446 30.248823 42 30 23
9.121229 1.389326 30.202745 42 32 21
9.168625 1.387358 30.159950 39 44 29
9.216044 1.385418 30.117792 19 31 42
9.262927 1.383424 30.074438 37 20 29
9.316290 1.382417 30.052549 43 27 42
9.363740 1.380551 30.011986 31 24 22
9.412498 1.378901 29.976109 40 21 33
9.460246 1.377124 29.937489 40 17 43
9.504397 1.374850 29.888042 15 42 26
9.553521 1.373319 29.854753 17 27 28
9.598004 1.371143 29.807465 28 43 32
9.646574 1.369575 29.773376 31 37 39
9.695489 1.368075 29.740765 39 16 19
9.741902 1.366242 29.700922 23 37 19
9.793518 1.365157 29.677326 36 26 22
9.833847 1.362521 29.620022 41 17 23
9.873953 1.359886 29.562733 18 38 43
9.910400 1.356781 29.495239 20 39 15
5.706401 1.574180 32.795410 44 36 29
5.738600 1.565073 32.605682 37 24 38
5.766743 1.555077 32.397434 22 25 20
5.812677 1.550047 32.292652 42 23 36
5.857940 1.544951 32.186485 15 37 36
5.913487 1.542649 32.138515 15 34 36
5.974068 1.541695 32.118645 16 40 41
6.029577 1.539466 32.072216 22 24 33
6.088158 1.538061 32.042934 17 27 43
6.144741 1.536185 32.003860 27 41 41
6.204809 1.535210 31.983551 21 27 43
6.263416 1.533898 31.956203 26 27 41
6.316177 1.531194 31.899881 23 18 31
6.369786 1.528749 31.848930 29 26 27
6.417596 1.524973 31.770277 31 16 34
6.469343 1.522198 31.712463 30 34 40
6.519489 1.519104 31.648005 34 44 32
6.563632 1.514684 31.555923 27 26 43
6.612513 1.511432 31.488159 120 120 120
6.655192 1.506836 31.392414 120 120 120
6.701982 1.503248 31.317673 120 120 120
6.751196 1.500266 31.255535 30 43 25
6.800092 1.497268 31.193085 41 38 17
6.856815 1.496032 31.167343 25 28 38
6.909557 1.493958 31.124132 21 26 44
6.962748 1.492018 31.083698 32 28 32
7.017317 1.490404 31.050076 29 43 39
7.072154 1.488875 31.018221 30 27 26
7.131484 1.488310 31.006453 20 16 18
7.190969 1.487787 30.995556 36 29 39
7.253034 1.487802 30.995872 26 25 21
7.314491 1.487693 30.993607 20 15 41
7.372220 1.486834 30.975714 44 21 30
7.429249 1.485850 30.955206 18 40 23
7.480967 1.483828 30.913088 35 20 15
7.532882 1.481879 30.872469 35 15 15
7.583719 1.479750 30.828125 30 27 15
7.632942 1.477344 30.777992 43 36 21
7.686850 1.475875 30.747400 38 19 17
7.738042 1.473913 30.706516 18 21 44
7.792058 1.472515 30.677395 20 24 38
7.847266 1.471362 30.653381 40 40 31
7.900978 1.469949 30.623947 22 15 30
7.958030 1.469175 30.607807 21 27 42
8.013240 1.468074 30.584885 27 23 24
8.070600 1.467382 30.570456 25 19 17
8.127275 1.466576 30.553665 16 34 44
8.180447 1.465155 30.524055 23 34 43
8.234865 1.463976 30.499498 16 28 31
8.285675 1.462178 30.462042 31 34 26
8.338879 1.460826 30.433865 17 37 19
8.391572 1.459404 30.404247 27 34 25
8.440958 1.457432 30.363157 38 33 38
8.493529 1.456034 30.334032 42 38 38
8.544026 1.454302 30.297964 39 33 43
8.598626 1.453289 30.276852 31 15 15
8.653636 1.452358 30.257467 43 43 17
8.705182 1.450864 30.226328 21 20 19
8.759038 1.449772 30.203581 31 34 36
8.808998 1.448054 30.167801 31 27 36
8.861318 1.446746 30.140537 42 35 37
8.912871 1.445330 30.111052 20 28 42
8.961323 1.443435 30.071554 31 36 29
9.013282 1.442125 30.044273 38 16 30
9.058592 1.439776 29.995338 31 38 17
9.104761 1.437594 29.949873 40 19 30
9.151219 1.435485 29.905943 26 37 16
9.197582 1.433389 29.862280 18 40 27
9.250905 1.432398 29.841629 42 21 35
9.298248 1.430500 29.802078 29 42 40
9.346593 1.428779 29.766220 29 24 19
9.393932 1.426926 29.727633 42 43 18
9.437871 1.424584 29.678841 22 33 24
9.486812 1.423022 29.646286 31 15 23
9.531386 1.420828 29.600576 36 21 26
9.580432 1.419323 29.569235 41 43 24
9.629267 1.417806 29.537628 17 39 30
9.673963 1.415702 29.493790 40 35 41
9.723059 1.414263 29.463814 35 31 30
9.762349 1.411424 29.404667 37 42 42
9.803190 1.408842 29.350868 23 40 16
9.841576 1.405939 29.290403 37 16 35
9.874773 1.402335 29.215305 20 44 33
5.637807 1.638897 32.777946 18 29 22
5.665246 1.627944 32.558884 24 28 32
5.698361 1.618852 32.377048 43 17 37
5.727574 1.608869 32.177383 19 41 26
5.774272 1.603964 32.079288 37 43 36
5.820438 1.599021 31.980429 28 38 34
5.875977 1.596733 31.934656 23 35 32
5.936783 1.595910 31.918190 44 15 23
5.993809 1.594098 31.881962 17 15 27
6.053977 1.593152 31.863037 38 31 17
6.112792 1.591873 31.837460 31 41 30
6.174573 1.591385 31.827696 15 15 37
6.234277 1.590377 31.807533 29 31 41
6.287489 1.587750 31.754997 16 26 27
6.340408 1.585102 31.702040 42 44 18
6.387949 1.581176 31.623512 19 33 20
6.439772 1.578376 31.567511 29 37 26
6.490319 1.575320 31.506405 35 37 18
6.535397 1.571009 31.420179 37 34 30
6.585132 1.567889 31.357773 120 120 120
6.628115 1.563235 31.264694 120 120 120
6.674366 1.559431 31.188625 120 120 120
6.722458 1.556124 31.122490 18 34 28
6.770106 1.552777 31.055532 38 37 34
6.825722 1.551300 31.026009 35 31 22
6.877250 1.548930 30.978601 19 16 44
6.929595 1.546785 30.935694 28 15 26
6.983564 1.545036 30.900724 43 44 31
7.037831 1.543384 30.867682 41 41 29
7.096865 1.542797 30.855936 43 22 35
7.155956 1.542232 30.844639 28 44 32
7.217551 1.542212 30.844234 36 33 25
7.278558 1.542067 30.841349 20 39 16
7.335901 1.541156 30.823112 18 32 21
7.392635 1.540132 30.802645 37 44 16
7.444050 1.538027 30.760538 43 28 27
7.495557 1.535975 30.719496 20 27 22
7.546137 1.533768 30.675354 15 42 33
7.595359 1.531322 30.626448 18 40 39
7.649339 1.529868 30.597357 19 31 34
7.701264 1.528029 30.560572 33 21 31
7.756208 1.526813 30.536251 20 41 35
7.812391 1.525858 30.517151 39 21 22
7.866931 1.524599 30.491982 31 15 22
7.924175 1.523880 30.477594 40 37 35
7.979678 1.522839 30.456787 44 21 37
8.037174 1.522192 30.443842 16 44 22
8.093814 1.521394 30.427874 25 39 30
8.147080 1.519978 30.399551 29 17 17
8.201452 1.518787 30.375750 26 31 42
8.251494 1.516819 30.336374 15 24 41
8.303260 1.515193 30.303867 24 34 44
8.354499 1.513496 30.269922 18 26 33
8.403104 1.511350 30.226994 26 39 34
8.455638 1.509935 30.198706 28 39 25
8.506091 1.508172 30.163445 36 37 32
8.560454 1.507122 30.142443 18 43 36
8.615289 1.506169 30.123386 32 35 25
8.666790 1.504651 30.093019 30 35 41
8.720610 1.503553 30.071068 17 39 26
8.770521 1.501801 30.036030 40 16 37
8.822714 1.500462 30.009232 28 34 15
8.873997 1.498986 29.979721 33 34 36
8.922049 1.496988 29.939762 18 21 21
8.973518 1.495586 29.911728 17 35 35
9.018198 1.493079 29.861582 36 19 43
9.063895 1.490772 29.815445 36 24 44
9.109712 1.488515 29.770302 38 22 27
9.155067 1.486212 29.724245 25 26 40
9.207419 1.485068 29.701353 29 22 40
9.253571 1.482944 29.658880 29 29 37
9.300806 1.481020 29.620401 42 20 39
9.347454 1.479028 29.580551 39 30 17
9.391169 1.476599 29.531977 38 27 26
9.440356 1.475056 29.501114 30 31 21
9.486037 1.472987 29.459743 32 27 23
9.536662 1.471707 29.434141 42 43 31
9.586729 1.470357 29.407143 25 34 29
9.631381 1.468198 29.363966 32 35 37
9.679239 1.466551 29.331026 18 42 18
9.717738 1.463515 29.270296 17 43 34
9.758533 1.460858 29.217165 15 38 32
9.797234 1.457922 29.158434 41 19 41
9.830465 1.454211 29.084217 36 44 15
9.871587 1.451704 29.034081 40 41 44
5.580482 1.687123 32.444664 30 15 40
5.608461 1.676092 32.232533 38 15 17
5.642748 1.667175 32.061066 21 17 15
5.673391 1.657395 31.872986 19 22 38
5.720964 1.652723 31.783133 32 19 34
5.768488 1.648139 31.694986 44 17 15
5.824518 1.646059 31.654989 23 16 42
5.886100 1.645576 31.645699 29 28 28
5.945391 1.644470 31.624418 19 37 31
6.007628 1.644193 31.619093 36 28 22
6.068596 1.643578 31.607273 21 37 26
6.131304 1.643442 31.604658 30 34 39
6.191048 1.642523 31.586981 39 27 39
6.244040 1.639849 31.535557 41 28 30
6.296028 1.636967 31.480139 18 19 31
6.342812 1.632803 31.400059 41 25 18
6.394106 1.629870 31.343657 40 31 23
6.444464 1.626758 31.283806 18 19 34
6.489905 1.622476 31.201468 21 42 43
6.540156 1.619467 31.143600 120 120 120
6.583443 1.614807 31.053978 120 120 120
6.629486 1.610903 30.978905 120 120 120
6.676887 1.607399 30.911512 16 40 37
6.723467 1.603763 30.841591 38 24 23
6.777836 1.602034 30.808348 34 44 40
6.828281 1.599417 30.758022 23 25 35
6.880096 1.597165 30.714716 44 40 26
6.933770 1.595381 30.680397 19 19 27
6.987663 1.593678 30.647646 20 44 35
7.046336 1.593085 30.636244 38 36 34
7.104965 1.592492 30.624849 34 20 32
7.165960 1.592436 30.623762 39 42 43
7.226372 1.592252 30.620222 24 27 19
7.283245 1.591297 30.601871 19 15 32
7.339617 1.590250 30.581739 35 41 36
7.390725 1.588090 30.540184 21 21 17
7.441826 1.585963 30.499289 22 39 36
7.492132 1.583703 30.455820 43 38 16
7.541269 1.581234 30.408342 32 33 25
7.595170 1.579795 30.380680 30 34 15
7.647614 1.578079 30.347675 21 38 42
7.703239 1.577041 30.327711 26 44 39
7.760143 1.576279 30.313059 40 27 35
7.815276 1.575172 30.291767 18 15 32
7.872522 1.574504 30.278931 25 29 25
7.928229 1.573542 30.260416 41 16 36
7.985896 1.572979 30.249605 29 27 22
8.042500 1.572218 30.234962 33 35 41
8.095551 1.570779 30.207279 35 39 15
8.149409 1.569516 30.182997 43 24 30
8.198575 1.567375 30.141821 36 41 44
8.249188 1.565539 30.106527 41 27 32
8.299422 1.563659 30.070368 18 40 29
8.347639 1.561429 30.027479 27 33 37
8.400284 1.560053 30.001013 36 28 30
8.450814 1.558306 29.967426 31 15 36
8.504929 1.557240 29.946932 29 26 29
8.559442 1.556262 29.928120 20 27 22
8.610712 1.554712 29.898306 38 18 18
8.664246 1.553589 29.876711 22 17 25
8.713984 1.551805 29.842411 30 18 19
8.766050 1.550458 29.816496 21 22 42
8.817154 1.548960 29.787683 25 39 21
8.864905 1.546896 29.748003 32 26 40
8.915929 1.545428 29.719765 39 20 37
8.960160 1.542809 29.669405 37 40 15
9.005570 1.540427 29.623587 17 33 29
9.050914 1.538064 29.578152 37 20 34
9.095360 1.535580 29.530390 31 36 26
9.146663 1.534279 29.505365 18 29 30
9.191751 1.531959 29.460741 42 19 38
9.238206 1.529894 29.421038 38 17 16
9.284359 1.527806 29.380884 44 29 19
9.327750 1.525293 29.332548 19 39 35
9.376820 1.523733 29.302563 36 23 32
9.422846 1.521702 29.263498 27 43 20
9.473995 1.520518 29.240726 36 42 44
9.524555 1.519254 29.216427 36 44 18
9.569517 1.517119 29.175356 16 34 42
9.617197 1.515437 29.143023 31 39 26
9.655050 1.512237 29.081476 37 37 21
9.694594 1.509338 29.025730 29 43 37
9.732191 1.506172 28.964855 39 36 19
9.764985 1.502305 28.890490 31 15 19
9.806191 1.499770 28.841738 27 27 43
5.522831 1.754311 32.487244 28 29 28
5.539647 1.739191 32.207249 28 35 33
5.568190 1.728059 32.001091 27 16 30
5.603190 1.719161 31.836309 36 37 22
5.634744 1.709417 31.655865 32 16 42
5.682753 1.704826 31.570850 20 24 23
5.731350 1.700510 31.490932 42 22 16
5.788175 1.698704 31.457474 43 41 18
5.850787 1.698616 31.455843 32 15 33
5.911998 1.698127 31.446798 39 25 36
5.975765 1.698375 31.451397 29 27 28
6.037768 1.698122 31.446711 28 29 25
6.100227 1.698001 31.444468 34 24 34
6.158996 1.696866 31.423449 15 36 17
6.211188 1.693960 31.369635 30 31 36
6.262418 1.690853 31.312092 28 39 15
6.308235 1.686360 31.228886 30 23 42
6.358584 1.683155 31.169529 19 30 28
6.408209 1.679822 31.107809 22 33 38
6.453191 1.675348 31.024956 24 32 24
6.503324 1.672283 30.968208 120 120 120
6.546823 1.667587 30.881241 120 120 120
6.593232 1.663713 30.809494 120 120 120
6.640869 1.660217 30.744764 34 22 29
6.687159 1.656452 30.675039 21 39 29
6.740762 1.654551 30.639828 23 30 34
6.790801 1.651817 30.589195 32 43 30
6.842691 1.649577 30.547726 36 38 32
6.896558 1.647850 30.515745 28 17 22
6.950460 1.646162 30.484474 35 41 40
7.008900 1.645568 30.473480 29 41 33
7.067237 1.644960 30.462229 42 32 29
7.127842 1.644887 30.460861 43 21 18
7.187843 1.644676 30.456963 19 27 33
7.244427 1.643693 30.438768 29 24 37
7.300561 1.642626 30.419004 34 17 30
7.351500 1.640417 30.378098 31 43 19
7.402412 1.638239 30.337753 44 20 37
7.452546 1.635925 30.294903 43 28 37
7.501545 1.633401 30.248165 32 16 39
7.555237 1.631931 30.220949 30 34 43
7.607672 1.630215 30.189175 32 29 39
7.663340 1.629214 30.170630 40 38 29
7.720309 1.628503 30.157457 17 38 34
7.775466 1.627423 30.137465 24 37 44
7.832541 1.626758 30.125156 40 33 15
7.888352 1.625844 30.108213 24 15 27
7.946336 1.625387 30.099756 28 39 26
8.003079 1.624685 30.086763 29 38 25
8.055750 1.623174 30.058769 20 18 24
8.108808 1.621762 30.032623 39 27 35
8.157455 1.619495 29.990644 21 25 15
8.207927 1.617621 29.955938 29 17 34
8.258297 1.615754 29.921366 24 41 32
8.306822 1.613555 29.880655 16 31 32
8.359715 1.612231 29.856127 38 18 38
8.410475 1.610517 29.824381 24 37 19
8.464556 1.609458 29.804773 15 25 30
8.518831 1.608451 29.786121 27 44 38
8.569748 1.606828 29.756069 40 37 32
8.622783 1.605622 29.733734 40 18 19
8.672192 1.603762 29.699289 24 19 17
8.724131 1.602391 29.673914 16 23 18
8.775208 1.600882 29.645971 37 40 19
8.822900 1.598780 29.607046 44 36 38
8.873771 1.597279 29.579237 33 30 43
8.917986 1.594607 29.529757 36 43 16
8.963434 1.592189 29.484980 24 36 34
9.008729 1.589776 29.440290 42 19 33
9.052896 1.587196 29.392519 27 38 21
9.103713 1.585808 29.366816 31 43 35
9.148539 1.583401 29.322241 36 39 26
9.195001 1.581306 29.283442 25 19 20
9.241211 1.579194 29.244337 43 23 42
9.284531 1.576618 29.196638 26 43 35
9.333360 1.575004 29.166750 39 17 42
9.379006 1.572877 29.127348 34 44 35
9.429406 1.571568 29.103106 34 36 42
9.479599 1.570240 29.078526 16 44 29
9.525566 1.568233 29.041359 17 36 33
9.574813 1.566788 29.014585 18 16 29
9.612496 1.563478 28.953300 34 35 36
9.649526 1.560103 28.890797 27 22 33
9.684335 1.556411 28.822426 20 23 21
9.716112 1.552278 28.745893 29 29 22
9.757810 1.549770 28.699442 33 17 40
9.794418 1.546487 28.638649 44 31 42
5.452691 1.817564 32.456493 33 15 26
5.483755 1.806413 32.257381 38 19 35
5.502163 1.791402 31.989317 23 44 36
5.531500 1.780253 31.790230 17 24 44
5.567199 1.771382 31.631813 43 25 30
5.599694 1.761702 31.458958 17 27 19
5.648100 1.757187 31.378336 40 21 29
5.697698 1.753138 31.306030 41 41 24
5.755347 1.751627 31.279058 23 29 44
5.818888 1.751923 31.284344 26 25 26
5.881680 1.751990 31.285534 19 42 34
5.946599 1.752682 31.297888 44 22 16
6.008846 1.752580 31.296072 20 41 18
6.070144 1.752207 31.289404 34 33 32
6.127175 1.750621 31.261097 44 19 32
6.178226 1.747377 31.203159 18 43 33
6.228910 1.744095 31.144548 28 28 42
6.273822 1.739277 31.058525 36 21 38
6.323106 1.735755 30.995619 22 25 15
6.371769 1.732131 30.930918 25 20 16
6.415930 1.727366 30.845818 21 23 16
6.465618 1.724165 30.788658 120 120 120
6.509118 1.719390 30.703386 120 120 120
6.555894 1.715561 30.635019 120 120 120
6.603959 1.712138 30.573885 24 44 25
6.650246 1.708320 30.505714 32 19 15
6.703379 1.706315 30.469906 38 30 23
6.753438 1.703570 30.420891 25 32 20
6.805744 1.701436 30.382788 44 36 43
6.860087 1.699845 30.354368 17 16 29
6.914242 1.698235 30.325621 39 24 30
6.972513 1.697655 30.315273 22 22 33
7.030641 1.697051 30.304487 15 22 36
7.090912 1.696970 30.303043 28 16 33
7.150544 1.696739 30.298916 31 37 23
7.206893 1.695739 30.281061 39 43 29
7.262828 1.694660 30.261784 22 21 20
7.313684 1.692423 30.221836 44 28 37
7.364518 1.690217 30.182449 41 36 28
7.414571 1.687870 30.140532 24 30 15
7.463446 1.685294 30.094542 17 43 28
7.516895 1.683784 30.067579 26 30 37
7.569137 1.682030 30.036259 39 42 35
7.624612 1.681017 30.018158 24 34 44
7.681374 1.680301 30.005367 28 36 42
7.736299 1.679197 29.985657 37 26 39
7.793084 1.678510 29.973398 15 39 31
7.848728 1.677591 29.956976 30 44 22
7.906698 1.677178 29.949615 17 16 27
7.963316 1.676488 29.937279 18 22 30
8.015448 1.674870 29.908388 18 38 18
8.067729 1.673307 29.880476 43 24 31
8.116034 1.670948 29.838360 39 27 43
8.166633 1.669093 29.805231 37 37 44
8.217416 1.667302 29.773245 38 33 28
8.266430 1.665180 29.735361 40 36 23
8.319604 1.663921 29.712870 26 43 25
8.370586 1.662244 29.682930 40 21 37
8.424555 1.661180 29.663925 34 44 35
8.478522 1.660130 29.645184 40 17 31
8.529142 1.658444 29.615078 24 23 15
8.581807 1.657177 29.592440 42 28 16
8.631075 1.655275 29.558477 34 20 36
8.683031 1.653911 29.534119 44 25 19
8.734243 1.652424 29.507578 33 26 36
8.782067 1.650321 29.470024 19 38 35
8.832916 1.648811 29.443054 30 16 36
8.877354 1.646132 29.395212 30 31 16
8.923079 1.643725 29.352232 29 31 21
8.968548 1.641303 29.308979 38 28 27
9.012613 1.638657 29.261732 29 35 27
9.062995 1.637186 29.235468 28 23 34
9.107688 1.634713 29.191307 26 20 21
9.154413 1.632634 29.154182 42 36 18
9.200768 1.630516 29.116356 38 29 15
9.243755 1.627831 29.068411 32 29 39
9.291901 1.626083 29.037189 31 19 20
9.336371 1.623717 28.994940 24 42 23
9.385240 1.622140 28.966791 25 34 23
9.434358 1.620626 28.939749 15 42 17
9.480721 1.618660 28.904638 23 35 19
9.531324 1.617437 28.882799 19 42 17
9.569102 1.614065 28.822598 36 23 27
9.604365 1.610313 28.755583 40 42 38
9.637138 1.606190 28.681957 30 32 39
9.668176 1.601828 28.604071 30 17 36
9.710162 1.599321 28.559299 44 33 26
9.746590 1.595933 28.498802 27 21 20
9.788641 1.593500 28.455351 39 27 28
5.401563 1.864825 32.152161 24 35 28
5.433533 1.853794 31.961962 24 41 27
5.453507 1.838973 31.706434 37 29 36
5.483830 1.827943 31.516262 31 28 37
5.520558 1.819275 31.366808 40 19 39
5.554456 1.809879 31.204809 32 24 22
5.603582 1.805599 31.131010 27 44 44
5.654310 1.801923 31.067638 25 25 27
5.712544 1.800693 31.046436 42 41 38
5.776631 1.801315 31.057154 42 27 38
5.840777 1.801942 31.067961 24 28 29
5.906735 1.803109 31.088081 41 22 33
5.969133 1.803176 31.089233 27 22 17
6.029114 1.802519 31.077908 24 31 35
6.084386 1.800482 31.042788 21 27 24
6.134510 1.796978 30.982374 19 44 33
6.184930 1.793630 30.924652 18 31 41
6.229423 1.788646 30.838728 21 28 41
6.278054 1.784937 30.774776 18 42 36
6.326097 1.781134 30.709208 44 27 37
6.369796 1.776193 30.624022 16 18 33
6.419158 1.772910 30.567421 120 120 120
6.462527 1.768050 30.483620 120 120 120
6.509226 1.764183 30.416943 120 120 120
6.557243 1.760741 30.357609 18 20 31
6.603419 1.756873 30.290913 20 30 22
6.656235 1.754826 30.255613 24 21 31
6.706359 1.752112 30.208826 24 42 40
6.758907 1.750074 30.173691 40 36 42
6.813518 1.748602 30.148312 39 35 26
6.867864 1.747088 30.122211 25 42 29
6.925969 1.746549 30.112909 24 31 36
6.983903 1.745976 30.103031 21 27 17
7.043777 1.745894 30.101612 35 44 36
7.102984 1.745649 30.097391 17 21 38
7.159084 1.744651 30.080185 25 38 22
7.214810 1.743579 30.061708 19 25 34
7.265620 1.741347 30.023224 44 33 26
7.316396 1.739143 29.985229 35 35 42
7.366401 1.736794 29.944721 38 22 36
7.415236 1.734208 29.900145 27 40 18
7.468470 1.732685 29.873878 40 19 39
7.520642 1.730941 29.843817 32 44 28
7.576055 1.729965 29.826986 42 37 19
7.632696 1.729283 29.815220 36 27 21
7.687453 1.728187 29.796328 19 43 31
7.743908 1.727487 29.784262 23 34 15
7.799032 1.726503 29.767296 26 35 35
7.856332 1.726012 29.758835 35 38 30
7.912239 1.725225 29.745260 34 16 43
7.963750 1.723498 29.715485 34 36 43
8.015577 1.721865 29.687323 15 23 17
8.063505 1.719424 29.645241 39 20 34
8.113755 1.717510 29.612246 42 32 21
8.164318 1.715690 29.580864 39 16 30
8.213316 1.713570 29.544304 26 23 21
8.266498 1.712346 29.523209 39 18 42
8.317337 1.710658 29.494102 42 39 22
8.370763 1.709522 29.474516 39 30 21
8.424201 1.708404 29.455248 25 23 20
8.474693 1.706709 29.426016 25 24 27
8.527386 1.705477 29.404779 38 42 44
8.576906 1.703632 29.372965 16 34 41
8.629013 1.702322 29.350384 42 36 20
8.680332 1.700876 29.325447 16 42 38
8.728210 1.698779 29.289295 39 36 24
8.778831 1.697241 29.262772 31 42 36
8.823336 1.694548 29.216343 21 42 33
8.869287 1.692167 29.175285 29 40 28
8.914881 1.689749 29.133598 42 39 19
8.958743 1.687036 29.086826 36 24 26
9.008557 1.685472 29.059860 39 28 25
9.052984 1.682926 29.015974 29 43 33
9.099985 1.680889 28.980843 34 43 20
9.146335 1.678758 28.944099 24 35 24
9.188477 1.675886 28.894583 41 39 30
9.235323 1.673902 28.860384 27 28 24
9.277861 1.671168 28.813234 21 43 20
9.324923 1.669276 28.780626 17 27 23
9.372352 1.667474 28.749546 16 16 36
9.417019 1.665205 28.710424 27 35 20
9.466606 1.663828 28.686684 44 15 19
9.504340 1.660397 28.627529 37 44 22
9.540575 1.656747 28.564596 30 44 16
9.574560 1.652751 28.495714 42 39 23
9.606054 1.648376 28.420277 19 33 32
9.647657 1.645777 28.375462 17 26 28
9.683775 1.642278 28.315130 39 36 37
9.725620 1.639785 28.272150 25 19 44
5.369180 1.917564 31.959402 27 34 43
5.401759 1.906503 31.775051 20 32 21
5.422809 1.891678 31.527960 39 15 29
5.453861 1.880642 31.344027 16 30 15
5.491334 1.872046 31.200760 34 41 31
5.526263 1.862785 31.046419 17 32 37
5.575961 1.858654 30.977560 44 21 44
5.627329 1.855163 30.919390 20 17 26
5.685709 1.854035 30.900591 44 36 22
5.749777 1.854767 30.912777 25 44 23
5.814326 1.855636 30.927265 44 30 28
5.880594 1.857030 30.950493 39 25 15
5.942675 1.857086 30.951431 33 28 42
6.001502 1.856135 30.935577 29 38 39
6.055542 1.853737 30.895622 33 34 25
6.105197 1.850060 30.834330 16 40 39
6.155758 1.846727 30.778788 26 18 30
6.200391 1.841700 30.695007 19 26 32
6.248910 1.837915 30.631912 20 32 34
6.296779 1.834013 30.566889 32 18 22
6.340334 1.828943 30.482376 44 43 41
6.389472 1.825563 30.426056 120 120 120
6.432607 1.820549 30.342484 120 120 120
6.478963 1.816532 30.275526 120 120 120
6.526731 1.812981 30.216347 38 30 28
6.572900 1.809055 30.150915 26 39 33
6.625789 1.807033 30.117222 40 15 37
6.676160 1.804368 30.072794 15 22 31
6.728862 1.802374 30.039560 16 20 23
6.783599 1.800955 30.015924 22 37 33
6.838101 1.799500 29.991671 44 24 25
6.896163 1.798999 29.983316 44 17 28
6.954039 1.798458 29.974306 30 23 41
7.013705 1.798386 29.973097 21 26 26
7.072679 1.798139 29.968979 16 28 19
7.128677 1.797146 29.952425 17 22 36
7.184303 1.796076 29.934595 40 42 23
7.235153 1.793840 29.897327 25 39 35
7.285967 1.791631 29.860519 30 27 22
7.336001 1.789269 29.821144 31 24 22
7.384872 1.786662 29.777708 30 40 23
7.438006 1.785122 29.752026 30 15 17
7.490141 1.783367 29.722782 25 36 24
7.545517 1.782406 29.706758 31 24 30
7.602042 1.781728 29.695475 25 40 28
7.656651 1.780617 29.676943 22 30 41
7.712860 1.779891 29.664846 15 41 44
7.767372 1.778788 29.646460 24 22 41
7.823757 1.778127 29.635445 27 19 21
7.878792 1.777171 29.619520 34 16 16
7.929876 1.775345 29.589088 29 21 40
7.981695 1.773710 29.561834 20 19 35
8.029485 1.771210 29.520164 15 38 43
8.079351 1.769201 29.486683 15 41 22
8.129498 1.767282 29.454704 27 19 38
8.178222 1.765084 29.418064 16 29 22
8.231236 1.763836 29.397270 23 43 26
8.281743 1.762073 29.367884 42 18 18
8.334569 1.760824 29.347075 43 22 15
8.387563 1.759629 29.327145 34 41 25
8.438123 1.757942 29.299040 33 22 23
8.491164 1.756792 29.279875 40 37 20
8.541149 1.755031 29.250511 40 27 25
8.593484 1.753772 29.229536 18 25 37
8.644898 1.752344 29.205736 29 31 24
8.692820 1.750232 29.170538 20 39 34
8.743237 1.748647 29.144125 41 29 41
8.787762 1.745913 29.098549 25 25 31
8.833894 1.743532 29.058863 38 19 25
8.879628 1.741104 29.018393 39 35 21
8.923399 1.738324 28.972075 44 38 17
8.972877 1.736686 28.944763 38 19 18
9.017166 1.734070 28.901175 39 43 41
9.064450 1.732060 28.867674 24 44 39
9.110760 1.729891 28.831518 43 43 33
9.152037 1.726799 28.779989 34 37 25
9.197616 1.724553 28.742550 27 19 43
9.238331 1.721428 28.690468 43 44 27
9.283956 1.719251 28.654184 36 21 40
9.329805 1.717142 28.619034 35 40 24
9.371922 1.714376 28.572933 37 30 15
9.419289 1.712598 28.543301 32 26 25
9.457009 1.709098 28.484968 17 17 34
9.495913 1.705853 28.430876 39 21 30
9.533023 1.702326 28.372093 39 44 39
9.565663 1.698047 28.300777 36 15 19
9.606497 1.695264 28.254404 42 32 30
9.642045 1.691587 28.193113 32 32 22
9.683816 1.689038 28.150627 22 42 41
5.306591 1.981980 31.967413 35 34 31
5.323556 1.964646 31.687832 33 38 22
5.356919 1.953700 31.511290 15 34 24
5.379429 1.939096 31.275747 30 43 21
5.411518 1.928242 31.100676 25 27 42
5.450012 1.919891 30.965979 20 17 44
5.486315 1.910964 30.821997 29 25 36
5.536721 1.907093 30.759560 20 27 31
5.588930 1.903921 30.708408 38 34 24
5.647589 1.902992 30.693417 23 15 40
5.711666 1.903889 30.707884 30 25 24
5.776610 1.905052 30.726648 26 20 18
5.843042 1.906677 30.752853 20 32 31
5.904556 1.906679 30.752893 29 17 44
5.961874 1.905341 30.731310 15 43 39
6.014360 1.902502 30.685511 35 44 15
6.063406 1.898642 30.623264 25 22 35
6.114121 1.895378 30.570606 42 39 33
6.158849 1.890340 30.489349 16 19 20
6.207108 1.886474 30.426998 17 19 35
6.254600 1.882452 30.362135 29 24 19
6.297795 1.877227 30.277859 38 39 26
6.346505 1.873730 30.221451 120 120 120
6.389194 1.868538 30.137709 120 120 120
6.435033 1.864355 30.070250 120 120 120
6.482397 1.860688 30.011097 29 18 19
6.528388 1.856697 29.946733 25 43 29
6.581199 1.854702 29.914543 27 18 15
6.631676 1.852090 29.872416 29 35 44
6.684406 1.850148 29.841099 20 41 43
6.739139 1.848790 29.819201 39 30 19
6.793664 1.847400 29.796770 24 30 37
6.851545 1.846938 29.789326 37 22 32
6.909168 1.846416 29.780897 22 34 35
6.968385 1.846324 29.779423 32 25 36
7.026882 1.846045 29.774923 27 43 17
7.082555 1.845035 29.758633 29 28 16
7.137910 1.843960 29.741293 18 28 44
7.188738 1.841743 29.705528 34 30 31
7.239583 1.839566 29.670422 42 28 24
7.289709 1.837244 29.632965 36 21 36
7.338684 1.834671 29.591469 31 30 20
7.391712 1.833145 29.566847 29 23 32
7.443840 1.831421 29.539049 29 38 31
7.499170 1.830506 29.524290 29 32 24
7.555521 1.829853 29.513756 26 44 26
7.609899 1.828735 29.495733 18 26 32
7.665724 1.827980 29.483555 35 17 23
7.719429 1.826735 29.463469 39 24 29
7.774676 1.825871 29.449532 20 24 32
7.828626 1.824717 29.430923 26 23 19
7.879097 1.822776 29.399616 44 31 35
7.930789 1.821144 29.373293 29 25 21
7.978369 1.818599 29.332237 27 21 26
8.027772 1.816503 29.298439 44 36 17
8.077499 1.814511 29.266302 39 39 37
8.126048 1.812284 29.230387 35 23 20
8.178979 1.811060 29.210640 15 29 24
8.229272 1.809272 29.181814 32 38 25
8.281519 1.807937 29.160278 41 23 31
8.334035 1.806679 29.139984 26 21 28
8.384568 1.805011 29.113085 29 35 21
8.437766 1.803936 29.095745 38 38 40
8.488366 1.802324 29.069748 37 42 32
8.541271 1.801220 29.051941 23 39 25
8.593266 1.799941 29.031303 28 22 16
8.641756 1.797949 28.999180 17 41 16
8.692272 1.796403 28.974239 25 28 37
8.737017 1.793692 28.930521 43 29 43
8.783394 1.791350 28.892744 30 33 43
8.828976 1.788878 28.852863 32 22 31
8.872033 1.785929 28.805302 39 38 17
8.920407 1.784081 28.775505 29 34 19
8.963321 1.781173 28.728594 41 36 37
9.009694 1.778984 28.693295 23 41 37
9.054885 1.776591 28.654699 35 43 22
9.094368 1.773116 28.598640 43 31 41
9.138305 1.770547 28.557203 37 32 36
9.176942 1.766989 28.499821 40 28 20
9.220961 1.764505 28.459755 19 41 22
9.265395 1.762130 28.421457 25 40 33
9.305549 1.758976 28.370577 33 30 43
9.351386 1.756927 28.337532 23 20 30
9.389520 1.753465 28.281687 28 22 16
9.430674 1.750604 28.235552 15 19 36
9.470645 1.747559 28.186443 43 32 19
9.505228 1.743562 28.121975 31 43 35
9.546479 1.740828 28.077879 19 26 34
9.582534 1.737184 28.019104 25 41 30
9.624591 1.734665 27.978462 18 16 25
9.668274 1.732465 27.942987 27 19 30
5.272794 2.032884 31.763817 28 28 42
5.290569 2.015455 31.491482 36 44 25
5.324475 2.004508 31.320442 29 27 17
5.348055 1.989974 31.093342 36 15 23
5.380949 1.979200 30.924994 21 20 15
5.420228 1.970992 30.796747 19 42 28
5.457556 1.962267 30.660425 42 38 33
5.508468 1.958567 30.602602 27 28 28
5.561342 1.955637 30.556824 44 18 26
5.620265 1.954875 30.544918 20 24 25
5.684468 1.955946 30.561655 15 29 25
5.749918 1.957419 30.584669 37 20 15
5.816684 1.959304 30.614128 34 21 38
5.877923 1.959308 30.614182 39 32 43
5.934126 1.957650 30.588280 40 37 28
5.985384 1.954411 30.537674 20 22 44
6.033934 1.950362 30.474413 19 31 17
6.084734 1.947115 30.423670 29 29 32
6.129407 1.941990 30.343597 22 22 21
6.177333 1.937987 30.281046 17 34 24
6.224371 1.933785 30.215393 17 16 42
6.267075 1.928331 30.130169 29 38 19
6.315312 1.924666 30.072912 120 120 120
6.357470 1.919236 29.988068 120 120 120
6.402814 1.914860 29.919693 120 120 120
6.449754 1.911038 29.859974 15 37 17
6.495392 1.906904 29.795374 16 41 44
6.547960 1.904861 29.763453 42 35 33
6.598272 1.902205 29.721947 39 37 40
6.650865 1.900247 29.691362 39 20 19
6.705464 1.898892 29.670195 33 30 42
6.759834 1.897497 29.648396 42 37 25
6.817480 1.897038 29.641218 35 20 36
6.874768 1.896488 29.632622 21 16 19
6.933531 1.896350 29.630474 21 43 24
6.991574 1.896020 29.625313 33 25 15
7.046882 1.894960 29.608749 16 23 36
7.101973 1.893859 29.591555 33 20 26
7.152753 1.891637 29.556831 33 44 28
7.203635 1.889478 29.523094 23 17 33
7.253895 1.887192 29.487377 40 39 30
7.303037 1.884655 29.447729 32 23 35
7.356070 1.883154 29.424278 30 35 40
7.408325 1.881479 29.398115 34 19 25
7.463717 1.880622 29.384714 44 23 43
7.520032 1.880008 29.375124 22 23 32
7.574336 1.878905 29.357891 40 32 19
7.629912 1.878132 29.345816 37 29 25
7.683126 1.876794 29.324907 40 15 41
7.737656 1.875795 29.309301 22 25 17
7.790912 1.874505 29.289143 23 29 27
7.840982 1.872473 29.257395 28 44 33
7.892562 1.870829 29.231710 30 24 30
7.940052 1.868248 29.191368 39 25 16
7.989230 1.866097 29.157772 19 41 26
8.038806 1.864071 29.126110 18 33 38
8.087433 1.861855 29.091484 40 28 21
8.140470 1.860679 29.073107 35 40 22
8.190852 1.858917 29.045574 20 43 40
8.242915 1.857558 29.024347 37 28 26
8.295230 1.856275 29.004299 33 24 41
8.345680 1.854596 28.978056 33 17 40
8.398764 1.853520 28.961256 27 34 43
8.449832 1.852018 28.937782 18 42 27
8.503441 1.851089 28.923267 20 38 24
8.556279 1.850006 28.906349 28 25 35
8.605670 1.848198 28.878086 31 20 40
8.656615 1.846745 28.855383 21 20 39
8.701681 1.844065 28.813515 33 39 40
8.748210 1.841728 28.777006 43 38 23
8.793305 1.839123 28.736292 33 33 40
8.835174 1.835880 28.685629 21 36 36
8.882073 1.833718 28.651848 40 40 23
8.922802 1.830318 28.598724 42 35 30
8.967292 1.827728 28.558256 15 15 39
9.010669 1.824946 28.514776 35 19 44
9.048192 1.821020 28.453434 33 43 19
9.090941 1.818188 28.409191 15 35 30
9.128353 1.814331 28.348921 41 27 42
9.171467 1.811648 28.306997 29 34 33
9.215497 1.809177 28.268396 25 29 32
9.255527 1.805957 28.218071 41 15 18
9.301550 1.803937 28.186514 30 30 21
9.340526 1.800583 28.134115 37 33 44
9.382455 1.797836 28.091183 39 20 17
9.423536 1.794959 28.046238 25 24 27
9.459859 1.791216 27.987749 16 26 15
9.502442 1.788695 27.948359 33 20 36
9.539768 1.785220 27.894058 32 27 34
9.582305 1.782754 27.855537 33 20 39
9.625862 1.780506 27.820412 16 29 37
5.241292 2.083887 31.574045 26 22 23
5.259968 2.066416 31.309334 32 40 17
5.294304 2.055436 31.142967 34 33 18
5.318772 2.040924 30.923094 36 39 16
5.352350 2.030202 30.760632 35 23 33
5.392258 2.022097 30.637831 35 35 28
5.430374 2.013509 30.507717 43 35 27
5.481620 2.009927 30.453444 15 40 26
5.534931 2.007173 30.411707 16 36 40
5.594086 2.006574 30.402641 37 25 24
5.658245 2.007764 30.420671 32 32 23
5.723520 2.009321 30.444256 20 29 35
5.789828 2.011203 30.472778 43 34 33
5.850376 2.011067 30.470709 44 41 36
5.905750 2.009173 30.442011 22 20 44
5.956298 2.005692 30.389275 25 19 28
6.004560 2.001520 30.326061 23 20 18
6.055433 1.998293 30.277164 21 43 21
6.100114 1.993106 30.198582 23 27 44
6.147816 1.988999 30.136353 38 39 27
6.194521 1.984652 30.070492 31 39 31
6.236888 1.979013 29.985041 32 36 33
6.284757 1.975209 29.927412 120 120 120
6.326547 1.969585 29.842203 120 120 120
6.371544 1.965056 29.773569 120 120 120
6.418184 1.961112 29.713814 16 17 19
6.463591 1.956867 29.649498 23 41 17
6.515961 1.954788 29.618004 42 20 16
6.566117 1.952089 29.577105 42 18 21
6.618526 1.950102 29.546993 19 32 26
6.672924 1.948730 29.526215 33 17 29
6.727101 1.947319 29.504827 19 44 24
6.784505 1.946858 29.497849 43 27 18
6.841442 1.946272 29.488974 30 35 40
6.899748 1.946083 29.486101 15 15 31
6.957315 1.945690 29.480146 23 40 41
7.012197 1.944559 29.463015 37 29 15
7.066956 1.943413 29.445648 37 28 26
7.117606 1.941165 29.411594 17 39 41
7.168484 1.939016 29.379032 23 18 28
7.218831 1.936760 29.344841 30 35 40
7.268068 1.934244 29.306725 30 35 40
7.321044 1.932756 29.284176 30 35 40
7.373288 1.931099 29.259079 30 35 40
7.428602 1.930267 29.246466 30 35 40
7.484733 1.929658 29.237238 36 31 27
7.538788 1.928527 29.220110 39 15 27
7.594010 1.927710 29.207731 31 24 39
7.646697 1.926267 29.185865 18 21 40
7.700606 1.925152 29.168962 27 43 24
7.753266 1.923743 29.147617 23 26 36
7.802895 1.921608 29.115278 33 23 15
7.854233 1.919924 29.089752 21 35 20
7.901526 1.917282 29.049726 39 21 32
7.950454 1.915073 29.016254 41 24 20
7.999886 1.913016 28.985096 21 36 43
8.048573 1.910812 28.951702 35 23 29
8.101691 1.909684 28.934612 15 21 37
8.152159 1.907952 28.908365 39 22 41
8.204081 1.906582 28.887609 36 20 43
8.256207 1.905279 28.867857 22 38 16
8.306495 1.903572 28.841995 20 29 24
8.359343 1.902471 28.825321 18 20 39
8.410757 1.901061 28.803961 21 40 16
8.464992 1.900304 28.792488 23 34 21
8.518649 1.899429 28.779221 28 40 43
8.568927 1.897816 28.754787 44 32 24
8.620320 1.896470 28.734400 30 38 42
8.665751 1.893840 28.694538 26 19 30
8.712446 1.891518 28.659361 31 15 44
8.757126 1.888792 28.618059 26 33 39
8.797971 1.885280 28.564842 41 25 26
8.843565 1.882823 28.527628 40 24 31
8.882240 1.878935 28.468718 23 36 19
8.924816 1.875917 28.422979 39 31 39
8.966378 1.872725 28.374615 25 35 42
9.002172 1.868375 28.308716 26 15 44
9.044014 1.865328 28.262545 15 34 32
9.080611 1.861243 28.200655 21 39 44
9.123134 1.858416 28.157822 38 26 18
9.167058 1.855907 28.119810 40 42 16
9.207427 1.852714 28.071423 27 39 36
9.254003 1.850801 28.042433 39 42 40
9.293609 1.847525 27.992798 32 41 16
9.335377 1.844715 27.950232 24 30 28
9.376703 1.841852 27.906853 26 29 37
9.414731 1.838379 27.854235 37 39 25
9.459254 1.836208 27.821335 35 17 39
9.498407 1.833026 27.773119 34 36 33
9.541568 1.830650 27.737116 42 19 21
9.585063 1.828365 27.702494 41 43 29
5.172880 2.144853 31.541952 32 38 43
5.200951 2.130510 31.331032 29 38 25
5.220492 2.113056 31.074354 33 25 27
5.255310 2.102124 30.913586 32 26 36
5.280738 2.087734 30.701965 28 30 36
5.315019 2.077134 30.546083 31 17 25
5.355528 2.069181 30.429138 19 22 36
5.394398 2.060781 30.305605 43 36 27
5.445878 2.057332 30.254875 40 18 24
5.499499 2.054758 30.217026 43 23 21
5.558897 2.054375 30.211395 30 27 30
5.622749 2.055629 30.229834 20 24 18
5.686854 2.056947 30.249226 30 15 16
5.751501 2.058432 30.271057 30 44 22
5.810607 2.057923 30.263577 26 27 31
5.865308 2.055881 30.233545 16 40 16
5.915654 2.052370 30.181906 17 16 35
5.963815 2.048179 30.120277 19 37 33
6.014713 2.045003 30.073566 36 18 43
6.059511 2.039835 29.997578 30 23 32
6.107126 2.035709 29.936892 44 44 39
6.153703 2.031319 29.872343 29 41 44
6.196024 2.025623 29.788576 41 42 26
6.243710 2.021773 29.731953 120 120 120
6.285474 2.016095 29.648460 120 120 120
6.330380 2.011523 29.581217 120 120 120
6.376970 2.007565 29.523008 37 39 30
6.422475 2.003341 29.460896 38 18 30
6.474830 2.001311 29.431046 38 22 16
6.525060 1.998667 29.392160 42 33 18
6.577398 1.996710 29.363382 43 30 30
6.631653 1.995365 29.343599 38 24 15
6.685754 1.993997 29.323484 30 35 40
6.742961 1.993571 29.317221 30 35 40
6.799592 1.992984 29.308588 30 35 40
6.857434 1.992759 29.305273 30 35 40
6.914468 1.992304 29.298592 30 35 40
6.968859 1.991103 29.280922 23 24 20
7.023185 1.989902 29.263269 28 37 27
7.073600 1.987623 29.229753 15 31 41
7.124400 1.985489 29.198362 41 37 40
7.174725 1.983257 29.165550 30 35 40
7.223874 1.980740 29.128525 30 35 40
7.276606 1.979237 29.106422 30 35 40
7.328543 1.977543 29.081520 30 35 40
7.383497 1.976684 29.068888 30 35 40
7.439137 1.976021 29.059130 17 44 20
7.492590 1.974791 29.041046 37 22 44
7.547192 1.973881 29.027660 35 31 32
7.599075 1.972279 29.004105 17 37 39
7.652208 1.971023 28.985638 31 17 16
7.704133 1.969478 28.962906 42 35 38
7.753067 1.967196 28.929354 44 16 44
7.803923 1.965432 28.903418 21 31 40
7.850750 1.962688 28.863052 24 40 39
7.899227 1.960392 28.829294 20 34 36
7.948330 1.958284 28.798298 18 33 28
7.996873 1.956070 28.765730 28 39 25
8.049920 1.954981 28.749716 21 19 21
8.100243 1.953250 28.724266 20 39 30
8.151760 1.951830 28.703381 24 39 29
8.203468 1.950475 28.683455 44 33 40
8.253492 1.948741 28.657957 24 25 18
8.306114 1.947641 28.641773 31 24 30
8.357735 1.946322 28.622381 36 32 35
8.412319 1.945706 28.613331 18 35 31
8.466446 1.944994 28.602858 25 31 38
8.517226 1.943528 28.581297 27 33 37
8.568770 1.942255 28.562567 44 43 38
8.614525 1.939694 28.524918 20 27 28
8.661489 1.937438 28.491741 23 23 40
8.706133 1.934696 28.451414 35 18 25
8.746600 1.931068 28.398052 31 43 29
8.791462 1.928450 28.359556 25 30 26
8.829033 1.924276 28.298183 30 41 28
8.870556 1.921012 28.250179 25 19 44
8.910977 1.917552 28.199293 33 15 42
8.945518 1.912878 28.130560 36 28 36
8.986448 1.909620 28.082649 20 44 37
9.022019 1.905271 28.018694 23 28 28
9.063702 1.902258 27.974388 27 40 24
9.107006 1.899621 27.935602 27 44 20
9.146877 1.896304 27.886820 23 23 16
9.193205 1.894357 27.858196 43 22 39
9.232604 1.891015 27.809048 32 36 26
9.273667 1.888052 27.765471 31 40 35
9.315001 1.885179 27.723217 39 35 41
9.354755 1.882022 27.676790 32 24 26
9.401517 1.880303 27.651522 35 40 42
9.442702 1.877496 27.610241 15 32 42
9.486378 1.875214 27.576679 28 18 15
9.529679 1.872885 27.542425 35 35 20
9.568723 1.869750 27.496330 28 42 24
5.147181 2.196968 31.385252 38 26 34
5.175619 2.182490 31.178425 25 24 29
5.195616 2.164840 30.926283 28 33 27
5.230671 2.153806 30.768654 33 35 40
5.256565 2.139300 30.561426 41 25 23
5.291162 2.128628 30.408976 44 39 24
5.331899 2.120642 30.294882 35 36 34
5.371028 2.112202 30.174314 38 20 23
5.422491 2.108746 30.124949 28 33 18
5.476091 2.106189 30.088409 18 16 40
5.535609 2.105938 30.084829 25 24 16
5.599055 2.107171 30.102446 23 43 29
5.661625 2.108052 30.115025 32 42 30
5.724290 2.108949 30.127842 25 34 29
5.781990 2.108017 30.114531 30 24 22
5.836585 2.105984 30.085487 30 27 25
5.887389 2.102639 30.037699 17 43 27
5.935712 2.098484 29.978346 18 26 37
5.986584 2.095305 29.932922 37 25 44
6.031540 2.090138 29.859108 38 40 29
6.079249 2.086017 29.800240 18 36 40
6.125945 2.081632 29.737598 17 29 25
6.168502 2.075938 29.656261 36 27 18
6.216259 2.072086 29.601234 120 120 120
6.258305 2.066422 29.520308 120 120 120
6.303399 2.061859 29.455135 120 120 120
6.350185 2.057930 29.399004 36 32 44
6.396016 2.053767 29.339525 44 24 24
6.448505 2.051797 29.311388 28 27 43
6.498931 2.049212 29.274462 44 20 17
6.551289 2.047278 29.246828 15 31 28
6.605486 2.045947 29.227816 30 35 40
6.659617 2.044619 29.208845 30 35 40
6.716753 2.044229 29.203274 30 35 40
6.773257 2.043655 29.195074 30 35 40
6.830858 2.043419 29.191702 30 35 40
6.887574 2.042924 29.184635 30 35 40
6.941650 2.041662 29.166597 30 35 40
6.995663 2.040402 29.148596 24 42 34
7.045850 2.038056 29.115084 22 42 25
7.096549 2.035895 29.084217 30 35 40
7.146771 2.033634 29.051914 30 35 40
7.195726 2.031052 29.015026 30 35 40
7.248187 2.029492 28.992748 30 35 40
7.299716 2.027699 28.967129 30 35 40
7.354244 2.026760 28.953718 30 35 40
7.409371 2.026000 28.942856 30 35 40
7.462212 2.024631 28.923302 41 32 32
7.516284 2.023615 28.908783 40 34 30
7.567566 2.021869 28.883841 41 27 18
7.620244 2.020519 28.864561 36 15 22
7.671742 2.018879 28.841135 39 37 41
7.720140 2.016454 28.806492 42 25 43
7.770543 2.014585 28.779787 24 39 42
7.816909 2.011705 28.738636 41 25 22
7.865012 2.009310 28.704422 33 19 23
7.913832 2.007131 28.673304 23 28 24
7.962160 2.004860 28.640863 34 44 44
8.015066 2.003766 28.625235 30 27 39
8.065162 2.001991 28.599865 27 29 20
8.116316 2.000501 28.578579 18 25 16
8.167671 1.999080 28.558289 43 23 37
8.217454 1.997298 28.532825 20 17 37
8.269922 1.996188 28.516972 41 30 27
8.321497 1.994879 28.498276 28 23 20
8.376038 1.994295 28.489925 33 18 36
8.430157 1.993618 28.480259 26 33 36
8.480932 1.992165 28.459503 26 20 21
8.532363 1.990885 28.441210 43 37 40
8.578264 1.988339 28.404848 22 38 21
8.625442 1.986121 28.373163 34 30 24
8.670345 1.983412 28.334461 18 28 27
8.711113 1.979798 28.282835 21 24 27
8.756064 1.977176 28.245367 20 27 44
8.793760 1.972959 28.185129 17 32 36
8.835305 1.969654 28.137913 25 29 44
8.875589 1.966111 28.087307 20 20 18
8.909908 1.961301 28.018579 23 22 16
8.950473 1.957916 27.970228 27 27 22
8.985539 1.953378 27.905399 34 24 25
9.026738 1.950221 27.860304 19 15 23
9.069493 1.947437 27.820532 32 21 36
9.108739 1.943938 27.770546 26 23 23
9.154567 1.941878 27.741112 43 24 26
9.193202 1.938326 27.690369 21 29 35
9.233136 1.935088 27.644119 22 28 37
9.273929 1.932069 27.600979 37 43 18
9.314582 1.929055 27.557934 38 20 40
9.362967 1.927670 27.538139 41 29 17
9.405566 1.925116 27.501654 27 40 29
9.449474 1.922858 27.469402 20 15 44
9.492586 1.920465 27.435219 24 17 33
9.531776 1.917311 27.390162 22 43 17
5.110310 2.243551 31.160427 16 43 32
5.139027 2.228976 30.957996 37 24 33
5.159546 2.211234 30.711586 40 41 27
5.194888 2.200188 30.558165 32 28 43
5.221383 2.185695 30.356878 16 32 39
5.256380 2.175054 30.209082 42 39 21
5.297398 2.167117 30.098850 32 28 39
5.336844 2.158723 29.982267 15 36 23
5.388249 2.155300 29.934719 44 42 41
5.441781 2.152793 29.899897 40 41 28
5.501444 2.152739 29.899153 16 22 21
5.564305 2.153925 29.915619 24 25 15
5.624717 2.154147 29.918707 33 40 27
5.684617 2.154171 29.919035 21 28 26
5.740243 2.152591 29.897097 28 31 15
5.794459 2.150521 29.868347 17 28 41
5.845688 2.147396 29.824940 35 23 38
5.894145 2.143325 29.768408 20 38 18
5.945015 2.140205 29.725075 31 36 43
5.990261 2.135142 29.654757 36 16 23
6.038135 2.131106 29.598700 18 30 17
6.085058 2.126816 29.539116 36 19 23
6.128034 2.121243 29.461704 23 15 22
6.175967 2.117474 29.409365 120 120 120
6.218482 2.111937 29.332464 120 120 120
6.263890 2.107477 29.270514 120 120 120
6.310946 2.103649 29.217344 34 16 25
6.357182 2.099620 29.161386 32 29 22
6.409768 2.097742 29.135307 25 32 33
6.460338 2.095245 29.100620 27 15 31
6.512619 2.093342 29.074190 39 34 30
6.566621 2.092021 29.055845 30 35 40
6.620672 2.090739 29.038036 30 35 40
6.677627 2.090387 29.033159 30 35 40
6.733883 2.089826 29.025358 30 35 40
6.791120 2.089575 29.021881 30 35 40
6.847389 2.089034 29.014360 30 35 40
6.900987 2.087694 28.995745 30 35 40
6.954526 2.086358 28.977192 30 35 40
7.004333 2.083934 28.943525 30 35 40
7.054822 2.081751 28.913206 30 35 40
7.104819 2.079459 28.881376 30 35 40
7.153388 2.076790 28.844305 30 35 40
7.205368 2.075146 28.821470 30 35 40
7.256145 2.073184 28.794226 30 35 40
7.309893 2.072096 28.779106 30 35 40
7.364115 2.071157 28.766075 24 18 33
7.415903 2.069554 28.743811 20 41 29
7.469107 2.068368 28.727335 20 37 44
7.519489 2.066424 28.700340 21 44 40
7.571567 2.064973 28.680178 34 29 37
7.622514 2.063237 28.656067 40 25 38
7.670080 2.060619 28.619703 38 34 30
7.719705 2.058588 28.591501 43 38 33
7.765266 2.055512 28.548773 29 38 28
7.812751 2.052986 28.513689 28 39 18
7.861081 2.050717 28.482176 21 35 39
7.908963 2.048364 28.449507 21 31 36
7.961538 2.047253 28.434065 18 39 44
8.011216 2.045417 28.408567 18 41 29
8.061807 2.043838 28.386644 44 38 41
8.112652 2.042346 28.365915 28 37 19
8.162119 2.040530 28.340691 33 17 26
8.214391 2.039435 28.325485 18 28 37
8.265992 2.038190 28.308193 40 30 22
8.320553 2.037686 28.301201 30 26 26
8.374737 2.037098 28.293032 43 20 26
8.425564 2.035707 28.273705 40 15 44
8.476829 2.034439 28.256098 30 31 27
8.523000 2.031974 28.221855 31 19 21
8.570521 2.029860 28.192503 30 43 20
8.615914 2.027274 28.156582 40 41 36
8.657361 2.023799 28.108315 21 35 23
8.702661 2.021263 28.073101 18 25 37
8.740852 2.017120 28.015551 16 30 41
8.782558 2.013835 27.969929 15 18 41
8.822885 2.010278 27.920523 20 24 42
8.857441 2.005458 27.853588 39 15 26
8.898051 2.002062 27.806410 21 43 32
8.933146 1.997474 27.742689 41 20 41
8.974221 1.994271 27.698214 18 22 41
9.016658 1.991409 27.658459 38 43 21
9.055455 1.987783 27.608095 29 21 35
9.100716 1.985611 27.577927 43 21 37
9.138770 1.981902 27.526415 24 38 19
9.177990 1.978489 27.479013 18 40 15
9.218551 1.975404 27.436165 18 17 15
9.259875 1.972518 27.396080 42 40 31
9.309285 1.971378 27.380251 35 17 28
9.353319 1.969120 27.348886 15 43 28
9.398205 1.967066 27.320364 34 30 44
9.441985 1.964806 27.288973 26 15 18
9.481720 1.961735 27.246323 28 30 33
5.082702 2.293414 30.992086 33 22 19
5.111530 2.278634 30.792347 25 20 25
5.132393 2.260697 30.549957 18 25 15
5.167951 2.249579 30.399712 24 42 26
5.194916 2.235022 30.202999 31 34 22
5.230234 2.224352 30.058815 36 38 37
5.271498 2.216425 29.951693 44 34 32
5.311242 2.208045 29.838440 34 15 35
5.362656 2.204648 29.792534 44 44 39
5.416203 2.202192 29.759356 29 31 43
5.476011 2.202309 29.760931 18 27 15
5.538469 2.203477 29.776716 28 34 38
5.597352 2.203213 29.773151 43 25 30
5.655265 2.202577 29.764555 35 34 20
5.709335 2.200473 29.736120 22 17 35
5.763157 2.198318 29.706995 33 15 29
5.814567 2.195296 29.666161 33 17 39
5.863073 2.191250 29.611481 30 15 33
5.913971 2.188169 29.569855 39 17 34
5.959466 2.183171 29.502308 20 19 15
6.007484 2.179185 29.448450 20 26 30
6.054596 2.174952 29.391245 23 31 28
6.097925 2.169454 29.316948 39 18 41
6.146011 2.165737 29.266720 120 120 120
6.188896 2.160275 29.192904 120 120 120
6.234549 2.155872 29.133406 120 120 120
6.281792 2.152095 29.082369 15 38 29
6.328273 2.148129 29.028774 16 39 24
6.380864 2.146291 29.003927 33 34 33
6.431453 2.143818 28.970509 41 39 24
6.483598 2.141903 28.944633 30 35 40
6.537394 2.140563 28.926523 30 35 40
6.591311 2.139285 28.909258 30 35 40
6.648089 2.138950 28.904734 30 35 40
6.704125 2.138385 28.897089 30 35 40
6.761092 2.138123 28.893555 30 35 40
6.817035 2.137545 28.885740 30 35 40
6.870259 2.136131 28.866634 30 35 40
6.923427 2.134723 28.847614 30 35 40
6.972906 2.132211 28.813662 30 35 40
7.023193 2.129985 28.783579 30 35 40
7.072957 2.127638 28.751860 30 35 40
7.121149 2.124859 28.714310 30 35 40
7.172696 2.123118 28.690784 30 35 40
7.222774 2.120973 28.661802 30 35 40
7.275803 2.119722 28.644892 30 35 40
7.329215 2.118601 28.629745 39 22 35
7.380060 2.116761 28.604885 32 22 42
7.432532 2.115413 28.586662 25 15 18
7.482172 2.113285 28.557909 25 25 41
7.533829 2.111755 28.537230 41 33 27
7.584375 2.109939 28.512688 40 27 27
7.631248 2.107136 28.474806 29 36 26
7.680182 2.104939 28.445118 43 15 22
7.725006 2.101656 28.400757 31 41 40
7.771940 2.098991 28.364746 31 35 41
7.819834 2.096622 28.332731 33 41 20
7.867264 2.094164 28.299511 27 32 15
7.919508 2.093013 28.283957 44 42 33
7.968801 2.091104 28.258160 33 35 15
8.018943 2.089443 28.235716 34 25 44
8.069426 2.087893 28.214777 22 36 41
8.118690 2.086052 28.189898 39 38 31
8.170858 2.084978 28.175373 20 35 27
8.222589 2.083807 28.159550 25 21 26
8.277288 2.083399 28.154039 18 35 21
8.331656 2.082914 28.147486 16 39 41
8.382670 2.081603 28.129765 20 27 32
8.433888 2.080359 28.112961 33 41 15
8.480401 2.077979 28.080797 28 39 30
8.528276 2.075962 28.053539 24 36 34
8.574157 2.073489 28.020123 41 17 42
8.616334 2.070158 27.975109 20 23 20
8.662093 2.067725 27.942236 38 16 31
8.700884 2.063671 27.887449 26 37 19
8.742791 2.060403 27.843285 32 18 37
8.783294 2.056847 27.795233 31 34 31
8.818410 2.052083 27.730848 27 27 22
8.859437 2.048745 27.685741 29 44 42
8.895067 2.044208 27.624432 31 42 19
8.936418 2.041034 27.581537 19 21 36
8.978928 2.038161 27.542723 19 25 17
9.017674 2.034475 27.492908 44 40 37
9.062612 2.032222 27.462461 23 28 25
9.100602 2.028448 27.411453 26 36 34
9.139956 2.025020 27.365139 26 27 15
9.180725 2.021945 27.323586 32 27 35
9.222062 2.019031 27.284208 26 32 22
9.271237 2.017858 27.268345 17 33 22
9.315973 2.015737 27.239687 29 37 22
