ply
format ascii 1.0
element vertex 1289
property float x
property float y
property float z
property uchar red
property uchar green
property uchar blue
end_header
6.366991 1.711557 34.231133 44 34 18
6.396824 1.701283 34.025658 44 43 36
6.440767 1.694939 33.898773 21 25 34
6.470546 1.685038 33.700760 40 26 18
6.508652 1.677488 33.549755 24 17 42
6.544789 1.669589 33.391781 33 24 44
6.569334 1.658923 33.178455 37 26 39
6.606265 1.651566 33.031326 32 22 39
6.626658 1.640262 32.805237 34 33 28
6.657297 1.631690 32.633808 36 31 26
6.686068 1.622832 32.456642 37 21 22
6.701462 1.610928 32.218567 30 20 32
6.731565 1.602754 32.055073 120 120 120
6.747665 1.591430 31.828608 120 120 120
6.774494 1.582826 31.656513 120 120 120
6.807162 1.575732 31.514637 27 32 26
6.836117 1.567917 31.358334 26 43 25
6.882012 1.564094 31.281874 36 28 17
6.928210 1.560408 31.208153 28 19 18
6.982406 1.558573 31.171455 34 15 36
7.044075 1.558424 31.168472 35 27 18
7.108012 1.558775 31.175493 32 22 19
7.176345 1.560075 31.201502 19 32 15
7.240098 1.560366 31.207319 23 26 32
7.298744 1.559561 31.191212 24 21 40
7.353470 1.557939 31.158772 42 38 33
7.406675 1.556024 31.120483 15 27 37
7.461735 1.554528 31.090561 18 17 39
7.510913 1.551841 31.036829 41 37 19
7.560629 1.549309 30.986183 33 42 22
7.610737 1.546898 30.937954 28 38 35
7.660421 1.544440 30.888796 19 37 23
7.716109 1.543222 30.864435 37 40 18
7.772367 1.542136 30.842728 35 34 35
7.833527 1.542033 30.840658 34 25 42
7.894782 1.541950 30.838993 42 17 41
7.950765 1.540846 30.816919 44 15 21
8.005980 1.539612 30.792231 30 35 40
8.056285 1.537459 30.749178 30 35 40
8.107743 1.535557 30.711147 30 35 40
8.158780 1.533605 30.672106 30 35 40
8.208284 1.531396 30.627924 30 35 40
8.262507 1.530094 30.601879 30 35 40
8.314612 1.528421 30.568426 30 35 40
8.369034 1.527196 30.543919 30 35 40
8.425433 1.526347 30.526932 30 35 40
8.481746 1.525494 30.509878 30 35 40
8.541277 1.525228 30.504562 30 35 40
8.601400 1.525071 30.501417 25 37 28
8.662602 1.525106 30.502119 33 42 23
8.724639 1.525287 30.505732 34 31 25
8.786481 1.525431 30.508614 16 42 18
8.848180 1.525548 30.510965 42 39 21
8.908833 1.525485 30.509701 40 37 38
8.968886 1.525321 30.506414 17 36 18
9.027862 1.524977 30.499535 33 16 15
9.086051 1.524505 30.490103 21 32 37
9.144673 1.524112 30.482243 35 29 44
9.200480 1.523258 30.465164 25 16 43
9.256870 1.522512 30.450232 21 40 27
9.311670 1.521515 30.430294 37 34 16
9.364014 1.520132 30.402641 16 16 17
9.418317 1.519083 30.381668 44 29 29
9.466576 1.517079 30.341589 36 19 43
9.516760 1.515408 30.308153 26 23 39
9.564230 1.513328 30.266552 30 36 28
9.606961 1.510528 30.210569 34 39 30
9.654334 1.508490 30.169794 17 39 20
9.688746 1.504464 30.089273 19 21 33
9.726069 1.500937 30.018732 19 30 30
9.758705 1.496734 29.934679 38 30 42
9.781829 1.491132 29.822649 17 20 23
9.814826 1.487095 29.741896 43 39 27
6.202341 1.791787 34.457451 44 22 26
6.222698 1.777914 34.190651 24 42 24
6.259710 1.769048 34.020161 22 32 19
6.301969 1.761841 33.881554 39 30 17
6.334362 1.752058 33.693417 23 30 16
6.380050 1.746119 33.579208 40 34 26
6.413484 1.736985 33.403561 26 35 22
6.454871 1.730172 33.272530 21 25 20
6.494354 1.722992 33.134460 26 39 32
6.522713 1.713036 32.942993 19 31 36
6.561642 1.706027 32.808212 15 17 16
6.584529 1.695027 32.596676 16 33 16
6.616316 1.686512 32.432922 34 23 27
6.646107 1.677658 32.262653 21 18 24
6.663924 1.665981 32.038097 21 17 27
6.695999 1.658057 31.885712 120 120 120
6.714159 1.646869 31.670563 120 120 120
6.741816 1.638198 31.503811 120 120 120
6.774784 1.630967 31.364742 28 17 42
6.804431 1.623075 31.212984 40 37 27
6.850573 1.619226 31.138968 38 21 33
6.897197 1.615560 31.068455 24 20 41
6.952113 1.613883 31.036221 42 20 29
7.013628 1.613755 31.033751 21 41 34
7.075611 1.613736 31.033382 33 17 42
7.141118 1.614514 31.048338 21 21 29
7.202198 1.614286 31.043955 39 44 22
7.259497 1.613222 31.023493 36 15 27
7.313813 1.611518 30.990732 36 22 16
7.367032 1.609604 30.953917 35 16 19
7.422664 1.608244 30.927767 25 40 39
7.472430 1.605646 30.877811 28 37 33
7.522215 1.603095 30.828751 25 38 23
7.572236 1.600635 30.781448 42 27 38
7.622012 1.598164 30.733919 19 15 25
7.677647 1.596951 30.710588 15 40 19
7.733656 1.595834 30.689112 20 15 31
7.794553 1.595735 30.687218 29 43 20
7.855045 1.595556 30.683769 25 16 28
7.909350 1.594133 30.656395 30 35 40
7.962669 1.592534 30.625648 30 35 40
8.011672 1.590103 30.578899 30 35 40
8.063030 1.588172 30.541779 30 35 40
8.114517 1.586297 30.505705 30 35 40
8.164304 1.584119 30.463820 30 35 40
8.218629 1.582847 30.439367 30 35 40
8.270484 1.581122 30.406193 30 35 40
8.324289 1.579792 30.380617 30 35 40
8.379754 1.578794 30.361429 30 35 40
8.435033 1.577776 30.341846 30 35 40
8.493682 1.577398 30.334578 30 35 40
8.552607 1.577076 30.328394 36 34 30
8.612788 1.576989 30.326719 35 18 33
8.673786 1.577052 30.327923 28 28 25
8.734319 1.577030 30.327497 16 36 15
8.794999 1.577034 30.327581 44 38 23
8.854651 1.576856 30.324148 22 32 27
8.914098 1.576643 30.320061 40 20 44
8.972620 1.576271 30.312904 30 33 39
9.030164 1.575733 30.302565 26 43 37
9.088228 1.575293 30.294094 42 41 40
9.143291 1.574342 30.275799 39 27 25
9.199099 1.573530 30.260195 42 36 18
9.253073 1.572418 30.238802 41 43 38
9.304004 1.570806 30.207806 32 39 40
9.356879 1.569541 30.183481 37 39 31
9.403640 1.567273 30.139872 19 41 25
9.452552 1.565391 30.103670 39 31 29
9.499489 1.563207 30.061674 39 36 41
9.542534 1.560414 30.007967 23 22 24
9.590771 1.558500 29.971161 20 28 32
9.627199 1.554703 29.898132 42 28 36
9.666773 1.551457 29.835720 37 40 36
9.701182 1.547428 29.758226 43 17 23
9.725080 1.541781 29.649635 39 23 34
9.757385 1.537527 29.567833 16 38 30
9.775020 1.531027 29.442831 24 40 23
6.151461 1.845438 34.174782 41 35 25
6.173147 1.831593 33.918388 27 27 24
6.211052 1.822809 33.755718 17 17 15
6.254768 1.815900 33.627785 37 17 21
6.289266 1.806491 33.453545 31 38 30
6.336442 1.800883 33.349693 35 40 27
6.372816 1.792354 33.191750 26 29 30
6.416821 1.786125 33.076397 24 42 19
6.458873 1.779485 32.953434 34 41 23
6.490080 1.770022 32.778183 15 17 43
6.530424 1.763214 32.652119 21 38 24
6.554911 1.752303 32.450054 44 43 21
6.587392 1.743721 32.291138 23 40 23
6.617483 1.734680 32.123703 36 30 36
6.636066 1.722825 31.904163 27 26 20
6.668519 1.714762 31.754850 120 120 120
6.687098 1.703318 31.542917 120 120 120
6.714750 1.694376 31.377337 120 120 120
6.747649 1.686912 31.239117 37 32 36
6.777514 1.678834 31.089512 18 38 39
6.823801 1.674933 31.017277 17 16 40
6.871006 1.671326 30.950476 28 16 26
6.926896 1.669877 30.923641 29 31 20
6.988856 1.669904 30.924143 23 27 19
7.049838 1.669698 30.920341 41 38 31
7.113431 1.670110 30.927961 36 44 33
7.173180 1.669619 30.918879 16 24 22
7.230389 1.668551 30.899099 35 32 35
7.285210 1.666955 30.869535 32 30 15
7.338850 1.665117 30.835503 44 36 23
7.394774 1.663824 30.811560 27 39 20
7.444887 1.661256 30.763996 25 37 37
7.494747 1.658674 30.716177 44 19 35
7.544746 1.656164 30.669701 38 32 36
7.594644 1.653672 30.623564 16 29 17
7.650291 1.652463 30.601166 28 30 29
7.706220 1.651333 30.580238 30 35 40
7.767043 1.651261 30.578911 30 35 40
7.827041 1.651016 30.574377 30 35 40
7.880017 1.649306 30.542700 30 35 40
7.931763 1.647366 30.506781 30 35 40
7.979665 1.644664 30.456736 30 35 40
8.030888 1.642682 30.420031 30 35 40
8.082759 1.640861 30.386312 30 35 40
8.132884 1.638715 30.346581 30 35 40
8.187462 1.637492 30.323935 30 35 40
8.239552 1.635793 30.292469 30 35 40
8.293429 1.634471 30.267988 30 35 40
8.348665 1.633434 30.248785 30 35 40
8.403447 1.632324 30.228228 30 35 40
8.461410 1.631843 30.219322 30 35 40
8.519287 1.631353 30.210238 30 35 40
8.578553 1.631133 30.206171 17 33 43
8.638484 1.631042 30.204491 39 18 30
8.697649 1.630809 30.200169 20 31 35
8.757238 1.630658 30.197372 42 35 20
8.815551 1.630273 30.190245 18 44 31
8.874048 1.629927 30.183836 15 31 32
8.931712 1.629434 30.174702 37 18 38
8.988108 1.628718 30.161436 29 34 27
9.045301 1.628154 30.151005 35 30 22
9.099477 1.627059 30.130718 26 24 22
9.154660 1.626157 30.114012 31 43 20
9.208260 1.624987 30.092352 18 33 18
9.258933 1.623319 30.061472 21 37 25
9.311732 1.622044 30.037844 37 33 20
9.358344 1.619713 29.994692 28 40 23
9.406968 1.617759 29.958496 21 43 30
9.453517 1.615474 29.916193 16 27 42
9.495768 1.612489 29.860905 18 25 34
9.543082 1.610395 29.822130 28 20 39
9.580330 1.606639 29.752579 26 23 16
9.622505 1.603751 29.699091 23 18 30
9.659387 1.600021 29.630022 44 26 33
9.683953 1.594309 29.524248 21 20 31
9.715159 1.589753 29.439875 23 38 34
9.730671 1.582699 29.309250 29 33 16
6.071395 1.910102 34.108963 24 18 18
6.103675 1.898921 33.909306 36 31 23
6.127099 1.885261 33.665379 24 22 36
6.166142 1.876652 33.511639 29 20 41
6.211401 1.870099 33.394630 38 23 35
6.248179 1.861160 33.234997 36 36 22
6.296943 1.855941 33.141808 42 40 42
6.336212 1.848062 33.001102 29 40 33
6.382725 1.842436 32.900642 29 43 16
6.427097 1.836313 32.791309 31 27 34
6.460807 1.827299 32.630341 43 27 44
6.502294 1.820642 32.511471 22 44 44
6.527823 1.809694 32.315956 40 21 21
6.560607 1.800951 32.159840 22 40 19
6.590406 1.791567 31.992262 28 17 35
6.608699 1.779265 31.772593 31 18 18
6.640635 1.770836 31.622070 120 120 120
6.658576 1.758869 31.408379 120 120 120
6.685598 1.749502 31.241110 120 120 120
6.718011 1.741707 31.101904 35 33 30
6.747595 1.733327 30.952269 22 32 26
6.793813 1.729334 30.880968 15 20 30
6.841506 1.725785 30.817595 40 30 31
6.898409 1.724602 30.796467 15 17 30
6.961006 1.724851 30.800913 35 42 20
7.021224 1.724511 30.794844 34 15 29
7.083100 1.724581 30.796085 40 19 37
7.142052 1.723944 30.784708 18 29 17
7.199840 1.723039 30.768547 33 39 36
7.255769 1.721708 30.744783 27 27 20
7.310193 1.720045 30.715096 35 29 35
7.366387 1.718824 30.693281 29 35 33
7.416875 1.716302 30.648245 18 38 17
7.466891 1.713713 30.602011 32 28 23
7.516927 1.711170 30.556614 33 44 38
7.567019 1.708682 30.512173 31 42 31
7.622714 1.707488 30.490854 30 35 40
7.678499 1.706333 30.470234 30 35 40
7.739053 1.706248 30.468714 30 35 40
7.798463 1.705914 30.462746 30 35 40
7.850369 1.703956 30.427788 30 35 40
7.900963 1.701746 30.388319 30 35 40
7.948121 1.698835 30.336338 30 35 40
7.999281 1.696817 30.300308 30 35 40
8.051513 1.695055 30.268847 30 35 40
8.102059 1.692968 30.231564 30 35 40
8.156968 1.691815 30.210991 30 35 40
8.209410 1.690173 30.181656 30 35 40
8.263446 1.688880 30.158564 30 35 40
8.318557 1.687823 30.139698 30 35 40
8.373010 1.686649 30.118740 30 35 40
8.430437 1.686087 30.108704 30 35 40
8.487394 1.685440 30.097143 29 26 23
8.545809 1.685089 30.090876 24 35 33
8.604678 1.684832 30.086287 35 30 26
8.662432 1.684362 30.077890 25 43 25
8.720852 1.684027 30.071903 30 15 16
8.777741 1.683402 30.060757 34 37 36
8.835206 1.682896 30.051722 22 24 38
8.891928 1.682257 30.040297 25 16 17
8.947047 1.681324 30.023647 27 44 34
9.003274 1.680611 30.010912 20 16 35
9.056476 1.679347 29.988331 38 33 42
9.110939 1.678331 29.970194 27 18 42
9.164234 1.677115 29.948477 30 41 21
9.215044 1.675463 29.918974 20 18 42
9.268285 1.674271 29.897694 32 32 22
9.315156 1.671951 29.856268 37 30 26
9.363705 1.669960 29.820717 37 15 18
9.409710 1.667544 29.777563 43 27 39
9.450625 1.664261 29.718946 15 21 32
9.496324 1.661857 29.676012 29 18 25
9.533555 1.658010 29.607315 29 37 40
9.577573 1.655383 29.560411 39 25 44
9.616670 1.651943 29.498987 19 41 44
9.642522 1.646284 29.397934 35 32 23
9.673764 1.641609 29.314438 40 32 28
9.687958 1.634113 29.180595 27 16 20
9.709263 1.627900 29.069651 36 23 34
6.004963 1.978908 34.119110 17 37 43
6.010381 1.958439 33.766186 16 42 19
6.043427 1.947326 33.574593 23 20 18
6.068724 1.933989 33.344635 40 17 34
6.109148 1.925710 33.201893 34 36 20
6.156318 1.919712 33.098484 38 42 44
6.195962 1.911520 32.957245 32 44 28
6.246760 1.906906 32.877686 15 37 30
6.289619 1.899989 32.758434 29 22 41
6.339178 1.895218 32.676174 25 38 27
6.386344 1.889836 32.583385 25 25 27
6.423124 1.881521 32.440022 18 36 37
6.466015 1.875144 32.330074 34 26 16
6.492790 1.864266 32.142525 18 32 30
6.525821 1.855380 31.989319 16 34 39
6.555184 1.845634 31.821283 19 27 26
6.573236 1.832922 31.602097 18 21 21
6.604718 1.824160 31.451040 120 120 120
6.621971 1.811671 31.235712 120 120 120
6.648165 1.801839 31.066191 120 120 120
6.679810 1.793653 30.925045 41 35 34
6.708812 1.784913 30.774368 42 36 36
6.754710 1.780787 30.703228 41 44 21
6.802602 1.777256 30.642351 28 38 31
6.860314 1.776331 30.626404 30 37 27
6.923346 1.776788 30.634275 41 27 29
6.982485 1.776246 30.624933 42 33 41
7.042365 1.775901 30.618980 20 30 37
7.100128 1.775032 30.604002 20 35 31
7.158077 1.774224 30.590071 19 42 40
7.214812 1.773132 30.571236 39 21 42
7.269933 1.771664 30.545938 30 34 25
7.326508 1.770573 30.527119 15 43 38
7.377492 1.768159 30.485504 19 17 18
7.427670 1.765594 30.441271 20 17 37
7.477693 1.763033 30.397127 39 37 22
7.527938 1.760566 30.354588 30 35 40
7.583601 1.759395 30.334402 30 35 40
7.638938 1.758168 30.313246 30 35 40
7.698637 1.757957 30.309595 30 35 40
7.756991 1.757443 30.300745 30 35 40
7.807843 1.755251 30.262957 30 35 40
7.857662 1.752863 30.221775 30 35 40
7.904440 1.749838 30.169619 30 35 40
7.955636 1.747829 30.134983 30 35 40
8.008241 1.746158 30.106169 30 35 40
8.059329 1.744183 30.072123 30 35 40
8.114630 1.743143 30.054184 30 35 40
8.167254 1.741547 30.026669 30 35 40
8.220989 1.740209 30.003611 30 35 40
8.275506 1.739056 29.983717 30 35 40
8.329464 1.737802 29.962099 30 35 40
8.386422 1.737187 29.951508 30 35 40
8.442573 1.736416 29.938202 44 16 43
8.500176 1.735952 29.930199 41 19 31
8.558022 1.735543 29.923153 23 39 35
8.614427 1.734850 29.911205 21 24 17
8.671685 1.734337 29.902361 22 43 33
8.727307 1.733506 29.888037 40 42 39
8.783953 1.732889 29.877392 28 32 29
8.839964 1.732155 29.864744 43 32 18
8.894063 1.731059 29.845850 22 34 28
8.949431 1.730223 29.831438 36 30 31
9.001657 1.728795 29.806812 33 32 22
9.055268 1.727650 29.787066 21 37 21
9.107934 1.726340 29.764490 35 28 43
9.158394 1.724633 29.735046 33 21 23
9.211576 1.723456 29.714762 25 26 38
9.258239 1.721083 29.673841 20 31 39
9.306362 1.719010 29.638096 22 35 39
9.351764 1.716463 29.594189 35 41 35
9.391785 1.712967 29.533915 17 44 16
9.436543 1.710373 29.489197 17 34 24
9.473534 1.706413 29.420914 44 38 41
9.517728 1.703791 29.375704 37 29 25
9.557784 1.700465 29.318356 23 24 41
9.585893 1.695067 29.225285 40 38 41
9.619394 1.690681 29.149679 40 39 42
9.633921 1.683034 29.017834 43 24 22
9.652808 1.676236 28.900623 41 15 22
9.671307 1.669452 28.783653 16 21 20
5.954704 2.053346 34.222435 18 41 44
5.966017 2.033869 33.897823 18 43 29
5.972338 2.013148 33.552460 34 31 22
6.005842 2.001947 33.365788 31 39 44
6.032354 1.988688 33.144802 28 22 15
6.073748 1.980570 33.009499 36 15 17
6.122182 1.974898 32.914959 19 21 26
6.163766 1.967159 32.785988 43 39 16
6.215939 1.962928 32.715469 34 31 26
6.261097 1.956593 32.609882 31 33 39
6.312535 1.952330 32.538841 23 38 41
6.361354 1.947353 32.455887 21 41 43
6.399951 1.939379 32.322983 17 20 25
6.443638 1.933091 32.218189 29 27 22
6.470959 1.922067 32.034451 29 15 28
6.503913 1.912916 31.881927 22 31 16
6.532709 1.902731 31.712179 17 23 33
6.550225 1.889488 31.491465 39 18 31
6.581139 1.880325 31.338757 120 120 120
6.597559 1.867234 31.120562 120 120 120
6.622943 1.856900 30.948334 120 120 120
6.653830 1.848286 30.804770 37 27 34
6.682127 1.839118 30.651960 40 24 30
6.727590 1.834797 30.579954 15 36 35
6.775337 1.831172 30.519535 37 34 36
6.833347 1.830361 30.506012 38 19 38
6.896539 1.830939 30.515657 44 17 40
6.955027 1.830270 30.504505 33 40 39
7.013787 1.829684 30.494726 18 39 16
7.070913 1.828684 30.478073 31 31 17
7.128949 1.827936 30.465593 27 24 29
7.186140 1.826985 30.449745 38 35 30
7.241707 1.825640 30.427341 29 43 28
7.298547 1.824637 30.410614 15 24 43
7.349863 1.822280 30.371336 27 32 35
7.400158 1.819711 30.328516 23 26 23
7.450163 1.817113 30.285215 24 24 16
7.500487 1.814634 30.243898 30 35 40
7.556089 1.813461 30.224358 30 35 40
7.610945 1.812130 30.202162 30 35 40
7.669720 1.811745 30.195747 30 35 40
7.727159 1.811053 30.184214 30 35 40
7.777596 1.808743 30.145720 30 35 40
7.827452 1.806335 30.105585 30 35 40
7.874444 1.803308 30.055128 30 35 40
7.925740 1.801305 30.021744 30 35 40
7.978540 1.799671 29.994513 30 35 40
8.030022 1.797766 29.962769 30 35 40
8.085609 1.796802 29.946699 30 35 40
8.138268 1.795206 29.920101 30 35 40
8.191586 1.793778 29.896297 30 35 40
8.245538 1.792508 29.875139 30 35 40
8.299193 1.791193 29.853210 30 35 40
8.356026 1.790577 29.842949 30 35 40
8.411906 1.789767 29.829453 30 17 40
8.469150 1.789257 29.820950 25 40 44
8.526512 1.788779 29.812981 32 37 15
8.582262 1.787971 29.799522 39 19 40
8.638906 1.787360 29.789331 35 31 35
8.693951 1.786428 29.773806 41 34 24
8.750304 1.785776 29.762939 37 17 28
8.806070 1.785014 29.750237 29 44 33
8.859782 1.783849 29.730812 19 15 36
8.914745 1.782949 29.715816 37 35 21
8.966444 1.781413 29.690212 23 29 26
9.019485 1.780162 29.669359 38 30 43
9.071662 1.778757 29.645954 31 31 34
9.121791 1.776972 29.616205 37 37 33
9.174846 1.775777 29.596277 29 25 24
9.221270 1.773321 29.555351 42 25 35
9.269042 1.771154 29.519241 36 22 36
9.314040 1.768489 29.474812 37 35 39
9.353677 1.764845 29.414080 35 22 31
9.398123 1.762148 29.369133 18 29 26
9.434489 1.757979 29.299654 17 28 36
9.477324 1.755060 29.250999 22 33 15
9.516903 1.751577 29.192953 38 17 32
9.547085 1.746418 29.106966 24 29 30
9.583741 1.742498 29.041639 34 36 26
9.599863 1.734915 28.915249 20 38 19
9.617587 1.727710 28.795170 21 42 22
9.633882 1.720336 28.672268 25 28 22
9.646027 1.712313 28.538542 16 36 22
5.896645 2.101103 33.888763 43 36 25
5.910021 2.081939 33.579662 21 30 32
5.918147 2.061377 33.248016 38 30 30
5.952722 2.050382 33.070679 34 29 17
5.981305 2.037588 32.864315 17 17 35
6.024199 2.029893 32.740211 20 27 17
6.074320 2.024773 32.657635 18 29 39
6.118400 2.017770 32.544682 44 20 25
6.172219 2.014093 32.485363 31 32 41
6.220006 2.008543 32.395863 21 30 31
6.273558 2.004952 32.337929 40 24 25
6.324030 2.000459 32.265461 19 29 22
6.364179 1.992824 32.142319 33 30 37
6.408167 1.986532 32.040836 30 28 42
6.435629 1.975292 31.859549 31 18 43
6.468383 1.965881 31.707760 16 23 21
6.496530 1.955266 31.536552 24 22 24
6.513266 1.941454 31.313780 43 16 41
6.543328 1.931840 31.158705 120 120 120
6.558646 1.918095 30.937010 120 120 120
6.583004 1.907225 30.761700 120 120 120
6.613018 1.898181 30.615822 16 42 27
6.640586 1.888607 30.461403 15 26 40
6.685657 1.884140 30.389351 24 20 35
6.733428 1.880507 30.330755 33 38 41
6.791950 1.879915 30.321205 36 33 26
6.855412 1.880688 30.333681 26 16 28
6.913029 1.879859 30.320301 36 16 15
6.970217 1.878928 30.305290 22 33 43
7.026470 1.877764 30.286509 43 41 39
7.084647 1.877129 30.276270 37 15 27
7.142517 1.876424 30.264904 40 42 33
7.198755 1.875306 30.246870 38 34 17
7.255963 1.874457 30.233181 31 36 40
7.307877 1.872266 30.197840 35 32 24
7.358479 1.869777 30.157701 26 37 27
7.408655 1.867222 30.116486 33 33 37
7.459299 1.864825 30.077818 30 35 40
7.514950 1.863708 30.059799 30 35 40
7.569750 1.862399 30.038689 30 35 40
7.628124 1.861983 30.031984 30 35 40
7.685158 1.861249 30.020147 30 35 40
7.735540 1.858928 29.982714 30 35 40
7.785443 1.856529 29.944012 30 35 40
7.832745 1.853550 29.895975 30 35 40
7.884333 1.851624 29.864897 30 35 40
7.937350 1.850059 29.839661 30 35 40
7.988980 1.848197 29.809628 30 35 40
8.044414 1.847236 29.794127 30 35 40
8.096708 1.845573 29.767307 30 35 40
8.149418 1.844029 29.742401 30 35 40
8.202706 1.842637 29.719950 30 35 40
8.255941 1.841253 29.697628 30 35 40
8.312561 1.840639 29.687719 15 25 34
8.367976 1.839768 29.673674 44 31 36
8.424640 1.839182 29.664225 32 28 34
8.481227 1.838588 29.654640 34 28 21
8.535937 1.837598 29.638672 26 18 39
8.591628 1.836831 29.626305 31 17 33
8.645750 1.835742 29.608734 29 37 17
8.701596 1.835030 29.597265 39 19 19
8.756919 1.834219 29.584185 23 26 32
8.809917 1.832936 29.563480 35 38 40
8.864190 1.831933 29.547300 18 30 20
8.914927 1.830217 29.519627 27 38 38
8.967032 1.828803 29.496817 36 31 39
9.018313 1.827240 29.471611 27 20 16
9.067632 1.825303 29.440365 37 17 19
9.120195 1.824039 29.419983 39 28 31
9.165845 1.821418 29.377708 19 29 44
9.212794 1.819087 29.340109 37 31 35
9.256931 1.816233 29.294085 40 25 24
9.295666 1.812363 29.231655 43 36 30
9.339447 1.809518 29.185772 36 19 23
9.374975 1.805119 29.114828 21 39 38
9.416385 1.801901 29.062918 25 32 21
9.455634 1.798311 29.005013 19 29 22
9.488132 1.793488 28.927233 35 35 18
9.528152 1.790138 28.873188 35 27 35
9.546556 1.782791 28.754686 44 32 32
9.563864 1.775328 28.634323 34 23 43
9.578692 1.767497 28.508013 20 37 16
9.589953 1.759104 28.372643 43 41 17
5.841783 2.173687 33.963852 20 34 44
5.853832 2.153134 33.642715 28 26 28
5.868910 2.134149 33.346077 31 38 36
5.878716 2.113696 33.026497 31 30 19
5.914374 2.102888 32.857632 34 43 15
5.944730 2.090455 32.663353 25 33 19
5.988851 2.083079 32.548103 34 31 22
6.040158 2.078334 32.473969 24 29 34
6.085906 2.071798 32.371841 29 42 16
6.140688 2.068442 32.319412 22 25 31
6.189953 2.063318 32.239338 29 37 19
6.244647 2.060090 32.188904 24 22 37
6.295878 2.055797 32.121826 35 21 23
6.336671 2.048217 32.003387 26 37 34
6.380585 2.041787 31.902924 42 31 32
6.407716 2.030168 31.721369 40 42 38
6.439944 2.020375 31.568354 22 27 23
6.467337 2.009270 31.394838 28 19 22
6.483280 1.994855 31.169617 16 30 24
6.512677 1.984816 31.012749 120 120 120
6.527250 1.970490 30.788914 120 120 120
6.550938 1.959159 30.611860 120 120 120
6.580480 1.949772 30.465183 16 15 39
6.607725 1.939883 30.310667 36 34 17
6.652674 1.935323 30.239426 26 25 39
6.700795 1.931761 30.183764 25 33 25
6.760067 1.931448 30.178871 40 28 15
6.824044 1.932473 30.194885 38 18 25
6.881175 1.931558 30.180592 41 22 25
6.937132 1.930332 30.161444 15 36 32
6.992764 1.929038 30.141224 15 31 42
7.051152 1.928520 30.133129 30 17 40
7.109675 1.928047 30.125740 34 43 20
7.166575 1.927146 30.111658 38 20 28
7.224183 1.926449 30.100761 29 41 22
7.276758 1.924432 30.069246 33 23 30
7.327777 1.922040 30.031874 26 40 41
7.378322 1.919563 29.993179 30 35 40
7.429463 1.917281 29.957512 30 35 40
7.485304 1.916238 29.941216 30 35 40
7.540641 1.915083 29.923180 30 35 40
7.599561 1.914850 29.919533 30 35 40
7.657041 1.914260 29.910315 30 35 40
7.707705 1.911989 29.874825 30 35 40
7.757469 1.909531 29.836418 30 35 40
7.804905 1.906542 29.789715 30 35 40
7.856851 1.904691 29.760799 30 35 40
7.910076 1.903176 29.737127 30 35 40
7.961530 1.901261 29.707203 30 35 40
8.016422 1.900189 29.690451 30 35 40
8.068055 1.898366 29.661966 30 35 40
8.120211 1.896692 29.635807 30 35 40
8.172994 1.895187 29.612297 30 35 40
8.225781 1.893705 29.589142 44 18 17
8.282144 1.893062 29.579086 18 18 32
8.337042 1.892095 29.563980 26 38 21
8.393143 1.891412 29.553320 41 23 38
8.448999 1.890685 29.541956 36 44 37
8.502731 1.889496 29.523371 24 24 32
8.557561 1.888565 29.508831 44 23 35
8.610764 1.887291 29.488916 18 29 38
8.666070 1.886491 29.476427 25 21 18
8.720913 1.885603 29.462543 31 22 37
8.773148 1.884166 29.440094 25 35 42
8.826760 1.883042 29.422535 30 26 32
8.876567 1.881127 29.392607 29 20 36
8.927837 1.879545 29.367884 35 24 44
8.978293 1.877813 29.340828 36 43 30
9.026765 1.875691 29.307678 28 25 30
9.078753 1.874323 29.286299 15 33 27
9.123568 1.871501 29.242207 41 22 43
9.169690 1.868981 29.202833 34 20 39
9.213009 1.865926 29.155092 20 43 38
9.250844 1.861805 29.090704 21 24 28
9.293979 1.858796 29.043684 35 25 42
9.328944 1.854200 28.971874 17 16 28
9.369644 1.850794 28.918655 43 40 21
9.408932 1.847152 28.861753 19 29 43
9.442914 1.842520 28.789373 19 26 17
9.484906 1.839497 28.742138 19 43 37
9.505013 1.832292 28.629557 17 22 37
9.522618 1.824693 28.510834 30 35 41
9.537191 1.816608 28.384497 15 18 22
9.548464 1.807993 28.249893 22 27 23
9.578825 1.803073 28.173014 33 16 38
5.800137 2.225634 33.721729 37 34 39
5.813021 2.204939 33.408165 27 16 29
5.829972 2.186240 33.124844 43 36 26
5.841651 2.166005 32.818264 19 30 36
5.878496 2.155448 32.658310 29 18 33
5.910617 2.143411 32.475918 42 34 39
5.955885 2.136350 32.368938 26 25 31
6.008199 2.131942 32.302147 27 33 39
6.055367 2.125820 32.209400 19 26 26
6.110925 2.122742 32.162762 32 41 21
6.161252 2.117930 32.089855 15 37 24
6.216751 2.114977 32.045109 22 15 15
6.268277 2.110746 31.981005 30 24 31
6.308793 2.102931 31.862593 23 21 33
6.351778 2.096087 31.758890 24 35 24
6.378248 2.083982 31.575483 25 38 31
6.410405 2.073954 31.423552 26 38 35
6.437763 2.062584 31.251276 26 42 31
6.453253 2.047667 31.025253 20 15 28
6.482002 2.037201 30.866678 120 120 120
6.495890 2.022305 30.640991 120 120 120
6.519010 2.010536 30.462662 120 120 120
6.548155 2.000825 30.315531 28 31 41
6.575193 1.990655 30.161436 15 26 26
6.620087 1.986026 30.091305 26 43 38
6.668356 1.982484 30.037638 16 28 31
6.727886 1.982323 30.035204 28 24 34
6.791899 1.983475 30.052649 31 43 19
6.848459 1.982449 30.037102 25 15 44
6.903433 1.980985 30.014925 16 38 40
6.958523 1.979580 29.993633 28 18 36
7.016983 1.979149 29.987108 36 19 29
7.075908 1.978856 29.982660 28 32 28
7.133201 1.978114 29.971432 31 31 18
7.190986 1.977521 29.962442 44 36 36
7.244016 1.975641 29.933949 41 16 42
7.295339 1.973329 29.898932 27 15 18
7.346177 1.970926 29.862509 19 21 28
7.397708 1.968745 29.829468 30 35 40
7.453666 1.967768 29.814663 30 35 40
7.509570 1.966792 29.799879 30 35 40
7.569126 1.966781 29.799707 30 35 40
7.627255 1.966402 29.793966 30 35 40
7.678542 1.964278 29.761789 30 35 40
7.728485 1.961846 29.724943 30 35 40
7.776253 1.958903 29.680353 30 35 40
7.828519 1.957130 29.653481 30 35 40
7.881777 1.955629 29.630739 30 35 40
7.932858 1.953614 29.600216 30 35 40
7.987021 1.952383 29.581560 30 35 40
8.037989 1.950394 29.551430 33 19 34
8.089781 1.948633 29.524748 26 18 36
8.142341 1.947082 29.501236 31 25 42
8.194918 1.945556 29.478123 17 21 22
8.251141 1.944912 29.468361 26 27 17
8.305744 1.943898 29.452993 43 16 15
8.361422 1.943147 29.441628 22 21 40
8.416734 1.942323 29.429138 15 27 17
8.469741 1.940982 29.408823 44 17 34
8.523914 1.939925 29.392807 37 19 29
8.576464 1.938516 29.371450 40 35 20
8.631413 1.937664 29.358549 16 29 43
8.685928 1.936727 29.344353 19 27 31
8.737591 1.935171 29.320776 44 23 26
8.790642 1.933941 29.302141 31 34 30
8.839616 1.931837 29.270250 15 29 39
8.890130 1.930094 29.243849 17 27 44
8.939770 1.928186 29.214935 40 37 34
8.987310 1.925852 29.179577 36 15 30
9.038605 1.924348 29.156792 19 34 28
9.082403 1.921278 29.110266 23 40 42
9.127574 1.918535 29.068707 44 28 34
9.169968 1.915246 29.018885 32 17 40
9.206801 1.910846 28.952206 41 28 40
9.249255 1.907659 28.903923 43 31 23
9.283670 1.902864 28.831272 25 29 33
9.323879 1.899309 28.777403 24 22 35
9.363223 1.895622 28.721544 24 30 23
9.397973 1.891056 28.652357 32 44 33
9.440950 1.888190 28.608938 32 20 38
9.462676 1.881134 28.502035 37 36 41
9.481607 1.873611 28.388046 37 37 16
9.497265 1.865534 28.265671 33 15 16
9.509399 1.856865 28.134317 32 22 17
9.539801 1.851844 28.058239 26 18 15
5.746447 2.298579 33.802631 29 25 18
5.746859 2.272014 33.411968 40 33 29
5.760448 2.251209 33.106022 20 21 34
5.779422 2.232959 32.837627 15 15 36
5.793131 2.213106 32.545681 29 18 20
5.831310 2.202939 32.396168 34 39 37
5.865486 2.191500 32.227947 19 34 43
5.912047 2.184887 32.130688 25 25 26
5.965589 2.180968 32.073059 43 18 43
6.014623 2.175502 31.992678 39 28 42
6.071310 2.172890 31.954266 26 25 28
6.123351 2.168687 31.892452 22 42 15
6.180426 2.166335 31.857864 30 39 41
6.232648 2.162347 31.799223 38 15 30
6.272390 2.154154 31.678738 40 41 34
6.313326 2.146531 31.566628 44 27 38
6.339018 2.133927 31.381279 18 44 32
6.372295 2.124098 31.236740 16 33 39
6.400988 2.112947 31.072756 25 34 15
6.416547 2.097717 30.848783 40 24 39
6.444358 2.086744 30.687418 120 120 120
6.457255 2.071195 30.458752 120 120 120
6.479628 2.058947 30.278637 120 120 120
6.508168 2.048868 30.130407 15 26 31
6.534830 2.038387 29.976286 32 42 41
6.579572 2.033686 29.907145 33 17 23
6.627461 2.030033 29.853426 32 19 20
6.686420 2.029806 29.850090 32 36 22
6.749659 2.030871 29.865749 34 33 40
6.805171 2.029612 29.847240 36 18 34
6.859143 2.027921 29.822363 30 32 30
6.913551 2.026386 29.799789 26 20 17
6.971834 2.026003 29.794161 26 37 42
7.030868 2.025843 29.791813 22 33 31
7.088187 2.025196 29.782299 19 36 43
7.145870 2.024663 29.774458 33 23 16
7.198999 2.022859 29.747931 35 32 15
7.250382 2.020598 29.714680 15 35 21
7.301281 2.018240 29.680006 19 40 42
7.352909 2.016120 29.648827 30 35 40
7.408751 2.015180 29.635004 30 35 40
7.464761 2.014301 29.622066 30 35 40
7.524253 2.014367 29.623045 30 35 40
7.582564 2.014119 29.619392 30 35 40
7.634710 2.012249 29.591900 30 35 40
7.685501 2.010054 29.559620 30 35 40
7.734039 2.007308 29.519232 30 35 40
7.786473 2.005607 29.494217 30 35 40
7.839458 2.004072 29.471647 30 35 40
7.890108 2.001968 29.440702 30 35 40
7.943577 2.000604 29.420654 41 26 19
7.994108 1.998527 29.390104 31 22 23
8.045809 1.996770 29.364265 20 19 24
8.098454 1.995271 29.342224 21 17 25
8.151164 1.993810 29.320732 23 19 21
8.207408 1.993228 29.312172 21 38 27
8.261949 1.992243 29.297693 37 34 27
8.317373 1.991484 29.286524 43 25 18
8.372258 1.990607 29.273628 32 41 24
8.424776 1.989183 29.252695 35 37 24
8.478422 1.988044 29.235937 28 38 35
8.530563 1.986569 29.214256 38 19 29
8.585371 1.985732 29.201941 38 31 40
8.639717 1.984800 29.188232 44 41 44
8.690985 1.983178 29.164379 26 37 20
8.743526 1.981866 29.145088 18 32 36
8.791725 1.979594 29.111673 22 43 30
8.841492 1.977702 29.083855 27 32 25
8.890279 1.975618 29.053200 20 39 30
8.936867 1.973074 29.015800 21 44 31
8.987416 1.971433 28.991665 29 44 35
9.030072 1.968093 28.942537 26 15 40
9.074107 1.965093 28.898430 24 44 41
9.115378 1.961537 28.846132 36 44 24
9.151018 1.956822 28.776787 16 38 38
9.192655 1.953439 28.727047 18 22 24
9.226381 1.948428 28.653357 37 40 42
9.266043 1.944725 28.598898 38 42 43
9.305306 1.940984 28.543884 35 40 35
9.340328 1.936409 28.476610 44 37 37
9.383695 1.933610 28.435438 41 26 38
9.407036 1.926742 28.334446 41 30 38
9.427976 1.919468 28.227472 25 28 18
9.445543 1.911598 28.111736 37 19 29
9.458928 1.902980 27.984995 25 17 39
9.489313 1.897863 27.909744 40 40 21
9.514332 1.891738 27.819683 40 43 29
5.713397 2.352575 33.608219 39 18 36
5.712798 2.324976 33.213943 35 36 44
5.726755 2.303867 32.912388 40 23 39
5.746941 2.285715 32.653072 38 41 29
5.761884 2.265909 32.370132 22 15 40
5.800897 2.255904 32.227203 22 32 22
5.836312 2.244735 32.067646 42 27 27
5.883605 2.238328 31.976116 37 19 44
5.937841 2.234671 31.923876 28 29 34
5.988031 2.229586 31.851229 18 37 27
6.045447 2.227270 31.818144 16 40 29
6.098644 2.223464 31.763769 22 30 30
6.156928 2.221572 31.736742 40 21 19
6.209602 2.217715 31.681644 42 32 22
6.248216 2.208965 31.556646 43 24 22
6.286968 2.200439 31.434841 19 36 43
6.312019 2.187333 31.247620 33 35 28
6.346877 2.177850 31.112144 42 20 37
6.377502 2.167112 30.958746 27 22 31
6.393566 2.151681 30.738300 42 28 37
6.420686 2.140229 30.574696 120 120 120
6.432872 2.124062 30.343737 120 120 120
6.454788 2.111379 30.162561 120 120 120
6.482919 2.100946 30.013514 44 34 23
6.509319 2.090148 29.859262 20 22 19
6.553950 2.085348 29.790680 16 18 23
6.601210 2.081462 29.735178 42 42 16
6.659132 2.080979 29.728270 24 34 30
6.721246 2.081802 29.740026 35 36 39
6.775881 2.080314 29.718775 31 41 27
6.829432 2.078523 29.693184 43 28 35
6.883433 2.076898 29.669971 27 22 35
6.941408 2.076489 29.664135 17 44 27
7.000199 2.076330 29.661861 31 25 36
7.057192 2.075645 29.652065 27 18 27
7.114546 2.075076 29.643940 38 15 23
7.167410 2.073218 29.617397 27 24 31
7.218616 2.070914 29.584492 27 26 20
7.269366 2.068519 29.550270 39 18 28
7.320804 2.066356 29.519373 30 35 40
7.376402 2.065393 29.505608 30 35 40
7.432181 2.064495 29.492783 30 35 40
7.491209 2.064506 29.492949 30 35 40
7.549391 2.064286 29.489807 30 35 40
7.602285 2.062635 29.466221 30 35 40
7.654105 2.060720 29.438864 30 35 40
7.703437 2.058170 29.402430 30 35 40
7.755818 2.056467 29.378099 30 35 40
7.808376 2.054836 29.354797 30 35 40
7.858680 2.052640 29.323431 30 35 40
7.911730 2.051189 29.302704 40 43 38
7.962190 2.049093 29.272758 19 31 33
8.014102 2.047398 29.248547 19 35 25
8.067118 2.046008 29.228689 35 30 18
8.120222 2.044660 29.209433 17 32 17
8.176635 2.044159 29.202267 28 40 22
8.231398 2.043255 29.189354 15 18 35
8.286854 2.042534 29.179064 28 37 26
8.341690 2.041672 29.166750 18 24 41
8.394214 2.040260 29.146576 26 27 21
8.447758 2.039114 29.130201 43 27 16
8.499971 2.037664 29.109489 26 15 36
8.554913 2.036884 29.098343 26 25 24
8.609347 2.035994 29.085630 30 36 20
8.660613 2.034372 29.062460 33 24 15
8.712960 2.033024 29.043201 23 33 22
8.760854 2.030661 29.009449 44 33 18
8.810270 2.028680 28.981150 44 28 37
8.858609 2.026479 28.949701 22 21 19
8.904661 2.023787 28.911238 23 26 44
8.954746 2.022039 28.886276 32 15 27
8.996667 2.018483 28.835472 40 37 15
9.039960 2.015278 28.789680 31 28 22
9.080473 2.011497 28.735674 28 26 22
9.115339 2.006521 28.664587 36 18 17
9.156458 2.002975 28.613930 27 32 32
9.189742 1.997770 28.539572 36 23 21
9.229177 1.993958 28.485113 44 35 36
9.268301 1.990126 28.430372 43 42 42
9.302820 1.985358 28.362255 42 44 40
9.345556 1.982391 28.319866 32 37 36
9.369669 1.975533 28.221893 23 39 32
9.392515 1.968491 28.121304 36 25 19
9.412177 1.960870 28.012432 22 23 20
9.426826 1.952301 27.890018 20 28 32
9.457242 1.947079 27.815416 29 40 44
9.482398 1.940842 27.726309 34 40 36
5.667687 2.400432 33.339333 25 37 41
5.666669 2.372094 32.945747 19 27 34
5.681210 2.350845 32.650631 39 28 35
5.702739 2.332939 32.401924 18 30 20
5.719127 2.313355 32.129925 33 41 35
5.759025 2.303610 31.994581 16 28 20
5.795803 2.292845 31.845074 24 35 27
5.843887 2.286739 31.760258 34 22 33
5.898862 2.283431 31.714314 19 21 25
5.950399 2.278876 31.651058 18 31 32
6.008702 2.276982 31.624746 44 34 43
6.062655 2.273495 31.576326 22 37 41
6.121035 2.271725 31.551729 34 43 38
6.173221 2.267714 31.496025 30 28 31
6.210872 2.258499 31.368038 15 23 18
6.248328 2.249398 31.241642 27 16 34
6.273414 2.236068 31.056505 27 22 37
6.309636 2.226930 30.929586 36 22 39
6.342019 2.216628 30.786501 32 37 27
6.359275 2.201287 30.573437 33 18 38
6.386590 2.189688 30.412333 120 120 120
6.398773 2.173168 30.182894 120 120 120
6.420288 2.160097 30.001347 120 120 120
6.447782 2.149261 29.850843 26 21 41
6.473909 2.138172 29.696829 17 42 36
6.518416 2.133300 29.629166 32 36 30
6.564590 2.129056 29.570225 17 26 19
6.620662 2.128070 29.556528 35 31 41
6.680778 2.128390 29.560966 25 32 23
6.733954 2.126512 29.534887 20 17 27
6.786936 2.124606 29.508417 41 37 19
6.840257 2.122838 29.483868 24 27 21
6.897619 2.122344 29.477005 39 31 42
6.955833 2.122118 29.473867 36 35 17
7.012069 2.121298 29.462475 22 43 29
7.068742 2.120623 29.453093 31 21 42
7.120934 2.118625 29.425346 35 39 21
7.171651 2.116225 29.392014 31 30 22
7.221962 2.113745 29.357571 31 19 28
7.272853 2.111473 29.326019 23 15 44
7.327927 2.110443 29.311707 30 35 40
7.383121 2.109463 29.298098 30 35 40
7.441430 2.109382 29.296967 30 35 40
7.499182 2.109145 29.293678 30 35 40
7.552314 2.107622 29.272533 30 35 40
7.604662 2.105906 29.248701 30 35 40
7.654493 2.103525 29.215622 30 35 40
7.706815 2.101859 29.192482 30 35 40
7.759164 2.100225 29.169790 30 35 40
7.809421 2.098053 29.139629 20 33 23
7.862302 2.096614 29.119637 25 40 42
7.913045 2.094630 29.092077 43 38 31
7.965338 2.093082 29.070578 37 41 26
8.018871 2.091879 29.053879 20 15 27
8.072642 2.090756 29.038280 38 15 37
8.129382 2.090412 29.033506 39 18 38
8.184618 2.089690 29.023468 15 19 34
8.240230 2.089072 29.014894 23 34 20
8.295143 2.088288 29.003998 29 26 29
8.347986 2.086996 28.986061 44 40 35
8.401650 2.085927 28.971207 16 15 42
8.454324 2.084628 28.953165 29 34 23
8.509690 2.084006 28.944525 27 18 36
8.564489 2.083254 28.934086 44 27 19
8.616116 2.081746 28.913139 34 27 30
8.668458 2.080430 28.894859 27 35 15
8.716161 2.078025 28.861460 43 39 15
8.765226 2.075975 28.832979 32 19 37
8.812920 2.073628 28.800392 32 15 42
8.858129 2.070731 28.760159 41 20 20
8.907377 2.068810 28.733475 40 28 38
8.948153 2.064958 28.679977 39 21 19
8.990419 2.061497 28.631907 26 38 36
9.029967 2.057461 28.575846 24 43 29
9.063798 2.052181 28.502510 20 32 35
9.104203 2.048446 28.450636 32 39 17
9.137066 2.043071 28.375980 23 36 28
9.176409 2.039202 28.322248 40 28 44
9.215707 2.035371 28.269041 43 40 40
9.250145 2.030520 28.201660 37 43 37
9.292578 2.027472 28.159327 37 43 26
9.318160 2.020806 28.066746 24 34 27
9.343637 2.014197 27.974962 19 32 31
9.366064 2.007014 27.875191 36 24 28
9.382597 1.998660 27.759163 16 21 20
9.413269 1.993398 27.686085 37 35 41
9.438740 1.987103 27.598654 43 33 22
5.634819 2.452804 33.145996 41 43 43
5.634224 2.424027 32.757118 17 44 23
5.649245 2.402553 32.466927 31 41 20
5.671515 2.384614 32.224518 17 33 25
5.688790 2.365003 31.959494 32 43 44
5.729183 2.355331 31.828793 15 26 32
5.766756 2.344725 31.685474 42 29 23
5.815288 2.338757 31.604828 21 44 42
5.870677 2.335646 31.562780 34 24 43
5.923096 2.331431 31.505829 29 26 34
5.982027 2.329842 31.484354 19 23 39
6.035991 2.326371 31.437452 17 43 21
6.093311 2.324252 31.408817 18 30 44
6.144355 2.319807 31.348749 20 24 19
6.181794 2.310367 31.221180 33 43 44
6.219618 2.301259 31.098091 28 43 30
6.245385 2.287913 30.917746 22 41 44
6.281967 2.278753 30.793957 26 19 25
6.314870 2.268449 30.654711 16 37 33
6.333206 2.253160 30.448105 23 17 20
6.361409 2.241639 30.292423 120 120 120
6.374160 2.224943 30.066792 120 120 120
6.395450 2.211511 29.885279 120 120 120
6.422361 2.200253 29.733150 36 19 36
6.448256 2.188858 29.579157 32 16 19
6.492632 2.183885 29.511965 18 40 41
6.537829 2.179276 29.449680 25 25 42
6.592271 2.177804 29.429783 37 38 44
6.650646 2.177645 29.427639 19 44 26
6.702591 2.175402 29.397327 31 35 16
6.755152 2.173397 29.370226 29 29 37
6.807880 2.171479 29.344311 44 27 35
6.864659 2.170875 29.336151 40 41 34
6.922288 2.170548 29.331730 43 33 19
6.977775 2.169560 29.318380 38 44 43
7.033810 2.168758 29.307541 21 28 28
7.085306 2.166581 29.278122 27 43 21
7.135499 2.164045 29.243849 39 34 27
7.185329 2.161440 29.208652 34 35 22
7.235602 2.159010 29.175816 36 39 26
7.290141 2.157882 29.160564 38 29 34
7.344704 2.156778 29.145653 30 35 40
7.402423 2.156611 29.143398 30 35 40
7.459671 2.156311 29.139339 30 35 40
7.512336 2.154701 29.117582 30 35 40
7.564370 2.152936 29.093729 30 35 40
7.614097 2.150547 29.061440 30 35 40
7.666361 2.148904 29.039248 30 35 40
7.718847 2.147348 29.018223 15 44 38
7.769431 2.145291 28.990414 44 36 34
7.822540 2.143956 28.972372 35 28 42
7.873837 2.142147 28.947931 40 43 36
7.926525 2.140740 28.928925 25 40 39
7.980496 2.139698 28.914839 38 42 39
8.034932 2.138795 28.902632 29 31 26
8.092045 2.138612 28.900160 30 40 27
8.147848 2.138088 28.893078 18 25 37
8.203714 2.137588 28.886318 38 37 39
8.258864 2.136909 28.877148 26 33 21
8.312204 2.135775 28.861820 35 39 24
8.366177 2.134818 28.848886 31 28 37
8.419498 2.133708 28.833899 16 36 26
8.475394 2.133262 28.827869 15 23 44
8.530680 2.132670 28.819864 33 42 27
8.582904 2.131325 28.801691 44 20 27
8.635498 2.130090 28.784994 28 23 43
8.683330 2.127703 28.752748 31 16 26
8.732293 2.125624 28.724648 26 25 35
8.779548 2.123159 28.691334 41 43 30
8.824117 2.120080 28.649731 29 18 28
8.872638 2.117985 28.621412 23 15 30
8.912520 2.113867 28.565769 33 41 36
8.954066 2.110194 28.516132 29 28 33
8.992975 2.105950 28.458780 37 36 36
9.026087 2.100410 28.383921 38 39 22
9.065994 2.096511 28.331232 28 21 30
9.098702 2.091006 28.256840 25 15 33
9.138137 2.087105 28.204126 37 39 24
9.177847 2.083315 28.152906 20 40 21
9.212734 2.078483 28.087605 30 40 43
9.255407 2.075455 28.046688 26 30 26
9.282439 2.068977 27.959154 37 36 24
9.309901 2.062673 27.873955 19 28 36
9.334297 2.055768 27.780645 29 42 43
9.352278 2.047540 27.669462 37 31 40
9.383221 2.042231 27.597710 30 17 32
9.408917 2.035848 27.511454 20 43 36
5.586158 2.527072 33.250942 21 38 41
5.605324 2.505910 32.972496 24 26 19
5.605584 2.476886 32.590607 34 44 21
5.621063 2.455177 32.304958 37 36 38
5.643800 2.437096 32.067047 30 37 21
5.661672 2.417343 31.807148 18 21 40
5.702311 2.407642 31.679506 28 26 31
5.740321 2.397057 31.540226 29 43 32
5.789065 2.391136 31.462311 34 24 24
5.844618 2.388123 31.422676 30 32 18
5.897566 2.384122 31.370029 34 26 43
5.956880 2.382752 31.352001 27 39 16
6.010326 2.379087 31.303782 24 34 18
6.065865 2.376318 31.267347 30 17 28
6.115299 2.371238 31.200504 22 26 43
6.152731 2.361654 31.074400 40 31 22
6.191630 2.352819 30.958149 16 30 40
6.218469 2.339622 30.784498 25 37 44
6.255066 2.330319 30.662086 27 44 38
6.288183 2.319912 30.525162 15 33 40
6.307952 2.304829 30.326693 38 16 44
6.337688 2.293639 30.179466 120 120 120
6.351649 2.277006 29.960609 120 120 120
6.373003 2.263310 29.780390 120 120 120
6.399473 2.251666 29.627188 26 18 28
6.425353 2.240031 29.474094 25 29 19
6.469717 2.234993 29.407804 41 42 15
6.513958 2.230004 29.342154 19 22 16
6.566667 2.227976 29.315475 30 18 32
6.623188 2.227267 29.306141 41 24 33
6.673894 2.224631 29.271465 21 15 21
6.726131 2.222548 29.244047 31 28 38
6.778294 2.220476 29.216784 31 44 25
6.834449 2.219736 29.207048 41 25 15
6.891399 2.219264 29.200844 36 38 21
6.946014 2.218055 29.184931 41 25 30
7.001326 2.217087 29.172194 27 32 41
7.051991 2.214675 29.140457 15 40 20
7.101576 2.211966 29.104820 15 38 35
7.150845 2.209204 29.068478 22 20 37
7.200423 2.206581 29.033962 34 34 19
7.254403 2.205339 29.017612 20 29 21
7.308278 2.204084 29.001104 43 25 44
7.365408 2.203823 28.997669 27 22 24
7.422085 2.203431 28.992519 41 28 25
7.474027 2.201651 28.969097 30 35 40
7.525432 2.199742 28.943970 29 41 23
7.574846 2.197283 28.911625 22 29 34
7.627063 2.195670 28.890390 23 15 21
7.679810 2.194232 28.871468 15 35 36
7.730838 2.192327 28.846409 18 37 36
7.784288 2.191133 28.830696 41 41 23
7.836176 2.189520 28.809471 26 23 19
7.889199 2.188245 28.792698 29 43 27
7.943488 2.187337 28.780752 28 26 29
7.998456 2.186628 28.771425 28 20 21
8.055847 2.186587 28.770882 34 18 40
8.112117 2.186244 28.766371 29 42 30
8.168165 2.185847 28.761143 15 37 28
8.223524 2.185272 28.753580 31 27 42
8.277415 2.184318 28.741026 37 35 43
8.331770 2.183498 28.730242 33 23 32
8.385812 2.182608 28.718533 18 39 25
8.442253 2.182351 28.715145 16 37 34
8.498031 2.181927 28.709564 39 17 24
8.550886 2.180763 28.694248 25 30 41
8.603759 2.179619 28.679197 34 29 28
8.651733 2.177257 28.648121 36 32 41
8.700589 2.175147 28.620358 23 26 17
8.747387 2.172554 28.586233 26 30 25
8.791256 2.169271 28.543039 43 37 15
8.839005 2.166982 28.512918 31 22 38
8.877983 2.162586 28.455072 37 28 25
8.918864 2.158706 28.404026 33 18 15
8.957234 2.154271 28.345676 23 15 18
8.989723 2.148487 28.269569 16 44 27
9.029174 2.144429 28.216167 19 16 31
9.061825 2.138816 28.142313 18 35 33
9.101459 2.134910 28.090921 40 21 33
9.141685 2.131190 28.041979 19 35 36
9.177153 2.126414 27.979126 26 18 26
9.220183 2.123436 27.939947 33 29 40
9.248577 2.117144 27.857161 15 18 36
9.277706 2.111095 27.777563 43 29 30
9.303768 2.104424 27.689785 24 27 38
9.323178 2.096336 27.583366 39 41 40
9.354580 2.091024 27.513470 32 36 26
9.380654 2.084590 27.428812 33 16 20
9.417060 2.080513 27.375174 39 15 34
5.548553 2.576114 33.027100 32 25 37
5.567885 2.554676 32.752262 22 25 37
5.568811 2.525391 32.376808 15 31 21
5.584847 2.503552 32.096825 21 43 41
5.608249 2.485474 31.865051 19 42 22
5.626874 2.465709 31.611652 35 16 41
5.667804 2.456049 31.487803 29 24 39
5.706316 2.445564 31.353386 18 15 21
5.755296 2.439745 31.278782 41 19 22
5.810978 2.436862 31.241816 17 23 19
5.864386 2.433096 31.193542 33 29 34
5.923964 2.431943 31.178757 15 19 30
5.976817 2.428082 31.129255 29 33 15
6.030624 2.424684 31.085690 35 26 38
6.078417 2.418962 31.012333 27 22 26
6.115535 2.409150 30.886541 44 20 31
6.155066 2.400476 30.775328 23 19 43
6.182887 2.387452 30.608353 34 37 42
6.219802 2.378160 30.489225 19 22 20
6.253627 2.367878 30.357414 29 19 29
6.275315 2.353243 30.169783 24 34 37
6.306880 2.342555 30.032763 120 120 120
6.322407 2.326169 29.822676 120 120 120
6.343991 2.312296 29.644815 120 120 120
6.370129 2.300324 29.491339 38 38 27
6.396261 2.288570 29.340647 25 29 28
6.440809 2.283560 29.276405 31 28 41
6.484142 2.278212 29.207846 35 36 18
6.534947 2.275562 29.173872 35 19 20
6.589354 2.274202 29.156435 39 29 33
6.638682 2.271128 29.117025 17 35 32
6.690518 2.268958 29.089207 36 17 35
6.742047 2.266723 29.060547 42 44 41
6.797539 2.265846 29.049311 23 27 25
6.853769 2.265229 29.041393 30 17 33
6.907436 2.263782 29.022840 21 15 25
6.961929 2.262627 29.008038 41 26 42
7.011711 2.259973 28.974012 28 36 15
7.060665 2.257098 28.937153 21 28 31
7.109398 2.254199 28.899992 22 39 32
7.158330 2.251410 28.864233 28 17 26
7.211793 2.250079 28.847172 42 28 29
7.265081 2.248715 28.829685 36 44 27
7.321653 2.248382 28.825405 41 44 27
7.377864 2.247943 28.819780 17 42 30
7.429354 2.246084 28.795946 20 30 20
7.480401 2.244120 28.770773 19 18 19
7.529727 2.241674 28.739414 41 35 27
7.581957 2.240124 28.719536 42 40 39
7.634874 2.238798 28.702536 38 30 15
7.686189 2.237025 28.679811 26 19 35
7.739773 2.235934 28.665825 28 42 37
7.792001 2.234471 28.647064 26 31 21
7.845212 2.233309 28.632162 42 38 42
7.899665 2.232514 28.621973 15 38 24
7.954916 2.231955 28.614805 36 36 15
8.012357 2.232014 28.615561 17 30 31
8.068784 2.231791 28.612711 40 16 26
8.124766 2.231450 28.608332 15 20 22
8.180116 2.230941 28.601803 28 20 43
8.234318 2.230128 28.591381 37 26 39
8.288930 2.229436 28.582518 43 15 35
8.343499 2.228743 28.573626 29 15 40
8.400349 2.228664 28.572617 21 28 37
8.456452 2.228389 28.569094 19 43 18
8.509674 2.227364 28.555954 18 17 31
8.562584 2.226272 28.541948 33 26 34
8.610378 2.223872 28.511185 30 31 37
8.658879 2.221686 28.483154 31 42 23
8.704989 2.218919 28.447678 20 28 17
8.747883 2.215373 28.402218 22 30 18
8.794643 2.212846 28.369816 16 15 36
8.832462 2.208115 28.309172 23 18 21
8.872469 2.203989 28.256271 44 15 38
8.910109 2.199331 28.196548 35 29 20
8.941758 2.193261 28.118734 18 28 30
8.980623 2.189027 28.064447 24 26 38
9.013085 2.183294 27.990946 30 29 31
9.052807 2.179380 27.940763 17 22 17
9.093450 2.175733 27.894018 35 15 40
9.129350 2.171004 27.833385 16 39 43
9.172573 2.168063 27.795677 39 44 33
9.202319 2.161991 27.717829 22 25 34
9.233203 2.156257 27.644321 42 17 21
9.261129 2.149905 27.562883 36 23 19
9.282239 2.142055 27.462246 36 20 43
9.314302 2.136810 27.395006 34 28 38
9.341055 2.130416 27.313026 28 18 42
9.377745 2.126349 27.260885 27 34 29
5.525611 2.631243 32.890541 44 28 22
5.545046 2.609434 32.617920 34 23 24
5.546366 2.579705 32.246315 34 33 22
5.562744 2.557583 31.969791 22 24 32
5.586505 2.539321 31.741507 41 42 29
5.605498 2.519325 31.491564 36 40 26
5.646511 2.509560 31.369505 33 34 22
5.685176 2.498979 31.237232 41 26 24
5.734192 2.493127 31.164087 15 35 41
5.789813 2.490242 31.128027 43 27 32
5.843257 2.486492 31.081152 15 32 18
5.902781 2.485382 31.067270 33 19 41
5.955057 2.481274 31.015921 21 24 23
6.007713 2.477407 30.967592 18 38 31
6.054464 2.471210 30.890121 22 18 22
6.091294 2.461129 30.764109 15 40 20
6.131144 2.452458 30.655722 36 35 28
6.159564 2.439431 30.492891 40 44 26
6.196690 2.430074 30.375931 40 30 41
6.231081 2.419837 30.247967 34 22 35
6.254216 2.405468 30.068346 35 21 23
6.287195 2.395122 29.939026 120 120 120
6.304022 2.378876 29.735952 120 120 120
6.325941 2.364838 29.560472 120 120 120
6.352045 2.352609 29.407614 17 33 15
6.378573 2.340761 29.259508 32 34 28
6.423395 2.335780 29.197250 30 29 42
6.466325 2.330207 29.127588 21 20 29
6.516011 2.327147 29.089334 17 27 21
6.569122 2.325353 29.066914 42 15 36
6.617646 2.321981 29.024763 15 43 25
6.669262 2.319743 28.996790 28 39 23
6.720451 2.317397 28.967461 21 44 15
6.775553 2.316428 28.955353 19 22 43
6.831352 2.315712 28.946405 39 26 39
6.884443 2.314099 28.926231 21 39 36
6.938419 2.312806 28.910078 18 28 38
6.987659 2.309970 28.874624 37 35 32
7.036247 2.306966 28.837078 28 26 19
7.084697 2.303967 28.799582 21 41 27
