ply
format ascii 1.0
element vertex 1282
property float x
property float y
property float z
property uchar red
property uchar green
property uchar blue
end_header
8.814477 1.634943 35.542244 31 34 28
8.868055 1.631722 35.472221 24 31 30
8.914177 1.627191 35.373718 17 23 29
8.967567 1.624048 35.305382 33 35 41
9.020960 1.620954 35.238125 27 23 34
9.066021 1.616422 35.139618 33 17 24
9.118070 1.613197 35.069500 18 42 18
9.162198 1.608630 34.970222 36 31 43
9.214344 1.605530 34.902817 30 29 29
9.265319 1.602273 34.832027 15 17 37
9.306546 1.597392 34.725918 25 33 20
9.354828 1.593785 34.647511 22 39 21
9.392086 1.588367 34.529728 31 29 39
9.435576 1.584075 34.436409 26 32 27
9.480517 1.580086 34.349701 28 42 35
9.521150 1.575442 34.248741 25 25 17
9.573549 1.572797 34.191246 30 41 26
9.620207 1.569254 34.114208 33 34 43
9.673755 1.566876 34.062519 26 26 15
9.728371 1.564703 34.015282 17 39 39
9.776541 1.561531 33.946323 16 23 43
9.830712 1.559354 33.899006 27 34 18
9.878491 1.556201 33.830448 35 44 41
9.932270 1.554029 33.783230 30 30 25
9.984824 1.551696 33.732513 35 35 44
10.030180 1.548283 33.658321 34 21 38
10.081240 1.545790 33.604134 24 32 30
10.119840 1.541433 33.509403 31 26 27
10.162736 1.537782 33.430054 18 29 26
10.202954 1.533777 33.342987 31 25 40
10.236119 1.528771 33.234154 24 23 23
10.280255 1.525457 33.162113 26 38 19
10.307215 1.519654 33.035946 42 40 42
10.340097 1.514791 32.930244 28 29 41
10.369517 1.509487 32.814926 39 43 26
10.388300 1.502710 32.667610 41 31 31
10.421887 1.498146 32.568398 32 38 32
10.437141 1.491020 32.413483 27 38 18
10.465983 1.485911 32.302418 44 23 22
10.488663 1.479995 32.173813 40 41 35
10.490182 1.471184 31.982264 35 21 35
10.506167 1.464496 31.836868 41 31 31
10.491742 1.453675 31.601631 38 16 17
10.492081 1.445017 31.413416 23 22 26
10.489044 1.436000 31.217394 33 23 24
10.466843 1.424482 30.966991 22 40 22
10.472151 1.416820 30.800444 25 42 22
7.372547 1.944408 40.508499 39 33 23
7.424365 1.936791 40.349812 28 29 22
7.477242 1.929611 40.200226 36 27 15
7.518290 1.919563 39.990906 40 44 41
7.571538 1.912810 39.850201 29 35 17
7.605899 1.901475 39.614059 41 28 29
7.647720 1.892219 39.421238 39 26 29
7.686385 1.882380 39.216251 19 19 24
7.713061 1.869833 38.954853 28 32 15
7.756081 1.861460 38.780407 26 23 15
7.780632 1.848863 38.517982 34 20 18
7.818888 1.839738 38.327881 20 36 39
7.853860 1.830026 38.125534 33 21 26
7.869814 1.816111 37.835644 32 15 18
7.901394 1.806033 37.625687 120 120 120
7.913708 1.791783 37.328812 120 120 120
7.940192 1.780978 37.103703 120 120 120
7.971932 1.771540 36.907093 19 17 17
7.996876 1.760780 36.682919 25 25 23
8.043846 1.755021 36.562935 33 26 39
8.083017 1.747679 36.409988 31 17 44
8.132477 1.742674 36.305702 37 40 41
8.187232 1.738881 36.226692 27 29 16
8.237336 1.734176 36.128666 28 37 31
8.297849 1.731725 36.077606 20 39 39
8.352628 1.728130 36.002708 33 37 44
8.412393 1.725619 35.950397 44 26 44
8.471250 1.722966 35.895126 19 43 38
8.523411 1.719007 35.812653 34 43 25
8.580499 1.716100 35.752079 35 22 37
8.625252 1.710794 35.641537 21 27 18
8.672030 1.705973 35.541107 43 19 20
8.717778 1.701030 35.438122 18 19 40
8.759749 1.695435 35.321568 37 32 21
8.813200 1.692134 35.252800 36 24 24
8.859740 1.687570 35.157700 37 27 30
8.913621 1.684464 35.092995 25 29 42
8.967658 1.681436 35.029915 40 27 26
9.013497 1.676930 34.936035 43 41 38
9.065882 1.673701 34.868778 17 16 43
9.110418 1.669084 34.772587 26 43 24
9.162658 1.665938 34.707039 22 36 29
9.213441 1.662576 34.636997 22 37 42
9.254453 1.657514 34.531540 36 21 19
9.302287 1.653740 34.452915 24 20 24
9.338829 1.648029 34.333931 40 22 27
9.381491 1.643473 34.239017 19 19 24
9.425546 1.639225 34.150528 35 33 42
9.465333 1.634302 34.047962 33 15 33
9.517110 1.631505 33.989677 40 26 31
9.563405 1.627814 33.912785 18 39 24
9.617002 1.625409 33.862682 23 29 21
9.671585 1.623203 33.816730 20 44 41
9.719143 1.619857 33.747025 40 29 17
9.772357 1.617494 33.697784 38 16 31
9.819283 1.614129 33.627682 33 43 44
9.872545 1.611844 33.580086 35 17 32
9.924789 1.609425 33.529694 20 22 24
9.969828 1.605878 33.455799 26 31 36
10.020626 1.603300 33.402088 21 36 42
10.059301 1.598829 33.308945 42 15 32
10.101921 1.595040 33.230003 40 36 29
10.142658 1.591005 33.145943 30 35 40
10.178120 1.586201 33.045845 37 21 17
10.224822 1.583198 32.983295 34 35 39
10.254103 1.577554 32.865715 25 22 39
10.287444 1.572603 32.762562 30 24 38
10.316669 1.567089 32.647686 23 28 36
10.335933 1.560141 32.502934 22 34 44
10.369757 1.555464 32.405491 17 21 15
10.385052 1.548082 32.251713 21 36 36
10.413486 1.542739 32.140388 19 31 18
10.435538 1.536521 32.010853 20 23 43
10.436292 1.527262 31.817963 33 22 42
10.451497 1.520218 31.671202 32 27 38
10.437645 1.509057 31.438690 44 39 39
10.439072 1.500226 31.254705 18 32 35
10.438240 1.491177 31.066191 37 30 24
10.419738 1.479726 30.827627 35 25 35
10.428299 1.472230 30.671467 32 24 42
10.417027 1.462039 30.459143 41 20 35
7.296712 2.026864 40.537289 39 24 21
7.334291 2.014915 40.298302 33 29 30
7.384941 2.006777 40.135548 15 26 31
7.437510 1.999331 39.986610 41 30 20
7.479709 1.989284 39.785686 24 43 28
7.534739 1.982826 39.656521 30 23 31
7.570888 1.971585 39.431709 27 43 34
7.613135 1.962148 39.242962 16 22 18
7.651937 1.952025 39.040497 39 18 19
7.679205 1.939193 38.783863 26 38 35
7.722519 1.930630 38.612595 26 17 19
7.748740 1.918005 38.360100 35 15 18
7.789236 1.909126 38.182529 26 31 36
7.826337 1.899596 37.991928 36 27 41
7.843682 1.885501 37.710011 28 40 18
7.875273 1.875065 37.501301 120 120 120
7.887392 1.860234 37.204681 120 120 120
7.913492 1.848947 36.978935 120 120 120
7.944545 1.839015 36.780300 28 18 32
7.968662 1.827675 36.553497 18 40 39
8.014854 1.821558 36.431152 24 41 39
8.053545 1.813861 36.277229 17 36 29
8.103269 1.808765 36.175308 26 26 41
8.158029 1.804874 36.097473 32 26 24
8.206910 1.799761 35.995220 41 21 36
8.265694 1.796890 35.937801 42 22 40
8.318843 1.792854 35.857082 15 36 35
8.377849 1.790139 35.802773 19 36 17
8.436305 1.787353 35.747055 43 33 24
8.487890 1.783170 35.663403 20 17 19
8.544599 1.780125 35.602497 35 43 19
8.588979 1.774582 35.491650 26 41 33
8.635402 1.769550 35.390991 22 39 30
8.680942 1.764419 35.288383 22 31 22
8.722833 1.758636 35.172714 39 33 21
8.776257 1.755251 35.105026 36 38 26
8.823142 1.750623 35.012466 32 19 36
8.877398 1.747519 34.950386 20 40 33
8.931911 1.744514 34.890278 42 25 22
8.978363 1.739993 34.799858 43 15 31
9.031059 1.736742 34.734840 27 22 33
9.075977 1.732057 34.641132 20 18 24
9.128325 1.728849 34.576988 31 19 22
9.179079 1.725391 34.507816 15 15 28
9.220158 1.720179 34.403576 44 17 21
9.267888 1.716276 34.325512 33 16 35
9.304253 1.710341 34.206814 35 31 33
9.346586 1.705581 34.111629 39 24 43
9.390250 1.701132 34.022644 18 42 22
9.429689 1.695987 33.919746 39 36 21
9.481170 1.693066 33.861320 24 34 39
9.527377 1.689251 33.785027 15 18 33
9.581148 1.686822 33.736435 22 20 16
9.635785 1.684578 33.691555 21 35 38
9.682796 1.681041 33.620819 27 28 32
9.735121 1.678469 33.569382 31 43 27
9.781582 1.674928 33.498569 28 41 43
9.835038 1.672626 33.452511 37 18 23
9.887610 1.670204 33.404087 30 34 33
9.932608 1.666545 33.330898 29 24 16
9.983049 1.663841 33.276829 30 35 40
10.021011 1.659108 33.182156 30 35 40
10.062159 1.654960 33.099209 30 35 40
10.102285 1.650700 33.014004 30 35 40
10.139540 1.646029 32.920586 30 35 40
10.189108 1.643405 32.868092 30 35 40
10.220648 1.637924 32.758488 30 35 40
10.254155 1.632827 32.656544 44 19 43
10.282744 1.627016 32.540329 30 39 20
10.301932 1.619801 32.396011 19 32 34
10.335670 1.614948 32.298969 18 39 22
10.350655 1.607244 32.144890 35 37 44
10.378563 1.601630 32.032600 15 40 19
10.400062 1.595102 31.902031 33 33 19
10.400397 1.585426 31.708529 32 34 19
10.415364 1.578085 31.561708 30 18 44
10.401418 1.566479 31.329573 44 18 31
10.402054 1.557194 31.143875 44 30 27
10.401787 1.547885 30.957701 15 18 42
10.386757 1.536502 30.730049 24 35 43
10.399566 1.529348 30.586958 28 23 37
10.392407 1.519358 30.387154 15 39 28
10.403112 1.512080 30.241606 27 30 16
7.189622 2.100339 40.391136 31 28 35
7.236420 2.090521 40.202335 21 28 41
7.272396 2.077828 39.958221 16 25 20
7.322704 2.069460 39.797302 39 22 28
7.376568 2.062266 39.658970 24 30 15
7.421447 2.052741 39.475780 19 38 31
7.479203 2.046940 39.364227 43 21 20
7.518984 2.036392 39.161377 19 23 25
7.563559 2.027346 38.987419 43 25 19
7.604036 2.017397 38.796101 29 29 21
7.632950 2.004613 38.550255 18 42 24
7.676513 1.995893 38.382565 30 30 20
7.703844 1.983168 38.137840 18 22 35
7.745378 1.974312 37.967537 36 40 38
7.783752 1.964831 37.785206 38 43 32
7.803244 1.950811 37.515594 19 22 41
7.836426 1.940448 37.316315 120 120 120
7.849333 1.925308 37.025158 120 120 120
7.874743 1.913489 36.797867 120 120 120
7.904320 1.902892 36.594074 17 28 25
7.927161 1.890882 36.363125 22 43 23
7.972301 1.884362 36.237732 31 35 41
8.010398 1.876309 36.082874 44 22 29
8.060524 1.871193 35.984482 20 32 24
8.115394 1.867259 35.908821 24 22 29
8.162827 1.861697 35.801872 16 41 20
8.219456 1.858312 35.736767 29 26 16
8.270448 1.853721 35.648483 26 41 31
8.328255 1.850723 35.590832 32 16 33
8.385939 1.847749 35.533638 32 17 20
8.436617 1.843295 35.447971 15 28 32
8.492744 1.840094 35.386433 22 43 24
8.536676 1.834327 35.275520 24 15 15
8.582706 1.829101 35.175026 26 38 37
8.628063 1.823818 35.073425 22 43 27
8.669943 1.817891 34.959446 20 18 34
8.723357 1.814458 34.893429 32 21 21
8.770750 1.809837 34.804565 18 34 26
8.825530 1.806801 34.746181 23 33 20
8.880713 1.803895 34.690285 43 18 17
8.928053 1.799453 34.604858 28 24 38
8.981223 1.796245 34.543167 15 23 38
9.026786 1.791576 34.453381 40 23 26
9.079403 1.788367 34.391678 26 20 23
9.130276 1.784866 34.324345 41 40 34
9.171706 1.779585 34.222782 21 25 19
9.219539 1.775615 34.146442 20 18 19
9.255979 1.769525 34.029335 35 22 42
9.298122 1.764607 33.934753 40 40 16
9.341453 1.759984 33.845844 24 39 18
9.380687 1.754661 33.743477 42 17 28
9.431916 1.751641 33.685413 40 37 44
9.477871 1.747692 33.609470 27 18 22
9.531407 1.745187 33.561291 39 23 32
9.585651 1.742846 33.516262 44 26 42
9.631897 1.739093 33.444088 15 22 24
9.683295 1.736315 33.390671 23 27 16
9.729283 1.732612 33.319462 40 44 30
9.782907 1.730310 33.275192 43 35 24
9.835751 1.727902 33.228889 19 25 44
9.880677 1.724145 33.156635 30 35 40
9.930709 1.721323 33.102364 30 35 40
9.967827 1.716315 33.006050 30 35 40
10.007613 1.711829 32.919781 30 35 40
10.046770 1.707294 32.832581 30 35 40
10.084349 1.702552 32.741394 30 35 40
10.135001 1.700065 32.693550 30 35 40
10.167706 1.694618 32.588802 30 35 40
10.201682 1.689451 32.489433 30 35 40
10.230348 1.683475 32.374519 20 44 27
10.249478 1.676015 32.231064 15 19 22
10.282737 1.670945 32.133553 26 16 44
10.297276 1.662914 31.979118 28 15 43
10.324644 1.657042 31.866184 34 25 24
10.345899 1.650266 31.735886 38 33 44
10.346546 1.640306 31.544348 35 41 24
10.362012 1.632802 31.400038 30 20 24
10.349131 1.620948 31.172081 39 21 27
10.350104 1.611393 30.988335 20 16 24
10.351065 1.601951 30.806742 15 43 24
10.339316 1.590664 30.589691 33 18 43
10.355441 1.583773 30.457178 19 19 43
10.352249 1.574026 30.269733 41 28 15
10.365876 1.566935 30.133362 31 17 28
10.382522 1.560379 30.007288 21 35 27
7.143296 2.167067 40.130878 19 23 37
7.186937 2.156081 39.927425 44 27 27
7.221471 2.142634 39.678413 27 15 43
7.272404 2.134292 39.523933 36 22 15
7.328522 2.127636 39.400658 38 16 32
7.376055 2.118654 39.234337 29 27 42
7.435868 2.113352 39.136147 35 42 34
7.479218 2.103530 38.954258 31 32 37
7.527028 2.095152 38.799114 21 26 27
7.570105 2.085641 38.622986 40 31 20
7.600906 2.072974 38.388412 29 20 37
7.644469 2.064007 38.222347 35 19 16
7.671664 2.050841 37.978535 32 38 28
7.712339 2.041502 37.805584 16 37 33
7.750392 2.031656 37.623264 17 28 39
7.771811 2.017682 37.364475 40 39 41
7.807664 2.007685 37.179352 120 120 120
7.822051 1.992409 36.896469 120 120 120
7.846633 1.979991 36.666508 120 120 120
7.874505 1.968626 36.456039 18 41 19
7.896222 1.955945 36.221203 41 20 43
7.940653 1.949069 36.093876 38 40 26
7.978421 1.940697 35.938835 19 21 29
8.028922 1.935544 35.843403 21 27 39
8.083986 1.931572 35.769848 44 30 17
8.130533 1.925653 35.660233 40 20 25
8.185710 1.921862 35.590042 24 18 33
8.235143 1.916801 35.496307 34 19 43
8.291960 1.913529 35.435726 31 21 42
8.348887 1.910339 35.376640 39 25 32
8.398769 1.905603 35.288944 39 27 35
8.454402 1.902240 35.226673 15 18 41
8.497960 1.896239 35.115536 20 23 19
8.543693 1.890817 35.015137 38 22 40
8.588939 1.885377 34.914387 40 26 42
8.630802 1.879288 34.801620 28 29 30
8.684186 1.875784 34.736744 35 42 24
8.731926 1.871127 34.650501 20 19 34
8.787078 1.868119 34.594795 37 25 16
8.842736 1.865265 34.541939 29 34 25
8.890742 1.860853 34.460239 36 33 32
8.944272 1.857657 34.401047 16 33 25
8.990397 1.852983 34.314491 28 33 22
9.043294 1.849765 34.254902 27 17 25
9.094387 1.846229 34.189426 28 16 37
9.136313 1.840899 34.090721 37 16 25
9.184400 1.836880 34.016296 41 32 39
9.221168 1.830673 33.901352 28 40 39
9.263359 1.825626 33.807880 31 23 42
9.306648 1.820866 33.719738 37 43 25
9.345952 1.815401 33.618534 21 44 41
9.397125 1.812303 33.561161 22 22 21
9.442940 1.808223 33.485603 27 32 17
9.496204 1.805616 33.437340 15 20 35
9.550060 1.803158 33.391819 19 25 39
9.595813 1.799215 33.318794 33 39 25
9.646720 1.796286 33.264553 21 24 16
9.692438 1.792437 33.193279 28 24 24
9.746107 1.790101 33.150024 36 16 35
9.799045 1.787664 33.104881 30 35 40
9.843902 1.783794 33.033230 30 35 40
9.893700 1.780866 32.979000 30 35 40
9.930318 1.775620 32.881847 30 35 40
9.969575 1.770911 32.794655 30 35 40
10.007931 1.766106 32.705658 30 35 40
10.044115 1.760981 32.610764 30 35 40
10.093382 1.758202 32.559296 30 35 40
10.125480 1.752487 32.453461 30 35 40
10.160038 1.747268 32.356808 30 35 40
10.189528 1.741248 32.245342 30 35 40
10.208703 1.733553 32.102840 16 30 29
10.241393 1.728235 32.004353 44 27 16
10.255607 1.719884 31.849710 41 30 21
10.282744 1.713791 31.736864 44 21 21
10.304205 1.706831 31.607990 32 22 30
10.305756 1.696679 31.419987 36 21 37
10.322182 1.689084 31.279341 40 43 41
10.310952 1.677083 31.057085 37 16 17
10.313224 1.667407 30.877916 27 25 27
10.315415 1.657835 30.700640 19 32 31
10.304786 1.646327 30.487532 33 18 42
10.321269 1.639260 30.356672 31 17 22
10.319721 1.629430 30.174623 37 19 35
10.335597 1.622448 30.045340 15 33 39
10.354322 1.615992 29.925787 27 18 24
7.075865 2.251412 40.203781 37 17 15
7.096120 2.232487 39.865845 19 29 20
7.137353 2.220510 39.651958 26 41 27
7.171331 2.206564 39.402920 34 18 36
7.223463 2.198445 39.257954 20 43 41
7.282263 2.192509 39.151951 41 32 39
7.332823 2.184245 39.004375 31 15 15
7.394763 2.179509 38.919804 18 15 35
7.441733 2.170505 38.759026 33 28 41
7.492841 2.162882 38.622894 17 22 38
7.538500 2.153857 38.461735 40 29 44
7.571200 2.141350 38.238384 27 41 16
7.614757 2.132132 38.073784 29 34 20
7.641366 2.118398 37.828545 30 19 30
7.680414 2.108349 37.649090 22 35 17
7.717400 2.097934 37.463108 29 36 18
7.740316 2.083931 37.213058 23 27 31
7.778832 2.074355 37.042057 120 120 120
7.794874 2.059023 36.768272 120 120 120
7.818911 2.046070 36.536968 120 120 120
7.845402 2.033993 36.321304 23 15 31
7.866171 2.020668 36.083355 20 41 35
7.909912 2.013432 35.954144 18 32 30
7.947346 2.004736 35.798855 25 38 39
7.998110 1.999528 35.705849 34 31 43
8.053323 1.995514 35.634171 22 26 25
8.099212 1.989280 35.522858 24 28 27
8.153304 1.985152 35.449146 44 17 22
8.201481 1.979668 35.351212 36 32 40
8.257385 1.976126 35.287971 33 37 25
8.313564 1.972710 35.226967 35 36 43
8.362721 1.967699 35.137482 35 18 27
8.417955 1.964190 35.074814 43 28 31
8.461290 1.957984 34.964008 37 20 19
8.506914 1.952407 34.864403 20 16 21
8.552233 1.946850 34.765175 24 37 21
8.594245 1.940636 34.654213 40 44 41
8.647686 1.937082 34.590744 15 22 44
8.695848 1.932411 34.507332 24 15 28
8.751351 1.929432 34.454140 27 17 17
8.807470 1.926634 34.404179 43 25 33
8.856101 1.922255 34.325974 41 24 17
8.909969 1.919070 34.269112 15 37 15
8.956653 1.914399 34.185699 44 37 18
9.009835 1.911177 34.128162 44 35 15
9.061225 1.907626 34.064754 28 23 37
9.103701 1.902266 33.969032 38 30 28
9.152133 1.898220 33.896790 29 15 23
9.189347 1.891924 33.784363 17 35 44
9.231715 1.886774 33.692390 22 35 40
9.275043 1.881893 33.605228 27 18 22
9.314526 1.876307 33.505489 32 36 16
9.365723 1.873145 33.449009 32 21 28
9.411124 1.868876 33.372780 19 20 30
9.463574 1.866057 33.322445 37 33 16
9.516508 1.863372 33.274502 37 30 38
9.561678 1.859215 33.200272 27 27 30
9.612360 1.856180 33.146069 32 27 18
9.658014 1.852222 33.075390 35 28 37
9.711670 1.849842 33.032890 41 35 29
9.764629 1.847362 32.988613 30 35 40
9.809441 1.843385 32.917587 30 35 40
9.859040 1.840354 32.863468 30 35 40
9.895259 1.834882 32.765759 30 35 40
9.934307 1.830004 32.678642 30 35 40
9.971839 1.824912 32.587708 30 35 40
10.005790 1.819235 32.486332 30 35 40
10.052529 1.815941 32.427513 30 35 40
10.083146 1.809795 32.317776 30 35 40
10.118236 1.804526 32.223682 30 35 40
10.148790 1.798520 32.116425 30 35 40
10.167911 1.790575 31.974562 34 33 19
10.199886 1.784980 31.874645 21 40 33
10.213739 1.776302 31.719687 21 34 36
10.240698 1.769997 31.607094 43 34 29
10.262600 1.762901 31.480368 22 44 28
10.265391 1.752628 31.296925 24 22 35
10.283144 1.745018 31.161043 24 26 20
10.273946 1.732955 30.945620 36 37 18
10.277948 1.723249 30.772299 16 40 24
10.281398 1.713566 30.599400 25 20 19
10.271271 1.701749 30.388376 43 42 35
10.287160 1.694356 30.256351 39 29 31
10.286295 1.684306 30.076887 22 15 25
10.303819 1.677366 29.952963 28 24 30
10.324500 1.671017 29.839596 17 39 37
10.330313 1.662349 29.684807 44 33 21
7.018518 2.312921 39.877941 18 41 32
7.035844 2.292578 39.527214 22 25 31
7.076346 2.280156 39.313034 38 30 43
7.111113 2.266179 39.072052 35 26 28
7.164461 2.258363 38.937290 17 42 24
7.225697 2.253174 38.847836 37 37 39
7.279734 2.245875 38.721989 38 27 38
7.344400 2.241975 38.654739 33 40 31
7.395208 2.233969 38.516708 41 29 23
7.449110 2.227054 38.397476 32 37 26
7.496771 2.218432 38.248833 43 34 29
7.531338 2.206149 38.037060 40 28 44
7.575189 2.196805 37.875946 23 25 26
7.601736 2.182677 37.632359 18 31 31
7.639774 2.172093 37.449871 34 39 16
7.676001 2.161204 37.262142 34 17 21
7.699947 2.147101 37.018974 25 28 19
7.740168 2.137761 36.857941 120 120 120
7.757425 2.122314 36.591629 120 120 120
7.781361 2.108967 36.361500 120 120 120
7.807035 2.096333 36.143681 16 34 27
7.826904 2.082387 35.903229 40 42 43
7.869619 2.074718 35.770996 40 39 15
7.906438 2.065646 35.614586 21 42 32
7.957417 2.060403 35.524185 44 26 26
8.012761 2.056372 35.454697 27 19 38
8.057831 2.049799 35.341362 40 34 33
8.110637 2.045291 35.263638 21 16 36
8.157456 2.039364 35.161449 39 31 28
8.212417 2.035556 35.095798 26 20 18
8.267933 2.031950 35.033615 39 30 32
8.316517 2.026714 34.943348 22 30 32
8.371456 2.023102 34.881065 34 34 36
8.414824 2.016776 34.771999 29 44 41
8.460523 2.011108 34.674274 35 26 25
8.506116 2.005507 34.577709 41 17 37
8.548575 1.999264 34.470062 36 28 42
8.602242 1.995720 34.408970 17 27 24
8.651076 1.991121 34.329666 36 40 43
8.707118 1.988239 34.279991 31 41 19
8.763805 1.985549 34.233612 20 18 29
8.813220 1.981266 34.159767 27 42 42
8.867464 1.978126 34.105629 23 27 22
8.914742 1.973493 34.025734 39 21 17
8.968221 1.970291 33.970535 22 30 37
9.019818 1.966727 33.909092 40 44 38
9.062765 1.961345 33.816288 31 40 43
9.111414 1.957267 33.745979 22 26 17
9.148849 1.950858 33.635475 36 19 23
9.191172 1.945576 33.544422 19 33 25
9.234300 1.940541 33.457607 38 27 15
9.273821 1.934826 33.359070 16 22 15
9.325018 1.931611 33.303635 39 28 37
9.369516 1.927064 33.225235 34 32 43
9.420210 1.923846 33.169754 31 17 39
9.471333 1.920760 33.116550 35 26 18
9.515430 1.916302 33.039688 24 31 37
9.565942 1.913188 32.986008 42 22 22
9.611480 1.909130 32.916027 17 30 29
9.665023 1.906705 32.874229 35 17 15
9.717885 1.904180 32.830692 30 35 40
9.762522 1.900088 32.760139 30 35 40
9.811846 1.896957 32.706154 30 35 40
9.847602 1.891261 32.607952 30 35 40
9.886300 1.886202 32.520725 30 35 40
9.923044 1.880838 32.428249 30 35 40
9.955165 1.874674 32.321964 30 35 40
9.999871 1.870944 32.257648 30 35 40
10.029382 1.864436 32.145454 30 35 40
10.065001 1.859140 32.054142 30 35 40
10.096449 1.853146 31.950787 30 35 40
10.115451 1.844956 31.809593 31 27 36
10.146629 1.839077 31.708216 22 30 41
10.160038 1.830069 31.552912 36 18 37
10.186697 1.823544 31.440422 15 15 15
10.208934 1.816313 31.315748 41 20 33
10.212938 1.805946 31.137005 17 44 31
10.231994 1.798350 31.006042 30 22 42
10.224945 1.786286 30.798027 40 34 36
10.230666 1.776583 30.630735 40 33 15
10.235625 1.766864 30.463169 41 21 43
10.226899 1.754912 30.257097 33 32 42
10.243193 1.747368 30.127039 40 42 30
10.243345 1.737175 29.951302 16 43 36
10.261883 1.730201 29.831057 15 38 28
10.283465 1.723818 29.720997 39 34 33
10.290526 1.715088 29.570478 25 17 44
6.955559 2.398469 39.974476 28 23 18
6.979920 2.379518 39.658634 32 37 32
6.996168 2.358259 39.304314 37 39 40
7.037722 2.345907 39.098454 41 21 40
7.074129 2.332131 38.868843 42 30 32
7.128354 2.324463 38.741055 28 18 30
7.190858 2.319632 38.660526 34 22 24
7.247150 2.312920 38.548668 43 36 30
7.313641 2.309571 38.492847 16 27 35
7.366590 2.302059 38.367657 19 37 21
7.421638 2.295352 38.255867 37 16 21
7.469955 2.286721 38.112015 37 37 25
7.505478 2.274387 37.906452 36 40 31
7.549675 2.264902 37.748375 31 37 40
7.576352 2.250402 37.506695 30 28 19
7.613971 2.239403 37.323387 27 25 18
7.649709 2.228071 37.134510 30 31 39
7.673682 2.213562 36.892704 34 41 16
7.714118 2.204034 36.733894 120 120 120
7.731764 2.188235 36.470585 120 120 120
7.756044 2.174592 36.243198 120 120 120
7.781814 2.161615 36.026917 29 33 37
7.801308 2.147149 35.785816 27 29 20
7.843281 2.139077 35.651279 24 15 44
7.879604 2.129623 35.493710 34 37 19
7.930613 2.124271 35.404522 26 26 17
7.986006 2.120178 35.336308 40 27 38
8.030669 2.113334 35.222233 41 15 33
8.082815 2.108560 35.142673 39 36 18
8.129001 2.102328 35.038799 29 28 34
8.183500 2.098333 34.972221 37 42 20
8.238742 2.094595 34.909924 27 16 34
8.287185 2.089206 34.820107 39 37 35
8.342090 2.085523 34.758709 25 39 29
8.385709 2.079101 34.651691 37 19 19
8.431661 2.073359 34.555988 42 16 29
8.477617 2.067711 34.461857 42 44 31
8.520565 2.061427 34.357117 40 43 35
8.574512 2.057883 34.298046 24 38 31
8.623883 2.053305 34.221756 21 26 44
8.680320 2.050469 34.174488 32 33 29
8.737379 2.047823 34.130386 28 43 38
8.787279 2.043553 34.059219 18 23 44
8.841732 2.040400 34.006660 38 40 41
8.889332 2.035725 33.928749 23 19 31
8.942972 2.032494 33.874893 41 25 16
8.994647 2.028868 33.814461 27 34 18
9.037793 2.023386 33.723106 42 40 36
9.086496 2.019221 33.653690 29 41 44
9.123934 2.012633 33.543877 31 16 43
9.166108 2.007177 33.452950 42 24 24
9.209010 2.001959 33.365978 30 41 38
9.248520 1.996084 33.268059 33 20 40
9.299753 1.992804 33.213402 40 33 27
9.343336 1.987944 33.132397 18 27 23
9.392257 1.984280 33.071327 42 27 44
9.441622 1.980760 33.012665 23 37 43
9.484805 1.976001 32.933350 38 40 20
9.535363 1.972834 32.880562 24 15 16
9.580907 1.968680 32.811325 27 22 16
9.634288 1.966181 32.769688 30 35 40
9.686985 1.963578 32.726299 30 35 40
9.731440 1.959350 32.655838 30 35 40
9.780591 1.956118 32.601971 30 35 40
9.816103 1.950219 32.503651 30 35 40
9.854655 1.944998 32.416630 30 35 40
9.891012 1.939414 32.323570 30 35 40
9.922114 1.932879 32.214657 30 35 40
9.965640 1.928833 32.147224 30 35 40
9.994483 1.922016 32.033600 30 35 40
10.030364 1.916630 31.943834 30 35 40
10.062270 1.910558 31.842627 30 35 40
10.081129 1.902100 31.701664 30 35 40
10.111794 1.895961 31.599358 24 21 38
10.124899 1.886627 31.443787 15 17 30
10.151363 1.879882 31.331367 36 31 41
10.173806 1.872480 31.207993 30 16 23
10.178543 1.861929 31.032143 31 18 25
10.198409 1.854256 30.904268 35 30 36
10.192685 1.842051 30.700857 22 39 16
10.199446 1.832236 30.537264 39 42 23
10.205346 1.822383 30.373055 24 42 27
10.197682 1.810239 30.170656 38 29 16
10.214437 1.802548 30.042461 16 26 19
10.214916 1.792091 29.868176 16 22 43
10.233268 1.784872 29.747871 24 28 16
10.254528 1.778242 29.637365 33 42 18
10.261675 1.769254 29.487572 29 16 43
10.286532 1.763406 29.390093 40 19 18
6.906247 2.460847 39.691074 24 27 26
6.927086 2.440223 39.358440 26 28 37
6.942653 2.418227 39.003666 26 38 41
6.985708 2.406188 38.809490 38 37 28
7.024389 2.392924 38.595543 24 33 15
7.079864 2.385606 38.477520 26 42 21
7.143975 2.381325 38.408466 34 21 25
7.203149 2.375507 38.314625 41 17 35
7.271917 2.372941 38.273247 30 39 43
7.326848 2.365961 38.160667 39 36 21
7.382075 2.359220 38.051933 19 34 18
7.429923 2.350282 37.907768 32 22 38
7.465853 2.337792 37.706329 42 38 35
7.510389 2.328221 37.551945 40 44 35
7.537151 2.313383 37.312630 37 30 35
7.574170 2.301954 37.128284 29 42 26
7.609266 2.290168 36.938187 34 19 24
7.633082 2.275246 36.697510 42 34 39
7.673532 2.265519 36.540630 120 120 120
7.691930 2.249527 36.282688 120 120 120
7.717275 2.235846 36.062035 120 120 120
7.743967 2.222805 35.851700 21 23 41
7.763770 2.208045 35.613625 40 22 37
7.805236 2.199657 35.478344 39 44 20
7.841053 2.189844 35.320061 39 17 18
7.891700 2.184310 35.230804 25 21 34
7.946640 2.180052 35.162125 33 30 29
7.990759 2.172926 35.047188 27 24 36
8.042352 2.167938 34.966747 25 17 33
8.087833 2.161404 34.861351 34 35 40
8.141590 2.157173 34.793118 20 32 15
8.196198 2.153238 34.729652 26 15 18
8.244161 2.147639 34.639332 37 15 38
8.298806 2.143858 34.578358 24 17 19
8.342511 2.137338 34.473186 15 41 35
8.388638 2.131539 34.379665 23 32 21
8.434949 2.125881 34.288410 15 25 26
8.478386 2.119596 34.187038 23 39 38
8.532557 2.116074 34.130230 26 24 34
8.582480 2.111563 34.057461 28 27 35
8.639287 2.108802 34.012939 33 18 30
8.696721 2.106237 33.971565 39 23 30
8.747178 2.102035 33.903790 26 25 37
8.801879 2.098910 33.853382 24 19 42
8.849979 2.094270 33.778545 36 19 16
8.903881 2.091063 33.726822 28 34 41
8.955806 2.087443 33.668442 15 44 22
8.999457 2.081964 33.580063 40 24 26
9.048447 2.077792 33.512768 15 44 18
9.086318 2.071146 33.405582 42 17 33
9.128828 2.065647 33.316891 44 19 17
9.171748 2.060320 33.230972 16 44 20
9.211001 2.054252 33.133099 22 36 28
9.261658 2.050796 33.077351 27 18 15
9.303912 2.045541 32.992596 16 28 43
9.351010 2.041418 32.926090 15 34 28
9.398760 2.037493 32.862797 37 21 43
9.441222 2.032485 32.782021 29 39 22
9.492004 2.029325 32.731049 15 27 41
9.537875 2.025165 32.663956 23 36 27
9.591303 2.022656 32.623478 40 43 31
9.644071 2.020042 32.581322 30 35 40
9.688748 2.015780 32.512577 30 35 40
9.737970 2.012514 32.459900 30 35 40
9.773528 2.006486 32.362675 30 35 40
9.812140 2.001160 32.276775 30 35 40
9.848059 1.995358 32.183201 30 35 40
9.877907 1.988410 32.071125 30 35 40
9.919842 1.983968 31.999491 30 35 40
9.947289 1.976705 31.882338 30 35 40
9.982638 1.971094 31.791842 30 35 40
10.014309 1.964833 31.690851 30 35 40
10.032606 1.956043 31.549074 31 20 27
10.062751 1.949658 31.446096 28 16 43
10.075474 1.939998 31.290291 35 30 35
10.101488 1.933001 31.177433 22 33 33
10.123980 1.925419 31.055153 41 15 42
10.129588 1.914739 30.882889 29 36 33
10.150501 1.907064 30.759094 16 16 17
10.146560 1.894840 30.561928 20 43 24
10.154743 1.885012 30.403423 24 20 44
10.161981 1.875127 30.243992 41 37 21
10.155854 1.862908 30.046906 32 44 22
10.173363 1.855143 29.921656 15 40 42
10.174456 1.844492 29.749870 41 34 22
10.192820 1.837078 29.630291 30 44 31
10.213741 1.830208 29.519484 20 17 28
10.220668 1.820924 29.369736 28 36 24
10.245212 1.814866 29.272034 25 40 35
6.871562 2.527471 39.491737 41 21 26
6.890502 2.505637 39.150581 42 42 44
6.906008 2.483059 38.797798 27 24 16
6.950183 2.471176 38.612129 36 37 26
6.990571 2.458223 38.409729 22 15 29
7.046980 2.451124 38.298805 43 28 21
7.112282 2.447237 38.238075 31 28 16
7.173838 2.442157 38.158710 23 16 18
7.244641 2.440300 38.129688 19 33 44
7.300609 2.433536 38.024006 31 34 15
7.354845 2.426341 37.911572 27 27 22
7.401101 2.416686 37.760719 25 36 18
7.436562 2.403737 37.558392 41 31 25
7.481234 2.393995 37.406170 24 44 40
7.507931 2.378750 37.167976 23 42 31
7.544425 2.366878 36.982475 17 36 38
7.579004 2.354642 36.791283 34 26 21
7.602494 2.339229 36.550453 44 33 16
7.642751 2.329219 36.394051 120 120 120
7.661760 2.312984 36.140377 120 120 120
7.688227 2.299283 35.926292 120 120 120
7.716062 2.286240 35.722507 32 36 24
7.736575 2.271288 35.488876 33 25 38
7.777994 2.262689 35.354519 41 38 28
7.813552 2.252555 35.196178 34 21 38
7.863677 2.246765 35.105701 17 35 17
7.917958 2.242254 35.035213 21 42 40
7.961659 2.234852 34.919556 18 23 29
8.013039 2.229715 34.839302 24 27 16
8.058031 2.222905 34.732891 29 36 34
8.111088 2.218417 34.662769 20 22 25
8.164993 2.214235 34.597427 39 25 43
8.212348 2.208363 34.505665 38 19 33
8.266611 2.204430 34.444214 43 41 37
8.310160 2.197728 34.339504 23 34 37
8.356281 2.191811 34.247051 42 15 29
8.402739 2.186078 34.157475 35 33 42
8.446396 2.179715 34.058048 25 15 27
8.500669 2.176171 34.002674 25 44 25
8.550921 2.171662 33.932224 27 43 23
8.607928 2.168927 33.889481 24 24 26
8.665604 2.166401 33.850014 40 20 19
8.716481 2.162228 33.784809 20 34 27
8.771380 2.159109 33.736076 19 35 24
8.819935 2.154488 33.663876 26 40 37
8.874120 2.151302 33.614090 42 18 18
8.926394 2.147704 33.557873 39 19 35
8.970658 2.142247 33.472603 38 16 35
9.020052 2.138086 33.407600 29 17 40
9.058665 2.131451 33.303917 20 34 41
9.101954 2.126004 33.218811 28 24 42
9.145248 2.120637 33.134956 16 39 40
9.184205 2.114349 33.036709 34 16 15
9.233966 2.110621 32.978451 21 31 44
9.275155 2.105000 32.890621 36 23 24
9.321362 2.100589 32.821697 33 35 33
9.368546 2.096458 32.757153 30 42 40
9.410897 2.091311 32.676727 42 26 26
9.461961 2.088157 32.627453 33 15 35
9.508321 2.084016 32.562744 30 19 37
9.562031 2.081531 32.523914 40 18 39
9.615103 2.078941 32.483456 30 35 40
9.660285 2.074692 32.417065 30 35 40
9.709812 2.071427 32.366039 30 35 40
9.745609 2.065295 32.270229 30 35 40
9.784387 2.059871 32.185482 30 35 40
9.819992 2.053854 32.091476 30 35 40
9.848858 2.046516 31.976810 30 35 40
9.889518 2.041707 31.901672 30 35 40
9.915398 2.033928 31.780123 30 35 40
9.949553 2.027934 31.686474 30 35 40
9.980279 2.021322 31.583162 30 35 40
9.997791 2.012134 31.439594 33 29 27
10.027670 2.005534 31.336468 17 26 19
10.040066 1.995541 31.180328 23 21 22
10.065501 1.988247 31.066360 22 36 42
10.087804 1.980428 30.944185 42 30 31
10.093906 1.969543 30.774105 19 38 33
10.115601 1.961813 30.653336 17 23 23
10.112976 1.949489 30.460770 18 26 38
10.122201 1.939583 30.305990 33 17 43
10.130435 1.929607 30.150105 44 32 39
10.125446 1.917244 29.956942 29 43 16
10.143537 1.909372 29.833931 36 42 25
10.145189 1.898515 29.664295 32 42 34
10.163741 1.890928 29.545757 23 38 20
10.184496 1.883837 29.434959 33 21 44
10.190964 1.874200 29.284378 17 20 42
10.214809 1.867851 29.185169 30 39 44
6.819712 2.616866 39.649487 25 30 26
6.837847 2.593666 39.297974 40 37 38
6.856278 2.571104 38.956123 44 33 35
6.872453 2.548213 38.609287 42 28 29
6.917764 2.536513 38.432022 34 33 41
6.959676 2.523839 38.239979 17 27 37
7.016946 2.516948 38.135578 20 39 25
7.083005 2.513324 38.080669 31 41 34
7.145874 2.508658 38.009968 44 22 18
7.217549 2.507149 37.987099 26 42 36
7.273403 2.500232 37.882309 17 34 23
7.326135 2.492396 37.763580 38 36 29
7.370598 2.481936 37.605091 27 15 15
7.405295 2.468432 37.400482 26 42 28
7.450025 2.458508 37.250126 27 32 35
7.476680 2.442876 37.013268 32 22 34
7.512849 2.430628 36.827690 22 19 29
7.547113 2.418007 36.636471 16 16 32
7.570247 2.402098 36.395420 33 23 42
7.610112 2.391749 36.238628 120 120 120
7.629865 2.375335 35.989929 120 120 120
7.657770 2.361742 35.783974 120 120 120
7.687232 2.348876 35.589035 16 33 39
7.709004 2.333919 35.362404 42 21 37
7.750750 2.325225 35.230682 26 24 16
7.786221 2.314822 35.073067 36 36 39
7.835575 2.308696 34.980244 39 18 24
7.888947 2.303852 34.906845 29 44 19
7.932342 2.296204 34.790974 26 37 25
7.983821 2.291009 34.712265 18 26 15
8.028646 2.284011 34.606232 19 15 24
8.081162 2.279302 34.534882 38 24 29
8.134422 2.274881 34.467888 40 17 38
8.181215 2.268740 34.374855 26 39 28
8.235081 2.264647 34.312840 31 16 22
8.278418 2.257750 34.208340 39 39 23
8.324475 2.251702 34.116699 32 26 32
8.371001 2.245878 34.028458 21 37 20
8.414730 2.239404 33.930363 24 39 44
8.468964 2.235806 33.875854 32 16 35
8.519289 2.231242 33.806702 39 40 26
8.576294 2.228486 33.764938 35 25 22
8.634011 2.225956 33.726604 16 28 32
8.685064 2.221761 33.663040 42 37 38
8.740034 2.218624 33.615517 41 29 21
8.788908 2.214000 33.545452 33 36 32
8.843265 2.210816 33.497215 17 28 39
8.895838 2.207238 33.443001 18 23 40
8.940654 2.201803 33.360649 31 20 17
8.990431 2.197661 33.297894 40 17 41
9.029750 2.191042 33.197609 31 43 39
9.073788 2.185657 33.116016 44 29 24
9.117406 2.180249 33.034081 17 18 37
9.155893 2.173701 32.934868 21 21 21
9.204561 2.169647 32.873432 17 23 22
9.244801 2.163677 32.782982 26 24 39
9.290553 2.159072 32.713215 18 31 41
9.337641 2.154840 32.649094 41 42 41
9.380150 2.149618 32.569965 15 26 38
9.431518 2.146483 32.522476 21 29 43
9.478446 2.142388 32.460430 38 20 44
9.532492 2.139947 32.423443 39 37 32
9.585944 2.137406 32.384945 30 35 40
9.631794 2.133216 32.321457 30 35 40
9.681750 2.129985 32.272499 30 35 40
9.718062 2.123815 32.179012 30 35 40
9.757198 2.118339 32.096046 30 35 40
9.792746 2.112161 32.002438 30 35 40
9.821076 2.104516 31.886610 30 35 40
9.860870 2.099411 31.809258 30 35 40
9.885418 2.091146 31.684032 30 35 40
9.918259 2.084730 31.586811 30 35 40
9.947887 2.077723 31.480656 30 35 40
9.964693 2.068144 31.335514 32 17 27
9.994460 2.061357 31.232687 35 22 35
10.006695 2.051062 31.076693 21 33 27
10.031685 2.043491 30.961990 36 41 41
10.053823 2.035436 30.839947 36 28 21
10.060301 2.024329 30.671650 34 25 17
10.082564 2.016513 30.553225 37 25 25
10.081000 2.004054 30.364458 33 22 30
10.091076 1.994045 30.212803 28 32 17
10.100201 1.983968 30.060123 37 21 39
10.096301 1.971467 29.870712 18 21 40
10.115038 1.963507 29.750111 36 17 26
10.117267 1.952455 29.582651 20 41 26
10.136058 1.944709 29.465286 28 41 18
10.156664 1.937398 29.354519 39 19 39
10.162563 1.927383 29.202766 32 19 18
10.185579 1.920709 29.101654 29 31 19
10.192939 1.911176 28.957214 20 20 19
6.774092 2.678130 39.384258 28 29 23
6.791591 2.654185 39.032135 41 32 38
6.810098 2.631174 38.693737 18 16 32
6.827231 2.608156 38.355232 22 15 30
6.873693 2.596728 38.187183 44 32 24
6.917205 2.584450 38.006622 28 17 30
6.975538 2.577916 37.910534 22 25 44
7.042206 2.574570 37.861320 17 21 32
7.105412 2.570042 37.794743 28 18 22
7.176636 2.568480 37.771767 28 24 15
7.231794 2.561260 37.665592 17 34 15
7.283576 2.553006 37.544209 30 33 36
7.327182 2.542084 37.383583 16 39 41
7.361560 2.528213 37.179596 27 19 24
7.406339 2.518155 37.031696 34 17 16
7.433111 2.502235 36.797577 28 21 19
7.469095 2.489698 36.613213 31 30 26
7.503211 2.476788 36.423355 38 27 42
7.526234 2.460499 36.183815 22 37 17
7.565854 2.449895 36.027874 120 120 120
7.586698 2.433469 35.786312 120 120 120
7.616454 2.420182 35.590908 120 120 120
7.647893 2.407670 35.406914 36 44 44
7.671228 2.392860 35.189117 16 23 38
7.713379 2.384135 35.060814 40 41 43
7.748740 2.373488 34.904236 35 15 35
7.797179 2.367001 34.808834 29 39 33
7.849458 2.361784 34.732113 40 28 43
7.892554 2.353920 34.616467 38 20 21
7.944208 2.348722 34.540035 34 36 38
7.989022 2.341610 34.435440 22 34 31
8.041109 2.336732 34.363712 37 42 17
8.093831 2.332121 34.295895 20 38 21
8.140176 2.325765 34.202419 24 23 42
8.193655 2.321536 34.140228 31 39 43
8.236850 2.314487 34.036572 18 26 15
8.282924 2.308356 33.946411 29 43 33
8.329555 2.302479 33.859982 37 33 43
8.373353 2.295919 33.763519 27 36 19
8.427458 2.292269 33.709831 25 36 39
8.477755 2.287648 33.641884 33 29 20
8.534618 2.284858 33.600857 38 39 33
8.592212 2.282306 33.563328 15 21 44
8.643301 2.278079 33.501167 40 23 37
8.698265 2.274931 33.454865 26 18 38
8.747321 2.270297 33.386723 19 17 27
8.801766 2.267122 33.340023 34 35 16
8.854509 2.263559 33.287628 33 37 34
8.899778 2.258153 33.208126 28 39 21
8.949878 2.254043 33.147697 21 29 20
8.989622 2.247405 33.050079 29 43 39
9.033980 2.242010 32.970730 35 44 43
9.077498 2.236485 32.889484 15 37 30
9.115314 2.229645 32.788898 16 25 42
9.162885 2.225272 32.724590 37 35 27
9.202128 2.218953 32.631660 33 43 21
9.247256 2.214132 32.560760 30 35 43
9.294075 2.209780 32.496765 43 29 44
9.336590 2.204473 32.418716 32 27 43
9.388156 2.201361 32.372952 27 39 17
9.435510 2.197310 32.313389 21 34 38
9.489759 2.194910 32.278091 24 16 22
9.543501 2.192426 32.241558 16 21 34
9.589939 2.188308 32.181004 30 35 40
9.640314 2.185138 32.134380 30 35 40
9.677212 2.178975 32.043747 30 35 40
9.716827 2.173501 31.963247 30 35 40
9.752479 2.167218 31.870848 30 35 40
9.780499 2.159331 31.754868 30 35 40
9.819555 2.153967 31.675985 30 35 40
9.843172 2.145307 31.548630 30 35 40
9.875168 2.138572 31.449581 30 35 40
9.904100 2.131262 31.342089 36 35 24
9.920461 2.121356 31.196417 28 43 33
9.950132 2.114403 31.094162 19 37 15
9.962306 2.103841 30.938837 35 36 19
9.987018 2.096041 30.824129 41 42 40
10.009125 2.087793 30.702839 15 20 34
10.016104 2.076509 30.536903 21 32 29
10.038932 2.068628 30.421007 23 42 39
10.038541 2.056087 30.236570 42 23 15
10.049563 2.046019 30.088512 41 22 16
10.059704 2.035892 29.939594 33 16 19
10.057150 2.023332 29.754883 21 44 37
10.076687 2.015337 29.637316 33 30 40
10.079712 2.004153 29.472841 35 22 43
10.098797 1.996274 29.356968 26 43 32
10.119293 1.988763 29.246511 26 15 41
10.124916 1.978432 29.094587 40 43 33
10.147376 1.971490 28.992502 43 21 21
10.154351 1.961636 28.847588 18 44 19
6.742370 2.743988 39.199825 37 43 32
6.760264 2.719646 38.852093 23 39 19
6.779780 2.696503 38.521477 44 29 25
6.797909 2.673335 38.190502 30 26 32
6.844979 2.661936 38.027660 37 16 24
6.889278 2.649722 37.853176 27 16 22
6.948253 2.643357 37.762245 30 41 30
7.014952 2.640036 37.714798 34 35 43
7.077251 2.635147 37.644955 35 44 40
7.146881 2.633062 37.615166 20 26 26
7.200812 2.625296 37.504230 17 30 41
7.252283 2.616803 37.382904 22 25 35
7.295989 2.605710 37.224434 26 18 33
7.330385 2.591550 37.022148 30 17 34
7.375142 2.581300 36.875710 29 19 27
7.402082 2.565078 36.643970 33 19 30
7.438152 2.552307 36.461529 24 25 40
7.472382 2.539159 36.273697 40 38 18
7.495501 2.522524 36.036064 29 16 31
7.534992 2.511664 35.880913 120 120 120
7.556697 2.495136 35.644798 120 120 120
7.587792 2.481988 35.456970 120 120 120
7.620685 2.469666 35.280949 26 23 31
7.645245 2.454895 35.069931 15 22 33
7.687798 2.446118 34.944538 32 28 27
7.723173 2.435235 34.789066 43 31 30
7.770939 2.428418 34.691692 29 26 23
7.822436 2.422878 34.612549 34 23 17
7.865437 2.414827 34.497532 19 34 32
7.917355 2.409630 34.423283 39 20 27
7.962403 2.402449 34.320702 20 18 42
8.014413 2.397474 34.249630 37 29 26
8.066949 2.392739 34.181988 36 44 18
8.113166 2.386225 34.088932 32 20 27
8.166452 2.381882 34.026882 23 34 40
8.209608 2.374680 33.924000 28 32 21
8.255711 2.368442 33.834881 36 39 17
8.302395 2.362470 33.749573 29 31 28
8.346160 2.355771 33.653870 19 15 40
8.400093 2.352026 33.600372 22 44 32
8.450194 2.347276 33.532516 19 35 30
8.506806 2.344395 33.491364 26 42 37
8.564149 2.341760 33.453709 19 16 22
8.615078 2.337424 33.391777 37 32 25
8.669914 2.334207 33.345821 28 23 31
8.718942 2.329488 33.278404 33 42 28
8.773311 2.326257 33.232239 33 42 43
8.826050 2.322645 33.180637 33 21 39
8.871468 2.317175 33.102493 40 31 15
8.921684 2.313029 33.043274 44 41 30
8.961443 2.306254 32.946480 28 23 32
9.005655 2.300715 32.867355 30 21 41
9.048819 2.294990 32.785576 24 31 21
9.086084 2.287863 32.683754 20 43 22
9.133020 2.283255 32.617928 22 39 35
9.171768 2.276680 32.523998 38 17 29
9.216650 2.271709 32.452991 42 32 16
9.263432 2.267274 32.389622 39 27 15
9.305951 2.261863 32.312328 23 31 40
9.357538 2.258716 32.267372 37 34 34
9.405052 2.254636 32.209084 44 27 31
9.459332 2.252222 32.174599 32 26 30
9.513187 2.249740 32.139145 20 20 38
9.559946 2.245625 32.080357 28 28 20
9.610559 2.242464 32.035198 30 35 40
9.647931 2.236275 31.946793 30 35 40
9.687921 2.230771 31.868160 30 35 40
9.723852 2.224411 31.777294 30 35 40
9.752038 2.216372 31.662460 30 35 40
9.790973 2.210865 31.583784 30 35 40
9.814479 2.201967 31.456665 30 35 40
9.846286 2.195032 31.357597 36 41 31
9.875075 2.187517 31.250238 23 28 32
9.891433 2.177359 31.105135 28 24 23
9.921101 2.170241 31.003441 39 19 24
9.933384 2.159431 30.849020 43 21 27
9.958091 2.151439 30.734848 28 18 15
9.980289 2.143007 30.614384 43 21 38
9.987528 2.131485 30.449780 17 25 40
10.010576 2.123456 30.335079 39 23 22
10.010733 2.110697 30.152811 24 27 40
10.022218 2.100465 30.006639 23 35 40
10.032915 2.090191 29.859865 33 32 25
10.031164 2.077460 29.678001 20 41 25
10.051239 2.069373 29.562468 25 25 37
10.054805 2.058001 29.400015 39 23 28
10.074107 2.049964 29.285194 37 16 20
10.094578 2.042256 29.175081 40 29 32
10.100212 2.031652 29.023598 24 25 24
10.122527 2.024505 28.921507 15 42 24
10.129002 2.014290 28.775574 24 41 21
6.696392 2.803141 38.932510 41 35 33
6.714959 2.778604 38.591717 25 35 43
6.735750 2.755534 38.271309 34 34 44
6.755047 2.732379 37.949703 18 40 20
6.802653 2.721061 37.792515 15 19 29
6.847665 2.708966 37.624531 24 19 39
6.907362 2.702881 37.540012 44 27 21
6.973812 2.699540 37.493610 38 22 26
7.034085 2.693905 37.415348 21 32 31
7.100747 2.690809 37.372353 17 30 16
7.152547 2.682205 37.252850 38 28 32
7.203694 2.673536 37.132442 26 31 22
7.247934 2.662506 36.979256 33 17 37
7.282614 2.648223 36.780880 41 38 40
7.327467 2.637888 36.637333 26 39 27
7.354844 2.621529 36.410118 20 22 36
7.391142 2.608638 36.231087 21 20 31
7.425642 2.595370 36.046806 31 18 16
7.449073 2.578525 35.812851 17 39 18
7.488509 2.567489 35.659565 120 120 120
7.511297 2.551006 35.430645 120 120 120
7.543876 2.538127 35.251759 120 120 120
7.578445 2.526148 35.085396 19 25 35
7.604784 2.511672 34.884331 18 17 37
7.648204 2.503049 34.764565 18 32 36
7.683800 2.492043 34.611710 30 32 29
7.730576 2.484828 34.511501 33 20 24
7.780892 2.478868 34.428726 25 23 17
7.823761 2.470661 34.314739 34 42 26
7.876113 2.465566 34.243969 15 42 20
7.921649 2.458443 34.145039 32 41 28
7.973747 2.453461 34.075844 16 43 26
8.026246 2.448685 34.009518 43 16 38
8.072463 2.442090 33.917912 35 22 18
8.125555 2.437667 33.856480 25 24 32
8.168695 2.430355 33.754936 29 26 37
8.214869 2.424060 33.667496 16 39 23
8.261560 2.418017 33.583576 27 37 33
8.305214 2.411191 33.488766 15 35 22
8.358834 2.407344 33.435337 44 29 24
8.408477 2.402422 33.366974 27 17 24
8.464549 2.399400 33.324997 40 15 22
8.521329 2.396624 33.286442 23 20 39
8.571773 2.392123 33.223927 33 17 34
8.626235 2.388803 33.177826 38 41 15
8.674881 2.383937 33.110233 36 26 16
8.728841 2.380593 33.063793 17 34 36
8.781223 2.376872 33.012115 15 16 36
8.826426 2.371279 32.934425 30 35 40
8.876496 2.367066 32.875912 20 20 22
8.915993 2.360116 32.779385 29 41 32
8.959850 2.354413 32.700184 29 17 41
9.002520 2.348483 32.617825 39 39 42
9.039091 2.341060 32.514717 37 18 23
9.085328 2.336227 32.447601 17 27 34
9.123540 2.329414 32.352978 23 29 31
9.168119 2.324312 32.282108 43 42 39
9.214842 2.319820 32.219727 32 27 18
9.257474 2.314369 32.144009 34 28 18
9.309173 2.311243 32.100597 35 27 30
9.357014 2.307209 32.044567 38 41 30
9.411402 2.304833 32.011570 44 43 37
9.465502 2.302419 31.978046 26 43 22
9.512835 2.298403 31.922266 35 44 15
9.563859 2.295326 31.879530 20 27 29
9.602170 2.289259 31.795263 20 23 16
9.642987 2.283865 31.720352 40 24 42
9.679714 2.277580 31.633051 30 35 40
9.708793 2.269588 31.522057 30 32 30
9.748075 2.264069 31.445404 25 26 44
9.772115 2.255104 31.320883 41 28 36
9.804157 2.248087 31.223429 26 23 32
9.833122 2.240458 31.117474 35 20 32
9.849860 2.230157 30.974401 21 35 15
9.879693 2.222931 30.874041 17 26 41
9.892709 2.212034 30.722700 34 15 16
9.918245 2.204054 30.611866 41 19 20
9.941289 2.195622 30.494753 24 34 22
9.949202 2.183971 30.332932 37 27 21
9.972336 2.175782 30.219200 17 24 44
9.973269 2.162878 30.039967 18 41 24
9.985623 2.152589 29.897076 21 27 18
9.997357 2.142291 29.754038 44 18 22
9.996939 2.129525 29.576742 31 39 30
10.017842 2.121425 29.464241 31 44 19
10.022271 2.109952 29.304886 17 42 15
10.041951 2.101804 29.191717 25 35 32
10.062426 2.093915 29.082155 42 23 16
10.068074 2.083050 28.931246 39 31 37
10.090153 2.075689 28.829008 22 23 29
10.095766 2.065043 28.681154 39 28 29
6.661904 2.866168 38.732002 32 20 33
6.680916 2.841309 38.396069 29 35 37
6.702515 2.818103 38.082474 35 29 39
6.722470 2.794735 37.766685 34 33 43
6.770289 2.783341 37.612717 22 19 18
6.815608 2.771181 37.448395 16 36 43
6.875753 2.765249 37.368225 37 18 41
6.941903 2.761832 37.322060 15 31 39
7.000344 2.755454 37.235870 18 18 28
7.064435 2.751411 37.181236 31 38 41
7.114521 2.742055 37.054794 24 40 34
7.165628 2.733281 36.936226 35 16 26
7.210626 2.722379 36.788910 33 24 20
7.245818 2.708033 36.595039 17 42 24
7.290909 2.697636 36.454544 40 16 27
7.318794 2.681142 36.231651 35 31 40
7.355416 2.668141 36.055962 15 31 20
7.390199 2.654732 35.874752 35 17 16
7.413949 2.637655 35.643986 37 36 27
7.453395 2.626435 35.492359 120 120 120
7.476917 2.609867 35.268475 120 120 120
7.510403 2.597055 35.095341 120 120 120
7.546049 2.585221 34.935413 31 38 37
7.573828 2.570933 34.742332 21 36 28
7.618184 2.562480 34.628109 41 33 19
7.654048 2.551349 34.477695 21 41 29
7.699850 2.543700 34.374329 37 40 38
7.748990 2.537280 34.287567 34 30 22
7.791675 2.528877 34.174011 21 34 18
7.844389 2.523847 34.106037 17 20 36
7.890433 2.516776 34.010487 35 26 33
7.942768 2.511815 33.943451 25 32 43
7.995391 2.507029 33.878777 38 41 29
8.041788 2.500388 33.789024 29 17 34
8.094825 2.495905 33.728439 35 35 33
8.138038 2.488491 33.628258 24 32 26
8.184283 2.482119 33.542145 32 23 17
8.230952 2.475978 33.459156 38 29 34
8.274500 2.469004 33.364918 26 24 23
8.327830 2.465038 33.311321 34 17 29
8.377011 2.459916 33.242107 37 27 16
8.432559 2.456730 33.199051 41 43 22
8.488739 2.453776 33.159138 29 15 35
8.538606 2.449057 33.095371 18 33 33
8.592645 2.445599 33.048634 40 26 29
8.640737 2.440513 32.979912 43 21 21
8.694154 2.436998 32.932400 30 35 40
8.746022 2.433104 32.879784 30 35 40
8.790751 2.427297 32.801311 30 35 40
8.840498 2.422951 32.742584 30 35 40
8.879539 2.415757 32.645363 30 35 40
8.922910 2.409837 32.565365 29 15 34
8.965099 2.403686 32.482243 44 39 30
9.001183 2.395998 32.378357 41 38 44
9.047020 2.390998 32.310787 23 15 34
9.084955 2.383995 32.216152 17 33 27
9.129309 2.378764 32.145454 35 21 34
9.175967 2.374201 32.083801 20 37 35
9.218753 2.368707 32.009560 41 43 29
9.270610 2.365604 31.967621 22 41 37
9.318841 2.361624 31.913837 42 43 19
9.373401 2.359291 31.882317 24 21 26
9.427789 2.356947 31.850639 18 34 30
9.475704 2.353027 31.797665 33 35 26
9.527149 2.350030 31.757164 15 25 38
9.566437 2.344094 31.676943 31 38 21
9.608108 2.338816 31.605618 38 22 40
9.645749 2.332632 31.522057 24 31 33
9.675965 2.324745 31.415472 40 32 28
9.715887 2.319276 31.341570 20 21 40
9.740816 2.310322 31.220564 35 17 22
9.773372 2.303279 31.125387 20 41 23
9.802735 2.295577 31.021315 33 20 27
9.819986 2.285154 30.880459 36 25 33
9.849973 2.277806 30.781166 23 32 19
9.863943 2.266869 30.633364 17 32 32
9.890806 2.259011 30.527180 19 43 29
9.915076 2.250662 30.414345 35 15 17
9.923603 2.238862 30.254889 31 27 16
9.946488 2.230425 30.140873 24 32 31
9.947822 2.217286 29.963320 25 24 16
9.960999 2.206928 29.823351 15 29 15
9.973743 2.196598 29.683760 28 34 23
9.974406 2.183746 29.510077 18 33 18
9.995942 2.175587 29.399830 30 16 41
10.001044 2.163969 29.242819 22 44 24
10.021071 2.155695 29.131020 44 37 35
10.041581 2.147621 29.021910 18 42 34
10.047224 2.136479 28.871332 17 27 21
10.069094 2.128894 28.768839 23 25 32
10.073940 2.117817 28.619146 16 20 33
6.629550 2.929336 38.543896 37 39 40
6.649283 2.904285 38.214272 42 25 24
6.671658 2.880943 37.907150 30 37 41
6.692159 2.857326 37.596397 21 34 22
6.739940 2.845752 37.444111 29 32 38
