ply
format ascii 1.0
element vertex 1290
property float x
property float y
property float z
property uchar red
property uchar green
property uchar blue
end_header
6.720870 2.220809 29.221172 42 42 25
6.782037 2.221702 29.232920 29 27 32
6.842987 2.222509 29.243534 22 36 36
6.903587 2.223189 29.252485 21 18 38
6.964017 2.223804 29.260574 39 16 38
7.023267 2.224035 29.263613 25 26 27
7.079551 2.223330 29.254345 22 41 16
7.134006 2.222067 29.237730 43 19 34
7.186922 2.220350 29.215132 41 41 22
7.239594 2.218585 29.191912 36 28 32
7.294353 2.217483 29.177410 29 24 27
7.346782 2.215696 29.153896 30 27 23
7.400978 2.214466 29.137711 27 38 33
7.453795 2.212845 29.116386 26 23 31
7.502347 2.209994 29.078865 36 20 37
7.552141 2.207549 29.046698 40 42 43
7.599197 2.204347 29.004570 24 29 18
7.650023 2.202279 28.977362 28 23 37
7.701114 2.200318 28.951555 25 38 42
7.749208 2.197537 28.914955 42 34 42
7.800309 2.195642 28.890032 34 18 33
7.847148 2.192586 28.849810 15 28 30
7.895047 2.189867 28.814041 24 20 25
7.943997 2.187477 28.782598 27 42 33
7.993183 2.185187 28.752459 16 31 21
8.047278 2.184261 28.740280 41 37 27
8.099997 2.182978 28.723392 26 44 26
8.153620 2.181955 28.709930 33 26 34
8.208275 2.181220 28.700264 34 20 20
8.262515 2.180386 28.689289 39 44 19
8.318507 2.180023 28.684507 17 38 27
8.375569 2.179943 28.683456 36 34 22
8.434684 2.180395 28.689402 20 44 29
8.493475 2.180757 28.694172 35 16 36
8.549857 2.180500 28.690796 26 33 26
8.604960 2.179923 28.683201 30 35 40
8.656224 2.178387 28.662992 20 41 18
8.707725 2.176931 28.643833 20 19 32
8.756802 2.174892 28.617001 19 15 25
8.803055 2.172182 28.581347 15 15 38
8.851906 2.170145 28.554535 44 40 43
8.892708 2.166172 28.502268 36 37 29
8.936246 2.162913 28.459381 20 43 40
8.975532 2.158672 28.403584 31 40 22
9.006305 2.152450 28.321714 22 34 19
9.042447 2.147581 28.257647 43 27 41
9.066500 2.139919 28.156834 42 26 42
9.096551 2.133759 28.075775 15 35 31
9.126435 2.127635 27.995199 44 44 26
9.150450 2.120226 27.897713 22 16 43
9.186403 2.115656 27.837585 22 28 20
9.213911 2.109209 27.752745 17 26 15
9.248279 2.104399 27.689459 31 26 44
9.284901 2.100156 27.633633 39 34 16
9.316614 2.094860 27.563948 23 36 43
9.357692 2.091719 27.522623 40 39 31
9.396391 2.088087 27.474827 36 25 20
9.445628 2.086825 27.458220 28 26 19
9.491652 2.084872 27.432520 29 42 24
9.522259 2.079574 27.362812 20 19 19
9.552975 2.074360 27.294214 44 24 32
9.568490 2.065924 27.183210 42 27 32
5.221999 2.368116 30.360456 22 19 44
5.267504 2.361295 30.273010 19 26 24
5.313792 2.354976 30.191999 28 30 21
5.357220 2.347546 30.096743 18 18 44
5.407540 2.343267 30.041887 17 38 31
5.454954 2.337838 29.972277 17 23 42
5.506707 2.334365 29.927757 36 39 28
5.559597 2.331444 29.890305 28 19 34
5.609018 2.327146 29.835203 35 24 16
5.661735 2.324291 29.798607 34 19 40
5.711550 2.320317 29.747658 26 15 33
5.764353 2.317626 29.713158 31 36 23
5.816951 2.314909 29.678324 38 22 34
5.866155 2.310910 29.627047 40 24 40
5.918041 2.308036 29.590206 35 40 43
5.965333 2.303445 29.531349 38 31 19
6.014926 2.299825 29.484930 23 23 22
6.063835 2.296015 29.436090 37 29 39
6.109339 2.291002 29.371822 34 41 22
6.158919 2.287599 29.328188 120 120 120
6.203861 2.282553 29.263494 120 120 120
6.251114 2.278443 29.210812 120 120 120
6.299749 2.274909 29.165503 26 39 30
6.347400 2.271088 29.116514 16 15 25
6.400345 2.269213 29.092478 20 24 36
6.453739 2.267530 29.070894 21 26 39
6.509739 2.266784 29.061335 18 32 23
6.568406 2.266972 29.063745 30 41 21
6.627710 2.267375 29.068905 41 16 39
6.688093 2.268136 29.078667 28 20 26
6.749666 2.269284 29.093388 22 18 33
6.810851 2.270284 29.106201 15 32 38
6.871576 2.271114 29.116846 28 39 44
6.932169 2.271887 29.126762 44 40 15
6.991334 2.272184 29.130558 29 17 27
7.047487 2.271504 29.121845 35 16 17
7.101780 2.270241 29.105658 19 35 19
7.154301 2.268437 29.082525 39 15 28
7.206365 2.266518 29.057924 25 27 24
7.260452 2.265261 29.041809 37 27 18
7.311461 2.263071 29.013733 15 43 17
7.363945 2.261369 28.991909 27 22 29
7.415077 2.259281 28.965145 16 36 23
7.462362 2.256063 28.923883 36 25 38
7.511697 2.253509 28.891144 43 28 15
7.558087 2.250118 28.847662 37 35 42
7.608192 2.247875 28.818909 27 27 31
7.658624 2.245762 28.791819 22 34 33
7.706048 2.242805 28.753912 41 38 30
7.756674 2.240817 28.728422 40 37 27
7.803081 2.237648 28.687798 28 25 16
7.850694 2.234869 28.652166 15 33 22
7.899345 2.232424 28.620815 39 23 22
7.948030 2.230023 28.590034 43 19 35
8.001564 2.229007 28.577013 35 31 15
8.053683 2.227614 28.559158 39 17 37
8.106824 2.226522 28.545156 38 17 33
8.161050 2.225741 28.535141 44 41 18
8.214869 2.224860 28.523849 34 42 17
8.270519 2.224484 28.519030 15 24 23
8.327230 2.224397 28.517910 43 40 30
8.385960 2.224847 28.523674 30 35 40
8.444417 2.225218 28.528435 30 35 40
8.500510 2.224966 28.525200 30 35 40
8.555355 2.224392 28.517849 30 35 40
8.606626 2.222903 28.498762 30 35 40
8.658184 2.221508 28.480869 30 35 40
8.707480 2.219554 28.455816 30 35 40
8.754151 2.216960 28.422569 19 30 30
8.803259 2.215014 28.397610 17 18 20
8.844609 2.211152 28.348106 23 43 20
8.888440 2.207956 28.307133 18 22 43
8.928123 2.203777 28.253553 27 32 15
8.959669 2.197655 28.175058 24 26 25
8.996351 2.192860 28.113596 19 41 31
9.021413 2.185311 28.016811 39 44 42
9.052185 2.179230 27.938843 32 36 21
9.082815 2.173189 27.861397 19 26 36
9.107822 2.165884 27.767750 35 16 39
9.144302 2.161380 27.710005 20 18 36
9.172905 2.155080 27.629232 35 37 41
9.208203 2.150419 27.569469 29 34 28
9.245755 2.146336 27.517128 40 24 44
9.278600 2.141215 27.451479 27 31 21
9.320270 2.138179 27.412558 39 28 42
9.359619 2.134650 27.367306 41 39 32
9.408923 2.133419 27.351521 34 19 36
9.455042 2.131484 27.326712 23 39 18
9.486584 2.126303 27.260300 41 24 38
9.518269 2.121214 27.195055 31 44 33
9.534199 2.112692 27.085793 25 16 18
5.206491 2.421624 30.270298 29 24 44
5.252194 2.414802 30.185020 40 30 42
5.298677 2.408490 30.106119 37 25 20
5.342476 2.401113 30.013908 29 21 33
5.393036 2.396905 29.961313 27 42 35
5.440171 2.391284 29.891048 17 36 29
5.491129 2.387448 29.843094 29 30 19
5.542951 2.384065 29.800812 29 39 35
5.591420 2.379328 29.741594 19 26 21
5.643545 2.376230 29.702869 32 35 36
5.692505 2.371877 29.648464 29 25 16
5.744530 2.368878 29.610979 28 26 21
5.796412 2.365883 29.573532 39 39 44
5.844869 2.361563 29.519541 27 40 23
5.896290 2.358516 29.481449 18 37 44
5.943141 2.353719 29.421492 25 29 22
5.992437 2.349975 29.374693 35 41 33
6.041184 2.346091 29.326134 42 27 28
6.086549 2.340980 29.262253 20 28 42
6.136020 2.337531 29.219141 120 120 120
6.180996 2.332451 29.155643 120 120 120
6.228260 2.328321 29.104017 120 120 120
6.276982 2.324808 29.060101 22 39 37
6.324847 2.321045 29.013062 22 37 25
6.377912 2.319241 28.990511 19 28 21
6.431588 2.317689 28.971117 15 38 39
6.487756 2.317056 28.963198 42 39 39
6.546590 2.317377 28.967211 15 39 28
6.606165 2.317953 28.974409 24 32 35
6.666658 2.318838 28.985470 42 21 19
6.728443 2.320153 29.001907 16 44 23
6.789762 2.321286 29.016075 35 29 41
6.850524 2.322211 29.027643 24 27 28
6.911134 2.323070 29.038378 35 27 34
6.970170 2.323390 29.042376 33 38 25
7.026135 2.322689 29.033617 16 32 40
7.080272 2.321401 29.017509 29 30 18
7.132466 2.319501 28.993763 38 23 36
7.183970 2.317410 28.967621 29 22 33
7.237448 2.315983 28.949793 29 19 26
7.287564 2.313512 28.918903 29 44 36
7.339195 2.311558 28.894470 31 26 15
7.389551 2.309235 28.865435 38 24 25
7.436205 2.305800 28.822500 37 20 34
7.485264 2.303158 28.789476 25 43 41
7.531250 2.299618 28.745228 18 19 38
7.580913 2.297246 28.715578 22 17 25
7.630935 2.295018 28.687725 27 33 30
7.677962 2.291929 28.649113 17 38 40
7.728306 2.289868 28.623356 39 44 15
7.774500 2.286618 28.582722 26 29 18
7.822018 2.283801 28.547510 36 41 21
7.870556 2.281320 28.516506 34 40 26
7.918970 2.278840 28.485502 19 29 38
7.972132 2.277752 28.471899 37 38 27
8.023828 2.276263 28.453289 34 21 39
8.076620 2.275104 28.438803 21 27 39
8.130500 2.274266 28.428320 23 16 42
8.183930 2.273314 28.416424 41 44 19
8.239254 2.272898 28.411221 22 27 27
8.295538 2.272750 28.409378 30 35 40
8.353829 2.273151 28.414383 30 35 40
8.411873 2.273479 28.418489 30 35 40
8.467556 2.273169 28.414618 30 35 40
8.522102 2.272560 28.407005 30 35 40
8.573225 2.271053 28.388161 30 35 40
8.624720 2.269663 28.370790 30 35 40
8.674099 2.267738 28.346727 30 35 40
8.720964 2.265186 28.314819 30 35 40
8.770193 2.263276 28.290945 16 30 34
8.811867 2.259453 28.243164 30 32 17
8.855851 2.256268 28.203348 26 25 27
8.895783 2.252097 28.151211 36 39 32
8.927858 2.246002 28.075026 19 19 42
8.964927 2.241232 28.015396 31 22 40
8.990748 2.233726 27.921577 20 28 20
9.022105 2.227680 27.846004 30 28 32
9.053360 2.221684 27.771044 26 27 20
9.079190 2.214437 27.680458 30 28 43
9.116139 2.209973 27.624662 32 40 44
9.145630 2.203766 27.547079 16 37 37
9.181662 2.199200 27.490005 42 31 38
9.219932 2.195222 27.440275 43 17 29
9.253674 2.190219 27.377733 27 22 15
9.295852 2.187259 27.340740 31 22 28
9.335697 2.183789 27.297359 25 34 25
9.385129 2.182588 27.282352 18 17 18
9.431214 2.180627 27.257843 31 21 26
9.462972 2.175396 27.192450 16 31 34
9.494800 2.170240 27.128000 21 38 35
9.510642 2.161510 27.018869 17 40 15
5.183552 2.471228 30.136930 30 32 15
5.229532 2.464492 30.054779 22 21 17
5.276215 2.458236 29.978493 23 30 18
5.320243 2.450898 29.889004 20 33 18
5.370795 2.446696 29.837751 30 18 23
5.417415 2.440813 29.766018 36 19 36
5.467460 2.436585 29.714457 20 29 35
5.518117 2.432718 29.667294 22 17 36
5.565501 2.427506 29.603731 39 18 34
5.616904 2.424138 29.562653 27 31 20
5.664899 2.419384 29.504684 29 29 40
5.716047 2.416061 29.464159 17 41 36
5.767144 2.412785 29.424204 30 41 34
5.814810 2.408153 29.367725 16 26 18
5.865720 2.404945 29.328600 20 40 26
5.912100 2.399961 29.267820 38 43 17
5.961034 2.396102 29.220753 41 32 37
6.009513 2.392136 29.172394 15 20 38
6.054574 2.386899 29.108530 38 36 23
6.103757 2.383372 29.065512 120 120 120
6.148533 2.378206 29.002516 120 120 120
6.195602 2.374016 28.951412 120 120 120
6.244210 2.370487 28.908381 35 23 41
6.292069 2.366742 28.862701 15 34 27
6.345091 2.364989 28.841324 35 29 30
6.398872 2.363547 28.823750 28 33 40
6.455063 2.363014 28.817245 26 19 44
6.513933 2.363463 28.822714 24 22 20
6.573656 2.364210 28.831825 37 39 30
6.634161 2.365223 28.844177 40 25 42
6.696054 2.366709 28.862303 21 26 16
6.757407 2.367980 28.877810 35 42 20
6.818092 2.368998 28.890219 19 19 31
6.878553 2.369921 28.901482 25 20 16
6.937274 2.370235 28.905310 42 32 27
6.992821 2.369468 28.895956 38 44 35
7.046610 2.368123 28.879549 29 36 41
7.098260 2.366087 28.854715 31 36 29
7.148898 2.363749 28.826202 27 32 32
7.201492 2.362089 28.805967 41 28 18
7.250462 2.359277 28.771675 17 39 19
7.301109 2.357051 28.744524 21 27 32
7.350608 2.354492 28.713312 29 26 17
7.396502 2.350826 28.668612 24 29 25
7.445167 2.348091 28.635258 27 29 25
7.490611 2.344390 28.590117 40 36 23
7.539669 2.341867 28.559351 30 22 36
7.589110 2.339500 28.530489 26 29 34
7.635572 2.336257 28.490942 41 32 35
7.685491 2.334112 28.464783 41 21 39
7.731409 2.330792 28.424297 43 28 33
7.778848 2.327976 28.389956 15 33 23
7.827298 2.325502 28.359776 27 43 32
7.875400 2.322960 28.328775 44 39 28
7.928087 2.321797 28.314598 23 41 23
7.979290 2.320219 28.295355 44 28 35
8.031684 2.319007 28.280577 33 16 17
8.085158 2.318122 28.269783 42 35 38
8.138158 2.317115 28.257494 28 43 31
8.193087 2.316666 28.252024 17 23 20
8.248781 2.316439 28.249250 30 35 40
8.306422 2.316757 28.253138 30 35 40
8.363782 2.316994 28.256021 30 35 40
8.418781 2.316577 28.250944 30 35 40
8.472799 2.315898 28.242662 30 35 40
8.523561 2.314344 28.223713 30 35 40
8.574835 2.312949 28.206696 30 35 40
8.624212 2.311063 28.183699 30 35 40
8.671199 2.308566 28.153244 30 35 40
8.720511 2.306716 28.130680 20 34 20
8.762591 2.302989 28.085228 24 29 17
8.806822 2.299871 28.047203 35 21 44
8.847182 2.295788 27.997410 35 31 30
8.880078 2.289831 27.924774 20 36 15
8.917754 2.285174 27.867981 41 39 31
8.944722 2.277848 27.778639 29 28 29
8.976973 2.271950 27.706707 22 21 22
9.009116 2.266097 27.635326 29 36 27
9.036020 2.259005 27.548841 22 31 30
9.073491 2.254625 27.495426 39 28 40
9.103924 2.248560 27.421459 44 31 38
9.140664 2.244115 27.367258 22 34 24
9.179588 2.240257 27.320204 44 31 15
9.214208 2.235399 27.260969 15 27 42
9.256843 2.232533 27.226007 20 27 42
9.297094 2.229128 27.184484 17 24 30
9.346544 2.227955 27.170185 17 43 35
9.392414 2.225948 27.145704 29 38 40
9.424064 2.220613 27.080643 29 23 27
9.455709 2.215338 27.016312 19 35 31
9.471245 2.206370 26.906946 42 18 36
5.213016 2.516628 29.959860 42 23 33
5.259747 2.510334 29.884928 42 15 32
5.303663 2.502852 29.795862 20 33 18
5.353903 2.498488 29.743904 36 30 44
5.399975 2.492296 29.670191 40 39 40
5.449427 2.487782 29.616453 19 25 36
5.499422 2.483610 29.566786 42 33 43
5.546145 2.478065 29.500769 22 18 38
5.597090 2.474503 29.458370 26 15 23
5.644504 2.469471 29.398460 24 23 44
5.695134 2.465934 29.356361 26 22 32
5.745789 2.462481 29.315250 43 24 25
5.793041 2.457654 29.257784 34 34 24
5.843688 2.454349 29.218441 19 16 15
5.889808 2.449227 29.157465 40 29 41
5.938522 2.445274 29.110401 34 20 20
5.986779 2.441211 29.062035 35 15 39
6.031551 2.435818 28.997839 19 39 15
6.080425 2.432170 28.954403 120 120 120
6.124900 2.426847 28.891037 120 120 120
6.171698 2.422536 28.839710 120 120 120
6.220082 2.418921 28.796677 28 19 34
6.267767 2.415103 28.751226 28 16 32
6.320649 2.413339 28.730225 36 18 20
6.374357 2.411919 28.713320 28 29 18
6.430457 2.411422 28.707399 35 37 24
6.489264 2.411939 28.713558 15 15 32
6.548973 2.412780 28.723568 44 31 37
6.609409 2.413871 28.736559 36 36 31
6.671263 2.415457 28.755444 39 35 40
6.732549 2.416813 28.771578 24 41 42
6.793079 2.417875 28.784231 20 42 25
6.853283 2.418806 28.795307 43 19 22
6.911654 2.419079 28.798559 20 15 30
6.966725 2.418202 28.788118 20 33 37
7.020118 2.416762 28.770977 27 24 25
7.071242 2.414570 28.744884 27 17 40
7.121065 2.411974 28.713972 27 24 43
7.172876 2.410086 28.691505 35 18 25
7.220941 2.406980 28.654530 23 44 26
7.270918 2.404555 28.625660 30 23 16
7.319865 2.401831 28.593224 42 39 38
7.365181 2.397966 28.547215 17 16 20
7.413474 2.395122 28.513361 34 33 21
7.458414 2.391247 28.467228 30 42 28
7.506959 2.388578 28.435452 34 36 18
7.555914 2.386078 28.405691 17 32 40
7.601862 2.382673 28.365156 27 30 32
7.651407 2.380438 28.338545 33 29 18
7.697091 2.377043 28.298128 21 38 26
7.744472 2.374218 28.264498 30 35 40
7.792901 2.371753 28.235149 29 28 33
7.840828 2.369171 28.204416 44 42 19
7.893194 2.367958 28.189980 42 38 30
7.944129 2.366336 28.170670 40 29 42
7.996318 2.365108 28.156048 34 33 37
8.049594 2.364216 28.145433 24 31 30
8.102403 2.363201 28.133343 32 28 30
8.157114 2.362750 28.127979 35 40 36
8.212440 2.362483 28.124794 30 35 40
8.269606 2.362745 28.127913 30 35 40
8.326434 2.362907 28.129845 30 35 40
8.380895 2.362400 28.123810 30 35 40
8.434478 2.361654 28.114927 30 35 40
8.484895 2.360037 28.095678 30 35 40
8.535914 2.358608 28.078665 30 35 40
8.585190 2.356719 28.056175 30 35 40
8.632165 2.354227 28.026508 30 35 40
8.681477 2.352400 28.004765 36 29 18
8.723824 2.348722 27.960976 19 34 17
8.768228 2.345641 27.924294 41 26 41
8.808927 2.341613 27.876350 36 28 16
8.842467 2.335746 27.806499 41 33 31
8.880627 2.331165 27.751959 20 16 38
8.908478 2.323951 27.666080 22 24 19
8.941418 2.318145 27.596970 43 42 40
8.974208 2.312372 27.528244 38 27 21
9.001845 2.305350 27.444649 30 36 37
9.039618 2.300994 27.392780 39 25 23
9.070591 2.294969 27.321056 33 43 38
9.107701 2.290560 27.268566 40 36 30
9.146917 2.286729 27.222967 41 20 24
9.181951 2.281905 27.165537 39 30 15
9.224750 2.279056 27.131617 19 15 28
9.265096 2.275638 27.090923 26 22 37
9.314413 2.274450 27.076782 16 28 27
9.360014 2.272373 27.052063 32 15 32
9.391438 2.266899 26.986891 21 40 29
9.422838 2.261481 26.922394 20 27 18
5.196114 2.568194 29.862724 31 44 18
5.242908 2.561876 29.789251 30 33 36
5.286678 2.554237 29.700436 22 30 33
5.336522 2.549672 29.647346 42 40 35
5.382174 2.543225 29.572386 21 26 23
5.431322 2.538553 29.518057 25 37 40
5.481013 2.534232 29.467812 28 27 44
5.527350 2.528469 29.400799 16 23 37
5.577946 2.524754 29.357609 38 40 23
5.624997 2.519530 29.296858 24 23 29
5.675309 2.515859 29.254171 25 40 32
5.725709 2.512301 29.212803 42 27 39
5.772737 2.507350 29.155237 35 25 37
5.823221 2.503985 29.116106 26 26 33
5.869179 2.498759 29.055340 15 40 24
5.917728 2.494728 29.008469 17 34 22
5.965768 2.490564 28.960041 28 21 40
6.010224 2.484996 28.895306 28 37 15
6.058745 2.481200 28.851168 120 120 120
6.102787 2.475659 28.786730 120 120 120
6.149185 2.471168 28.734509 120 120 120
6.197189 2.467399 28.690691 32 19 42
6.244487 2.463422 28.644438 35 29 16
6.297069 2.461581 28.623039 24 37 25
6.350480 2.460096 28.605766 37 44 27
6.406311 2.459566 28.599602 37 34 25
6.464895 2.460093 28.605732 31 26 26
6.524403 2.460959 28.615805 20 31 18
6.584663 2.462091 28.628969 20 27 35
6.646345 2.463731 28.648039 25 33 35
6.707474 2.465140 28.664419 34 27 22
6.767794 2.466230 28.677092 18 29 19
6.827693 2.467150 28.687786 17 41 36
6.885724 2.467384 28.690516 37 15 18
6.940363 2.466410 28.679188 39 18 30
6.993398 2.464886 28.661469 43 33 43
7.044102 2.462572 28.634560 30 41 32
7.093333 2.459785 28.602148 26 33 30
7.144579 2.457735 28.578318 43 26 44
7.192109 2.454450 28.540113 39 35 18
7.241756 2.451933 28.510851 43 27 32
7.290472 2.449143 28.478407 22 18 37
7.335533 2.445178 28.432299 28 20 35
7.383622 2.442275 28.398546 35 37 37
7.428285 2.438292 28.352234 33 44 24
7.476497 2.435526 28.320065 36 34 37
7.525108 2.432930 28.289879 36 44 43
7.570727 2.429412 28.248980 42 40 19
7.619987 2.427107 28.222176 30 35 40
7.665547 2.423666 28.182158 30 35 40
7.712966 2.420858 28.149511 30 35 40
7.761436 2.418418 28.121145 30 35 40
7.809250 2.415811 28.090826 30 35 40
7.861349 2.414557 28.076246 40 39 38
7.912047 2.412894 28.056906 42 15 19
7.964061 2.411652 28.042469 32 39 22
8.017155 2.410753 28.032009 37 27 19
8.069764 2.409721 28.020014 28 41 41
8.124259 2.409263 28.014687 30 35 40
8.179165 2.408932 28.010839 30 35 40
8.235824 2.409119 28.013006 30 35 40
8.292053 2.409177 28.013691 30 35 40
8.345890 2.408545 28.006342 30 35 40
8.398985 2.407709 27.996618 30 35 40
8.448965 2.405997 27.976706 30 35 40
8.499666 2.404511 27.959427 30 35 40
8.548779 2.402598 27.937185 30 35 40
8.595670 2.400090 27.908018 30 35 40
8.644935 2.398272 27.886889 30 35 40
8.687510 2.394634 27.844584 26 33 34
8.732100 2.391594 27.809237 16 33 17
8.773176 2.387636 27.763214 21 41 21
8.807371 2.381868 27.696135 15 40 20
8.846011 2.377365 27.643784 35 21 22
8.874723 2.370268 27.561251 28 19 30
8.908359 2.364564 27.494934 33 26 21
8.941752 2.358867 27.428688 21 36 34
8.970016 2.351894 27.347609 24 27 28
9.007971 2.347532 27.296881 30 24 31
9.039190 2.341477 27.226475 25 38 16
9.076368 2.337029 27.174755 43 16 23
9.115557 2.333148 27.129633 36 37 17
9.150698 2.328284 27.073071 24 43 35
9.193517 2.325419 27.039757 25 28 25
9.233791 2.321948 26.999390 21 38 31
9.282957 2.320739 26.985340 40 26 40
9.328218 2.318574 26.960167 31 24 15
9.358981 2.312852 26.893623 15 28 22
9.389666 2.307175 26.827616 36 37 20
5.172752 2.616105 29.728462 24 44 40
5.219838 2.609919 29.658171 38 38 20
5.263807 2.602332 29.571949 42 38 20
5.313497 2.597710 29.519430 32 40 35
5.358928 2.591130 29.444660 27 24 23
5.407792 2.586335 29.390173 25 23 27
5.457098 2.581853 29.339235 17 28 28
5.503033 2.575888 29.271454 19 30 15
5.553241 2.572028 29.227587 15 44 25
5.599878 2.566611 29.166029 20 44 27
5.649816 2.562803 29.122765 19 34 44
5.699880 2.559130 29.081018 31 29 19
5.746597 2.554043 29.023216 19 32 35
5.796829 2.550605 28.984146 22 34 28
5.842545 2.545267 28.923492 31 20 31
5.890897 2.541171 28.876947 16 40 18
5.938681 2.536912 28.828548 39 18 23
5.982766 2.531170 28.763298 34 24 26
6.030865 2.527220 28.718407 120 120 120
6.074382 2.521441 28.652744 120 120 120
6.120287 2.516754 28.599474 120 120 120
6.167801 2.512808 28.554632 16 35 30
6.214585 2.508640 28.507273 39 40 20
6.266773 2.506709 28.485331 41 30 25
6.319747 2.505125 28.467331 30 35 40
6.375177 2.504534 28.460613 28 25 21
6.433412 2.505045 28.466425 36 43 34
6.492628 2.505926 28.476437 36 25 18
6.552664 2.507106 28.489843 41 35 43
6.614151 2.508816 28.509274 20 16 21
6.675090 2.510290 28.526024 41 43 34
6.735200 2.511431 28.538984 42 21 35
6.794830 2.512374 28.549706 37 38 23
6.852532 2.512595 28.552217 29 39 15
6.906848 2.511581 28.540693 44 31 37
6.959597 2.510019 28.522938 27 24 40
7.010006 2.507645 28.495960 36 25 22
7.058890 2.504767 28.463264 44 36 18
7.109787 2.502645 28.439148 27 18 21
7.157010 2.499273 28.400833 40 24 22
7.206377 2.496698 28.371563 24 21 32
7.254906 2.493874 28.339478 15 16 38
7.299913 2.489893 28.294237 26 36 15
7.347962 2.487002 28.261391 21 35 37
7.392583 2.483005 28.215965 17 34 26
7.440586 2.480195 28.184036 36 36 37
7.488947 2.477546 28.153936 30 23 24
7.534381 2.473976 28.113361 16 32 19
7.583431 2.471637 28.086781 30 35 40
7.628963 2.468194 28.047657 30 35 40
7.676477 2.465438 28.016340 30 35 40
7.724995 2.463042 27.989111 30 35 40
7.772651 2.460408 27.959177 30 35 40
7.824381 2.459091 27.944218 23 44 37
7.874684 2.457348 27.924410 17 16 41
7.926381 2.456062 27.909794 36 33 21
7.979133 2.455118 27.899065 38 43 35
8.031347 2.454023 27.886621 27 32 27
8.085472 2.453523 27.880939 22 25 44
8.139761 2.453079 27.875895 30 35 40
8.195718 2.453140 27.876593 30 35 40
8.251196 2.453058 27.875664 30 35 40
8.304217 2.452252 27.866501 30 35 40
8.356707 2.451301 27.855690 30 35 40
8.406163 2.449478 27.834978 30 35 40
8.456534 2.447944 27.817545 30 35 40
8.505515 2.446031 27.795801 30 35 40
8.552340 2.443526 27.767338 30 35 40
8.601571 2.441736 27.747004 20 33 37
8.644465 2.438182 27.706617 27 25 31
8.689344 2.435230 27.673071 42 43 38
8.730917 2.431395 27.629484 31 26 29
8.765930 2.425792 27.565819 32 21 38
8.805148 2.421416 27.516087 30 27 32
8.834916 2.414511 27.437628 40 43 34
8.869417 2.408978 27.374744 43 21 20
8.903554 2.403413 27.311514 38 26 25
8.932585 2.396547 27.233490 38 35 31
8.970784 2.392209 27.184195 20 36 20
9.002239 2.386136 27.115179 31 24 34
9.039381 2.381633 27.064016 28 21 17
9.078429 2.377684 27.019135 20 37 24
9.113636 2.372781 26.963421 27 15 30
9.156472 2.369910 26.930799 42 41 25
9.196858 2.366443 26.891397 40 37 42
9.246277 2.365327 26.878712 28 43 15
9.291391 2.363128 26.853731 40 15 30
9.321057 2.357049 26.784647 31 36 44
9.350230 2.350915 26.714943 28 15 21
5.203897 2.661084 29.567596 26 40 24
5.248199 2.653584 29.484264 28 27 22
5.297939 2.648970 29.432997 36 23 24
5.343451 2.642366 29.359621 32 23 21
5.392304 2.637540 29.305998 19 23 40
5.441520 2.632994 29.255486 20 42 20
5.487359 2.626927 29.188082 18 31 31
5.537402 2.622980 29.144218 42 35 37
5.583881 2.617444 29.082714 32 26 43
5.633679 2.613562 29.039581 34 19 40
5.683594 2.609814 28.997929 23 23 38
5.730175 2.604625 28.940277 42 32 26
5.780267 2.601120 28.901333 20 20 23
5.825854 2.595678 28.840862 35 20 35
5.874101 2.591515 28.794611 33 37 27
5.921729 2.587163 28.746258 39 37 27
5.965581 2.581261 28.680679 28 18 23
6.013396 2.577170 28.635218 120 120 120
6.056525 2.571166 28.568514 120 120 120
6.102065 2.566289 28.514322 120 120 120
6.149196 2.562165 28.468498 30 35 40
6.195555 2.557798 28.419977 30 35 40
6.247404 2.555756 28.397291 30 35 40
6.299974 2.554044 28.378262 30 35 40
6.355032 2.553361 28.370680 30 35 40
6.412947 2.553828 28.375870 30 35 40
6.471871 2.554686 28.385397 30 35 40
6.531719 2.555890 28.398779 23 33 37
6.593037 2.557644 28.418264 37 21 43
6.653819 2.559161 28.435125 16 23 33
6.713796 2.560346 28.448286 21 21 24
6.773294 2.561330 28.459217 36 29 15
6.830840 2.561565 28.461834 35 19 26
6.885076 2.560565 28.450727 24 35 35
6.937740 2.559002 28.433359 26 21 18
6.988114 2.556627 28.406969 26 25 21
7.037079 2.553779 28.375320 26 21 21
7.088035 2.551693 28.352140 36 19 41
7.135408 2.548360 28.315109 41 39 42
7.184802 2.545796 28.286621 40 28 15
7.233395 2.542990 28.255449 19 24 44
7.278634 2.539058 28.211760 28 17 17
7.326855 2.536219 28.180212 27 38 39
7.371691 2.532260 28.136227 18 41 40
7.419749 2.529460 28.105110 17 32 19
7.468104 2.526802 28.075581 44 39 30
7.513608 2.523227 28.035852 30 35 40
7.562642 2.520881 28.009787 30 35 40
7.608275 2.517444 27.971600 30 35 40
7.655910 2.514715 27.941278 30 35 40
7.704484 2.512332 27.914799 30 35 40
7.752064 2.509661 27.885122 30 35 40
7.803549 2.508284 27.869820 30 35 40
7.853566 2.506457 27.849524 33 15 24
7.905025 2.505114 27.834597 15 40 44
7.957499 2.504108 27.823423 28 21 36
8.009390 2.502934 27.810381 20 40 34
8.063226 2.502380 27.804226 32 34 27
8.117050 2.501830 27.798115 30 35 40
8.172512 2.501789 27.797661 30 35 40
8.227467 2.501595 27.795496 30 35 40
8.279920 2.500647 27.784966 30 35 40
8.331989 2.499597 27.773296 30 35 40
8.381104 2.497680 27.751999 30 35 40
8.431273 2.496100 27.734449 30 35 40
8.480180 2.494171 27.713007 30 35 40
8.526962 2.491645 27.684942 30 35 40
8.576151 2.489850 27.665003 18 43 23
8.619259 2.486325 27.625832 32 28 29
8.664353 2.483413 27.593481 23 31 20
8.706285 2.479638 27.551535 31 44 15
8.741819 2.474100 27.489998 44 26 16
8.781401 2.469769 27.441879 20 30 25
8.811828 2.462933 27.365927 28 40 38
8.846881 2.457467 27.305189 25 19 18
8.881475 2.451941 27.243790 28 42 27
8.910954 2.445079 27.167542 21 27 26
8.949265 2.440709 27.118986 21 32 29
8.980729 2.434535 27.050388 25 28 43
9.017648 2.429905 26.998947 38 33 35
9.056415 2.425825 26.953615 19 20 24
9.091493 2.420812 26.897909 33 23 36
9.134273 2.417896 26.865509 39 22 18
9.174782 2.414416 26.826849 33 17 41
9.224639 2.413423 26.815811 16 29 30
9.269802 2.411220 26.791336 43 23 26
9.298426 2.404765 26.719614 16 42 38
5.179651 2.707545 29.429832 19 42 24
5.224202 2.700149 29.349449 34 20 21
5.273933 2.695566 29.299627 36 23 42
5.319456 2.688956 29.227777 33 20 31
5.368203 2.684101 29.175014 44 31 41
5.417210 2.679480 29.124783 33 39 30
5.462812 2.673291 29.057508 26 32 33
5.512532 2.669226 29.013329 32 22 38
5.558782 2.663583 28.951992 37 31 39
5.608439 2.659672 28.909477 31 42 36
5.658240 2.655908 28.868570 41 39 27
5.704672 2.650656 28.811476 24 22 44
5.754548 2.647092 28.772741 31 43 19
5.799956 2.641564 28.712654 19 32 30
5.848038 2.637350 28.666853 25 36 34
5.895467 2.632927 28.618773 20 21 23
5.939076 2.626899 28.553249 17 38 35
5.986607 2.622704 28.507654 120 120 120
6.029266 2.616474 28.439934 120 120 120
6.074271 2.611369 28.384443 30 35 40
6.120787 2.607002 28.336979 30 35 40
6.166485 2.602370 28.286631 30 35 40
6.217806 2.600173 28.262753 30 35 40
6.269737 2.598269 28.242058 30 35 40
6.324219 2.597447 28.233122 30 35 40
6.381630 2.597832 28.237301 30 35 40
6.440068 2.598624 28.245911 30 35 40
6.499582 2.599833 28.259050 30 35 40
6.560643 2.601634 28.278635 16 36 18
6.621199 2.603206 28.295721 16 34 23
6.681054 2.604479 28.309549 17 44 43
6.740507 2.605574 28.321459 29 35 17
6.797991 2.605897 28.324965 34 32 39
6.852399 2.605044 28.315699 23 17 32
6.905189 2.603596 28.299953 39 28 31
6.955817 2.601362 28.275679 29 21 24
7.005260 2.598725 28.247015 16 41 39
7.056537 2.596806 28.226149 38 22 41
7.104487 2.593702 28.192410 39 22 27
7.154210 2.591289 28.166180 18 36 24
7.203162 2.588636 28.137350 30 35 40
7.249065 2.584938 28.097151 30 27 44
7.297727 2.582273 28.068182 18 36 16
7.343142 2.578508 28.027260 28 33 18
7.391460 2.575812 27.997955 34 39 25
7.439962 2.573220 27.969784 19 42 32
7.485771 2.569742 27.931982 43 21 38
7.534903 2.567448 27.907047 30 35 40
7.580787 2.564090 27.870539 30 35 40
7.628662 2.561448 27.841831 30 35 40
7.677326 2.559109 27.816399 30 35 40
7.724833 2.556420 27.787169 30 35 40
7.776007 2.554974 27.771454 28 42 19
7.825605 2.553034 27.750374 43 39 28
7.876705 2.551609 27.734877 36 33 33
7.928732 2.550501 27.722839 22 19 36
7.980064 2.549187 27.708555 28 31 31
8.033408 2.548529 27.701406 44 37 25
8.086458 2.547788 27.693348 30 35 40
8.141179 2.547580 27.691086 30 35 40
8.195342 2.547201 27.686968 30 35 40
8.246875 2.546015 27.674076 30 35 40
8.298271 2.544803 27.660904 30 35 40
8.346763 2.542723 27.638288 30 35 40
8.396538 2.541057 27.620190 30 35 40
8.445308 2.539112 27.599047 30 35 40
8.492023 2.536578 27.571505 30 35 40
8.541224 2.534815 27.552336 28 33 22
8.584698 2.531385 27.515057 40 22 31
8.630138 2.528575 27.484516 31 39 29
8.672593 2.524932 27.444914 15 17 15
8.708901 2.519556 27.386482 40 30 18
8.749021 2.515344 27.340691 25 30 40
8.780351 2.508672 27.268171 23 31 29
8.816182 2.503360 27.210440 22 30 16
8.851343 2.497925 27.151360 31 35 38
8.881248 2.491082 27.076977 19 39 43
8.919485 2.486644 27.028744 28 44 16
8.950637 2.480297 26.959749 22 27 44
8.986977 2.475455 26.907118 44 17 16
9.025152 2.471173 26.860571 39 26 38
9.060146 2.466075 26.805164 36 23 25
9.103150 2.463205 26.773972 17 17 17
9.143202 2.459575 26.734509 34 24 20
9.191905 2.458300 26.720654 33 30 21
9.235772 2.455754 26.692982 17 39 19
9.263385 2.448941 26.618923 40 38 18
5.161083 2.756488 29.324337 20 22 25
5.205670 2.749062 29.245338 35 29 15
5.255341 2.744456 29.196337 41 30 26
5.300794 2.737773 29.125242 15 27 18
5.349393 2.732842 29.072786 18 17 42
5.398178 2.728112 29.022465 32 15 20
5.443515 2.721757 28.954866 17 17 15
5.492929 2.717555 28.910154 17 19 34
5.538996 2.711800 28.848940 34 30 33
5.588605 2.707881 28.807241 44 41 24
5.638406 2.704134 28.767380 15 38 31
5.684783 2.698837 28.711027 21 34 31
5.734506 2.695218 28.672529 29 24 15
5.779807 2.689613 28.612907 27 22 20
5.827780 2.685350 28.567549 18 34 30
5.875100 2.680871 28.519905 30 31 33
5.918630 2.674766 28.454954 27 41 27
5.966051 2.670518 28.409765 120 120 120
6.008433 2.664117 28.341667 30 35 40
6.053031 2.658808 28.285191 30 35 40
6.099039 2.654211 28.236290 30 35 40
6.144218 2.649342 28.184484 30 35 40
6.195121 2.647006 28.159639 30 35 40
6.246557 2.644939 28.137646 30 35 40
6.300603 2.644003 28.127693 30 35 40
6.357631 2.644324 28.131109 30 35 40
6.415685 2.645063 28.138969 30 35 40
6.474921 2.646272 28.151833 30 35 40
6.535786 2.648120 28.171492 30 35 40
6.596176 2.649746 28.188787 27 22 21
6.655978 2.651110 28.203297 28 25 31
6.715483 2.652334 28.216314 30 31 24
6.773007 2.652761 28.220861 34 26 32
6.827715 2.652088 28.213699 37 43 20
6.880752 2.650782 28.199804 43 38 39
6.931740 2.648714 28.177807 15 33 41
6.981730 2.646301 28.152138 21 27 40
7.033359 2.644543 28.133436 17 26 28
7.081962 2.641684 28.103024 30 35 40
7.132147 2.639456 28.079319 30 35 40
7.181580 2.636986 28.053047 30 35 40
7.228247 2.633547 28.016460 30 35 40
7.277401 2.631061 27.990005 30 35 40
7.323456 2.627499 27.952122 30 24 26
7.372108 2.624917 27.924652 22 19 34
7.420836 2.622401 27.897881 25 19 38
7.467014 2.619027 27.861992 33 39 31
7.516305 2.616788 27.838165 30 35 40
7.562472 2.613501 27.803205 30 35 40
7.610584 2.610930 27.775852 30 35 40
7.659348 2.608619 27.751261 30 35 40
7.706852 2.605914 27.722488 30 35 40
7.757814 2.604409 27.706478 38 30 37
7.807103 2.602368 27.684761 21 40 37
7.857915 2.600859 27.668715 22 27 38
7.909568 2.599648 27.655832 24 38 44
7.960427 2.598195 27.640373 26 29 21
8.013362 2.597435 27.632284 34 20 20
8.065793 2.596522 27.622580 44 15 21
8.119949 2.596174 27.618874 30 35 40
8.173508 2.595641 27.613201 30 35 40
8.224299 2.594242 27.598318 30 35 40
8.275127 2.592873 27.583757 30 35 40
8.323100 2.590634 27.559933 30 35 40
8.372555 2.588882 27.541300 30 35 40
8.421212 2.586908 27.520300 30 35 40
8.467892 2.584357 27.493155 34 21 38
8.517139 2.582616 27.474642 35 18 36
8.560921 2.579252 27.438848 43 36 33
8.606626 2.576506 27.409636 33 43 38
8.649471 2.572944 27.371744 34 32 33
8.686348 2.567663 27.315561 42 28 21
8.726854 2.563513 27.271420 30 24 32
8.758793 2.556915 27.201220 26 43 16
8.795149 2.551679 27.145523 20 43 36
8.830623 2.546253 27.087801 19 38 44
8.860630 2.539327 27.014116 32 33 17
8.898609 2.534755 26.965481 43 29 15
8.929248 2.528161 26.895327 20 21 37
8.964891 2.523053 26.840990 41 32 17
9.002501 2.518557 26.793158 39 23 38
9.037631 2.513424 26.738552 44 20 21
9.081222 2.510691 26.709476 37 29 36
9.120648 2.506845 26.668560 20 43 21
9.167271 2.505010 26.649044 29 21 15
9.209169 2.501913 26.616096 34 43 40
9.236333 2.494871 26.541185 15 21 19
5.186996 2.797481 29.140427 32 20 39
5.236579 2.792842 29.092108 33 26 15
5.281936 2.786076 29.021627 20 37 34
5.330376 2.781066 28.969437 28 39 37
5.378952 2.776233 28.919098 19 40 32
5.424028 2.769716 28.851212 34 27 27
5.473149 2.765380 28.806046 28 19 19
5.519062 2.759531 28.745113 43 31 31
5.568648 2.755620 28.704372 19 38 17
5.618475 2.751906 28.665688 24 33 34
5.664796 2.746568 28.610083 36 44 39
5.714354 2.742890 28.571768 24 36 38
5.759521 2.737198 28.512480 26 40 39
5.807355 2.732873 28.467426 44 38 18
5.854544 2.728331 28.420116 39 33 41
5.898008 2.722157 28.355806 25 27 41
5.945347 2.717873 28.311178 120 120 120
5.987491 2.711317 28.242884 30 35 40
6.031705 2.705811 28.185535 30 35 40
6.077227 2.700990 28.135309 30 35 40
6.121887 2.695877 28.082048 30 35 40
6.172355 2.693391 28.056160 30 35 40
6.223264 2.691141 28.032721 30 35 40
6.276843 2.690076 28.021622 30 35 40
6.333452 2.690316 28.024124 30 35 40
6.391074 2.690979 28.031027 30 35 40
6.449995 2.692172 28.043457 30 35 40
6.510652 2.694063 28.063156 30 35 40
6.570879 2.695745 28.080681 20 18 37
6.630685 2.697228 28.096125 22 23 16
6.690339 2.698624 28.110666 37 31 24
6.748007 2.699203 28.116697 17 15 42
6.803199 2.698790 28.112392 21 20 31
6.856630 2.697691 28.100945 40 42 42
6.908151 2.695864 28.081915 32 42 16
6.958937 2.693782 28.060228 35 25 17
7.011116 2.692269 28.044464 30 35 40
7.060573 2.689742 28.018148 30 35 40
7.111321 2.687743 27.997326 30 35 40
7.161300 2.685487 27.973827 30 35 40
7.208803 2.682345 27.941097 30 35 40
7.258502 2.680062 27.917315 30 35 40
7.305262 2.676737 27.882679 30 35 40
7.354313 2.674295 27.857244 31 34 25
7.403331 2.671879 27.832071 17 43 15
7.449948 2.668638 27.798313 44 21 16
7.499456 2.666473 27.775763 29 28 38
7.545929 2.663269 27.742386 27 31 35
7.594257 2.660761 27.716265 30 35 40
7.643093 2.658467 27.692368 16 26 43
7.690586 2.655742 27.663977 29 30 21
7.741365 2.654182 27.647734 20 18 28
7.790361 2.652038 27.625393 33 26 22
7.840905 2.650447 27.608822 37 18 24
7.892197 2.649129 27.595095 37 25 44
7.942560 2.647520 27.578335 21 40 21
7.995052 2.646638 27.569145 16 30 43
8.046818 2.645529 27.557594 42 32 33
8.100396 2.645027 27.552366 25 41 23
8.153353 2.644331 27.545113 34 42 25
8.203391 2.642703 27.528156 26 25 42
8.253648 2.641167 27.512159 30 35 40
8.301053 2.638745 27.486929 36 32 38
8.350111 2.636877 27.467470 24 38 24
8.398598 2.634854 27.446398 40 37 43
8.445224 2.632278 27.419558 23 36 32
8.494546 2.630569 27.401762 29 33 41
8.538654 2.627278 27.367481 33 33 27
8.584650 2.624606 27.339649 31 24 33
8.627888 2.621130 27.303442 18 26 20
8.665349 2.615954 27.249525 19 20 32
8.706243 2.611873 27.207010 35 27 44
8.738795 2.605355 27.139116 18 36 18
8.775692 2.600205 27.085470 44 39 20
8.811480 2.594792 27.029079 38 17 28
8.841561 2.587774 26.955978 31 33 20
8.879254 2.583056 26.906832 35 29 37
8.909333 2.576193 26.835340 37 31 32
8.944280 2.570811 26.779282 44 23 15
8.981254 2.566073 26.729923 29 34 44
9.016335 2.560852 26.675547 33 28 23
9.060314 2.558206 26.647984 22 25 30
9.098615 2.553997 26.604137 35 43 23
9.142424 2.551374 26.576813 32 25 16
9.181893 2.547577 26.537262 42 26 16
5.212418 2.837872 28.957878 16 44 28
5.257654 2.831044 28.888208 39 43 38
5.305914 2.825976 28.836487 15 36 30
5.354271 2.821068 28.786404 19 23 33
5.399117 2.814433 28.718708 20 30 23
5.447962 2.810001 28.673483 27 26 33
5.493722 2.804087 28.613134 16 22 26
5.543245 2.800196 28.573429 33 24 43
5.593024 2.796512 28.535835 18 25 40
5.639246 2.791142 28.481041 43 31 19
5.688586 2.787407 28.442932 30 26 26
5.733541 2.781619 28.383867 20 24 40
5.781149 2.777219 28.338966 25 44 29
5.828084 2.772584 28.291670 34 18 35
5.871318 2.766294 28.227489 38 27 30
5.918431 2.761934 28.183004 120 120 120
5.960170 2.755173 28.114008 30 35 40
6.003914 2.749456 28.055674 30 35 40
6.048846 2.744384 28.003918 30 35 40
6.092819 2.738974 27.948709 30 35 40
6.142698 2.736293 27.921352 30 35 40
6.192876 2.733792 27.895840 30 35 40
6.245815 2.732544 27.883101 30 35 40
6.301845 2.732658 27.884270 30 35 40
6.358868 2.733198 27.889771 30 35 40
6.417371 2.734358 27.901613 30 35 40
6.477734 2.736284 27.921268 30 35 40
6.537736 2.738026 27.939043 35 20 28
6.597528 2.739651 27.955627 39 18 42
6.657362 2.741267 27.972111 33 23 32
6.715200 2.742040 27.980000 18 40 40
6.770978 2.741966 27.979248 18 35 40
6.824867 2.741135 27.970768 37 22 33
6.877031 2.739630 27.955410 43 21 29
6.928872 2.738022 27.939001 34 35 28
6.981819 2.736873 27.927277 30 35 40
7.032283 2.734777 27.905884 30 35 40
7.083528 2.733015 27.887907 30 35 40
7.133926 2.730956 27.866898 30 35 40
7.182244 2.728139 27.838156 30 35 40
7.232482 2.726089 27.817240 30 35 40
7.279969 2.723042 27.786140 30 35 40
7.329408 2.720765 27.762911 25 26 43
7.378704 2.718470 27.739491 17 20 17
7.425775 2.715395 27.708115 23 16 34
7.475483 2.713324 27.686975 16 32 41
7.522251 2.710223 27.655336 31 20 34
7.570755 2.707788 27.630493 17 40 33
7.619607 2.705513 27.607271 18 34 35
7.667018 2.702762 27.579201 26 24 29
7.717522 2.701133 27.562580 28 39 31
7.766147 2.698874 27.539530 28 34 44
7.816391 2.697205 27.522503 15 27 30
7.867258 2.695774 27.507895 15 20 18
7.917024 2.693987 27.489668 44 41 41
7.968953 2.692956 27.479147 36 27 36
8.019881 2.691604 27.465347 25 29 23
8.072714 2.690905 27.458212 37 16 40
8.124890 2.689997 27.448952 36 21 18
8.173990 2.688091 27.429497 40 42 28
8.223564 2.686364 27.411879 30 43 35
8.270241 2.683721 27.384905 33 27 20
8.318727 2.681695 27.364235 37 44 30
8.366920 2.679602 27.342875 42 28 43
8.413447 2.677006 27.316387 18 32 39
8.462883 2.675363 27.299622 31 31 35
8.507457 2.672214 27.267490 36 16 32
8.553859 2.669676 27.241590 36 32 19
8.597689 2.666372 27.207876 33 18 28
8.635988 2.661405 27.157196 39 41 40
8.677454 2.657470 27.117044 34 30 41
8.710968 2.651164 27.052696 15 38 17
8.748718 2.646217 27.002216 31 36 34
8.785093 2.640917 26.948137 36 34 38
8.815523 2.633906 26.876595 26 18 22
8.853038 2.629084 26.827387 27 35 32
8.882740 2.622014 26.755241 21 44 41
8.917247 2.616438 26.698345 23 16 28
8.953662 2.611485 26.647802 21 25 35
8.988438 2.606115 26.593012 22 21 21
9.032349 2.603442 26.565731 37 21 18
9.068899 2.598690 26.517248 18 34 25
9.109370 2.595111 26.480728 20 27 18
5.196552 2.886973 28.869734 40 36 32
5.241703 2.880056 28.800564 26 25 40
5.289848 2.874917 28.749174 22 24 17
5.338097 2.869945 28.699448 31 23 17
5.382857 2.863222 28.632219 24 31 15
5.431577 2.858725 28.587250 24 28 44
5.477283 2.852752 28.527515 23 20 29
5.526761 2.848846 28.488461 29 27 25
5.576493 2.845149 28.451494 19 30 44
5.622640 2.839717 28.397171 36 26 15
5.671842 2.835921 28.359209 44 44 26
5.716627 2.830013 28.300133 44 44 25
5.764048 2.825514 28.255136 22 21 19
5.810759 2.820757 28.207569 17 21 44
5.853778 2.814316 28.143164 32 31 25
5.900681 2.809848 28.098480 30 35 40
5.942120 2.802887 28.028868 30 35 40
5.985566 2.796993 27.969933 30 35 40
6.030138 2.791731 27.917307 30 35 40
6.073651 2.786078 27.860785 30 35 40
6.123112 2.783233 27.832329 30 35 40
6.172767 2.780526 27.805256 30 35 40
6.225242 2.779126 27.791258 30 35 40
6.280858 2.779141 27.791407 30 35 40
6.337446 2.779582 27.795816 30 35 40
6.395644 2.780715 27.807150 30 35 40
6.455796 2.782671 27.826708 30 35 40
6.515646 2.784464 27.844641 30 35 40
6.575444 2.786205 27.862051 24 39 23
6.635425 2.787994 27.879936 40 29 29
6.693412 2.788922 27.889217 33 36 33
6.749636 2.789106 27.891056 28 16 25
6.803863 2.788468 27.884684 39 20 28
6.856501 2.787195 27.871954 35 26 24
6.909152 2.785949 27.859486 30 35 40
6.962734 2.785094 27.850937 30 35 40
7.013891 2.783290 27.832899 30 35 40
7.065390 2.781650 27.816498 30 35 40
7.115932 2.779661 27.796610 30 35 40
7.164679 2.777007 27.770073 30 35 40
7.215215 2.775083 27.750826 30 35 40
7.263107 2.772178 27.721783 30 35 40
7.312781 2.769993 27.699928 30 35 40
7.362242 2.767760 27.677603 24 15 31
7.409579 2.764768 27.647684 33 24 25
7.459408 2.762744 27.627436 26 44 23
7.506316 2.759675 27.596748 23 20 31
7.554885 2.757257 27.572573 24 30 38
7.603690 2.754960 27.549603 19 40 35
7.651000 2.752158 27.521584 32 29 22
7.701318 2.750471 27.504707 26 19 34
7.749707 2.748123 27.481232 29 19 26
7.799779 2.746401 27.464012 35 26 41
7.850412 2.744899 27.448992 28 18 27
7.899785 2.742981 27.429808 31 18 23
7.951335 2.741840 27.418398 16 32 22
8.001707 2.740311 27.403107 17 31 36
8.054051 2.739473 27.394730 30 31 24
8.105720 2.738419 27.384188 25 43 40
8.154216 2.736314 27.363140 38 35 34
8.203362 2.734454 27.344540 21 32 24
8.249547 2.731638 27.316381 30 19 33
8.297605 2.729475 27.294754 15 35 16
8.345542 2.727301 27.273012 28 21 38
8.391988 2.724672 27.246716 36 27 20
8.441507 2.723067 27.230667 24 27 18
8.486429 2.720009 27.200092 38 27 34
8.533132 2.717558 27.175581 16 21 31
8.577398 2.714366 27.143663 33 32 44
8.616308 2.709531 27.095308 38 29 28
8.658203 2.705688 27.056883 39 39 18
8.692438 2.699515 26.995150 28 18 23
8.730825 2.694699 26.946991 33 36 28
8.767693 2.689476 26.894764 41 21 40
8.798477 2.682463 26.824625 41 34 37
8.835950 2.677561 26.775606 21 21 31
8.865570 2.670353 26.703526 20 30 23
8.900045 2.664684 26.646841 24 35 33
8.936216 2.659588 26.595882 35 40 21
8.970607 2.654026 26.540257 35 22 22
9.014111 2.651209 26.512093 18 41 44
9.049142 2.645948 26.459478 32 26 24
9.087224 2.641635 26.416349 23 42 26
5.218467 2.924636 28.672897 33 32 35
5.266447 2.919443 28.621992 20 33 43
5.314441 2.914371 28.572264 19 25 27
5.358926 2.907503 28.504927 25 44 33
5.407333 2.902884 28.459648 41 29 25
5.452686 2.896739 28.399406 25 41 30
5.501851 2.892726 28.360058 20 17 40
5.551225 2.888903 28.322578 41 26 22
5.596942 2.883273 28.267384 42 26 23
5.645722 2.879318 28.228611 22 42 27
5.690084 2.873211 28.168734 36 24 35
5.737144 2.868572 28.123253 17 35 27
5.783565 2.863707 28.075558 44 24 16
5.826347 2.857151 28.011282 37 33 16
5.873068 2.852633 27.966991 120 120 120
5.914307 2.845563 27.897675 30 35 40
5.957533 2.839572 27.838942 30 35 40
6.001820 2.834193 27.786205 30 35 40
6.044993 2.828391 27.729326 30 35 40
6.094092 2.825443 27.700418 30 35 40
6.143268 2.822582 27.672377 30 35 40
6.195244 2.821049 27.657339 30 35 40
6.250369 2.820963 27.656500 30 35 40
6.306474 2.821317 27.659973 30 35 40
6.364306 2.822431 27.670895 30 35 40
6.424258 2.824458 27.690765 30 35 40
6.483978 2.826349 27.709309 22 27 34
6.543852 2.828275 27.728188 43 41 19
6.604086 2.830322 27.748259 23 24 38
6.662271 2.831465 27.759460 21 23 17
6.719102 2.832018 27.764883 35 35 17
6.773845 2.831689 27.761662 39 29 31
6.827103 2.830750 27.752451 39 37 31
6.880650 2.829945 27.744558 30 26 34
6.934793 2.829395 27.739170 30 35 40
6.986756 2.827973 27.725224 30 35 40
7.038753 2.826586 27.711624 30 35 40
7.089658 2.824786 27.693977 30 35 40
7.138903 2.822357 27.670166 30 35 40
7.189612 2.820540 27.652353 30 35 40
7.237795 2.817768 27.625174 30 35 40
7.287591 2.815660 27.604511 21 19 15
7.337134 2.813488 27.583212 22 41 37
7.384730 2.810606 27.554964 36 27 37
7.434695 2.808663 27.535908 22 29 38
7.481783 2.805669 27.506556 17 31 16
7.530380 2.803280 27.483137 33 34 35
7.579105 2.800973 27.460524 27 29 38
7.626298 2.798138 27.432728 19 19 19
7.676389 2.796399 27.415674 16 40 29
7.724518 2.793974 27.391907 28 23 44
7.774410 2.792218 27.374681 44 24 26
7.824725 2.790636 27.359177 34 28 28
7.873546 2.788548 27.338701 16 38 44
7.924500 2.787238 27.325861 16 16 23
7.974020 2.785445 27.308289 43 35 36
8.025629 2.784402 27.298058 36 16 15
8.076563 2.783140 27.285685 22 26 32
8.124209 2.780769 27.262445 25 28 16
8.172758 2.778738 27.242525 43 25 33
8.218249 2.775700 27.212744 23 39 31
8.265704 2.773361 27.189817 33 25 37
8.313251 2.771084 27.167486 35 27 25
8.359498 2.768405 27.141228 36 40 27
8.409042 2.766846 27.125940 41 30 35
8.454224 2.763881 27.096872 25 19 17
8.501111 2.761507 27.073603 36 27 39
8.545703 2.758423 27.043364 16 25 16
8.585147 2.753726 26.997316 39 31 43
8.627412 2.749988 26.960663 37 19 17
8.662408 2.743993 26.901888 16 16 26
8.701476 2.739354 26.856407 36 34 36
8.738962 2.734277 26.806633 36 44 29
8.770461 2.727399 26.739210 23 41 16
8.808266 2.722555 26.691715 24 32 32
8.837672 2.715189 26.619495 42 32 26
8.871548 2.709275 26.561522 43 32 33
8.906549 2.703774 26.507586 40 22 30
8.939277 2.697652 26.447565 30 26 31
8.981250 2.694375 26.415442 31 22 31
9.014531 2.688544 26.358276 30 21 42
5.248913 2.966777 28.526701 27 38 16
5.296630 2.961557 28.476505 31 18 32
5.340764 2.954465 28.408321 31 17 28
5.388789 2.949653 28.362045 21 38 17
5.433660 2.943232 28.300312 27 18 42
5.482414 2.939026 28.259867 34 44 35
5.531350 2.935002 28.221174 28 37 19
5.576527 2.929085 28.164280 27 20 27
5.624849 2.924922 28.124247 17 23 19
5.668781 2.918581 28.063274 16 29 33
5.715530 2.913800 28.017305 40 21 25
5.761773 2.908857 27.969774 28 19 41
5.804479 2.902240 27.906151 19 25 20
5.851195 2.897735 27.862835 120 120 120
5.892499 2.890660 27.794806 30 35 40
5.935709 2.884644 27.736958 30 35 40
5.979969 2.879244 27.685040 30 35 40
6.023142 2.873426 27.629093 30 35 40
6.072151 2.870471 27.600687 30 35 40
6.121212 2.867595 27.573027 30 35 40
6.172979 2.866026 27.557941 30 35 40
6.227863 2.865919 27.556915 30 35 40
6.283766 2.866279 27.560377 30 35 40
6.341405 2.867418 27.571325 30 35 40
6.401322 2.869558 27.591906 30 35 40
6.461056 2.871580 27.611349 29 38 29
6.521073 2.873693 27.631664 30 32 19
6.581570 2.875980 27.653656 27 44 26
6.639945 2.877310 27.666439 38 26 30
6.697264 2.878163 27.674646 30 24 34
6.752443 2.878090 27.673946 30 40 34
6.806157 2.877400 27.667303 40 19 37
6.860225 2.876869 27.662199 32 33 42
6.914583 2.876467 27.658333 30 35 40
6.967026 2.875280 27.646927 30 35 40
7.019462 2.874110 27.635677 30 35 40
7.070723 2.872481 27.620010 30 35 40
7.120277 2.870189 27.597975 30 35 40
7.170988 2.868395 27.580723 30 35 40
7.219235 2.865651 27.554333 30 35 40
7.269017 2.863552 27.534155 28 17 28
7.318554 2.861390 27.513361 23 33 19
7.366297 2.858563 27.486181 42 21 20
7.416376 2.856678 27.468058 26 15 23
7.463589 2.853725 27.439665 27 22 23
7.512195 2.851344 27.416771 34 37 39
7.560849 2.849015 27.394379 20 24 18
7.607958 2.846142 27.366755 29 36 26
7.657904 2.844364 27.349657 18 19 40
7.705841 2.841870 27.325678 19 27 22
7.755597 2.840078 27.308439 37 39 20
7.805646 2.838417 27.292469 27 23 33
7.853986 2.836162 27.270784 25 34 16
7.904430 2.834692 27.256657 34 28 31
7.953245 2.832662 27.237139 33 40 35
8.004267 2.831441 27.225399 27 30 17
8.054617 2.830001 27.211544 32 42 40
8.101600 2.827404 27.186579 41 34 34
8.149675 2.825221 27.165585 31 26 20
8.194636 2.821994 27.134558 27 17 20
8.241647 2.819511 27.110682 16 30 33
8.288896 2.817141 27.087896 19 27 37
8.334950 2.814399 27.061525 22 27 28
8.384446 2.812846 27.046598 23 23 35
8.429667 2.809889 27.018164 23 40 15
8.476536 2.807515 26.995337 35 18 44
8.521168 2.804435 26.965721 34 33 26
8.560749 2.799742 26.920595 41 24 34
8.603090 2.796004 26.884655 36 39 39
8.638406 2.790044 26.827349 38 44 27
8.677710 2.785438 26.783056 28 33 22
8.715598 2.780436 26.734964 38 29 31
8.748045 2.773770 26.670870 33 37 41
8.786737 2.769153 26.626474 31 38 36
8.816234 2.761712 26.554922 42 26 21
8.849417 2.755507 26.495260 31 36 35
8.882929 2.749478 26.437288 28 35 26
8.913424 2.742592 26.371077 20 25 20
8.953313 2.738660 26.333273 38 37 39
5.279740 3.008884 28.385698 40 42 36
5.323555 3.001579 28.316784 16 36 32
5.371233 2.996583 28.269648 27 21 39
5.415573 2.989848 28.206110 41 25 18
5.463819 2.985386 28.164017 16 44 35
5.512193 2.981084 28.123436 40 37 43
5.556690 2.974793 28.064089 36 37 20
5.604471 2.970370 28.022356 32 37 33
5.647890 2.963744 27.959850 15 31 33
5.694282 2.958794 27.913149 20 28 43
5.740341 2.953768 27.865732 24 27 23
5.782930 2.947070 27.802547 44 31 17
5.829611 2.942565 27.760052 120 120 120
5.871016 2.935508 27.693472 30 35 40
5.914284 2.929505 27.636841 30 35 40
5.958619 2.924137 27.586197 30 35 40
