ply
format ascii 1.0
element vertex 1289
property float x
property float y
property float z
property uchar red
property uchar green
property uchar blue
end_header
7.295887 1.392345 27.846895 31 25 39
7.348005 1.391668 27.833351 42 35 23
7.399726 1.390926 27.818518 23 40 34
7.448650 1.389674 27.793470 26 27 19
7.498797 1.388666 27.773321 31 32 21
7.547642 1.387434 27.748684 15 22 20
7.598218 1.386536 27.730724 32 30 34
7.650711 1.385998 27.719969 35 36 31
7.704052 1.385621 27.712416 25 42 44
7.759890 1.385695 27.713892 34 18 44
7.817875 1.386148 27.722960 37 28 29
7.876133 1.386643 27.732862 25 29 25
7.936173 1.387443 27.748857 40 43 32
7.998108 1.388560 27.771208 42 39 25
8.058942 1.389473 27.789454 35 20 25
8.121963 1.390747 27.814941 29 38 19
8.183603 1.391769 27.835384 29 29 25
8.243978 1.392564 27.851278 16 34 21
8.303659 1.393231 27.864626 30 41 15
8.360253 1.393375 27.867510 20 33 30
8.417276 1.393589 27.871775 16 33 39
8.473615 1.393687 27.873734 38 44 26
8.530394 1.393855 27.877106 16 35 32
8.588728 1.394274 27.885479 32 27 37
8.647046 1.394685 27.893696 24 15 21
8.707847 1.395488 27.909767 36 18 31
8.766783 1.395985 27.919691 17 39 22
8.828757 1.396955 27.939104 27 39 34
8.896111 1.398760 27.975193 16 18 17
8.962756 1.400431 28.008614 40 23 23
9.039366 1.403628 28.072565 43 18 32
9.113934 1.406471 28.129427 35 35 30
9.191483 1.409737 28.194733 31 24 28
9.276470 1.414096 28.281919 40 26 22
9.353773 1.417238 28.344767 44 44 37
9.432186 1.420510 28.410200 31 30 42
9.500449 1.422223 28.444458 30 44 40
5.243949 1.585380 30.488075 30 32 26
5.261548 1.572417 30.238783 44 40 41
5.280783 1.560231 30.004450 37 23 26
5.291794 1.545917 29.729181 41 25 40
5.322084 1.537491 29.567133 43 40 40
5.349343 1.528384 29.391996 42 24 35
5.390502 1.523403 29.296207 30 21 23
5.439539 1.520731 29.244831 37 26 33
5.484964 1.517118 29.175339 29 43 31
5.538032 1.515672 29.147535 25 33 16
5.587649 1.513322 29.102341 17 41 41
5.640014 1.511756 29.072237 24 15 20
5.690308 1.509674 29.032183 32 29 20
5.733958 1.505888 28.959385 36 19 24
5.779318 1.502623 28.896591 41 34 18
5.816608 1.497345 28.795088 43 37 32
5.858233 1.493275 28.716827 30 26 30
5.897680 1.488735 28.629517 25 31 37
5.929624 1.482406 28.507807 32 26 35
5.968065 1.477806 28.419355 120 120 120
6.000058 1.471712 28.302160 120 120 120
6.038671 1.467341 28.218090 120 120 120
6.080380 1.463795 28.149906 25 31 24
6.119245 1.459637 28.069933 34 32 30
6.166210 1.457468 28.028227 21 15 17
6.213567 1.455430 27.989040 28 31 29
6.265117 1.454402 27.969273 35 21 28
6.321276 1.454453 27.970249 26 28 43
6.379867 1.455057 27.981873 43 28 25
6.441070 1.456242 28.004650 35 29 30
6.500497 1.457008 28.019382 17 15 35
6.556412 1.456981 28.018856 26 19 31
6.609974 1.456435 28.008364 19 15 25
6.662959 1.455772 27.995625 41 33 26
6.716051 1.455144 27.983545 21 44 39
6.766366 1.453930 27.960190 18 40 38
6.817227 1.452852 27.939457 20 29 41
6.867187 1.451601 27.915396 25 25 25
6.915288 1.449980 27.884228 23 43 32
6.965584 1.448841 27.862335 43 41 38
7.013873 1.447307 27.832830 38 30 19
7.064298 1.446234 27.812199 29 17 43
7.115239 1.445283 27.793901 26 25 41
7.164860 1.444080 27.770777 38 24 19
7.216844 1.443369 27.757092 37 33 30
7.266164 1.442139 27.733452 19 23 27
7.316516 1.441132 27.714075 31 30 25
7.366239 1.440017 27.692629 21 30 32
7.413459 1.438432 27.662159 36 29 39
7.462727 1.437266 27.639730 36 39 23
7.510778 1.435884 27.613153 37 40 21
7.560982 1.434931 27.594824 41 21 29
7.613258 1.434382 27.584267 15 19 41
7.666096 1.433946 27.575884 23 44 29
7.721419 1.433978 27.576498 35 22 24
7.778671 1.434365 27.583939 43 17 15
7.835980 1.434757 27.591480 41 44 19
7.895410 1.435529 27.606329 15 41 32
7.957474 1.436766 27.630119 37 32 42
8.018918 1.437875 27.651440 29 43 39
8.082906 1.439422 27.681185 16 42 22
8.144967 1.440606 27.703968 31 18 28
8.206065 1.441606 27.723192 24 38 44
8.267560 1.442661 27.743488 31 26 36
8.325860 1.443149 27.752867 34 25 44
8.384165 1.443631 27.762135 26 21 25
8.440788 1.443819 27.765751 35 40 30
8.496720 1.443887 27.767059 29 24 23
8.553598 1.444114 27.771421 16 38 37
8.610158 1.444285 27.774702 21 33 38
8.667464 1.444577 27.780334 23 42 19
8.723286 1.444621 27.781164 41 39 29
8.781159 1.445001 27.788477 22 40 34
8.842824 1.445996 27.807623 25 16 37
8.904955 1.447055 27.827984 40 25 23
8.974194 1.449249 27.870169 42 33 34
9.041857 1.451162 27.906967 31 33 27
9.113137 1.453629 27.954409 39 16 20
9.191768 1.457232 28.023684 22 37 40
9.265874 1.460077 28.078407 34 38 31
9.343412 1.463426 28.142807 38 29 34
9.413635 1.465596 28.184536 44 25 33
9.478752 1.466950 28.210571 17 24 27
5.192111 1.649259 30.541828 15 18 38
5.198325 1.632032 30.222820 24 15 27
5.216032 1.618768 29.977194 20 32 29
5.237490 1.606957 29.758467 21 37 21
5.252530 1.593464 29.508595 25 18 34
5.286817 1.586045 29.371206 26 26 26
5.318460 1.578005 29.222309 39 28 26
5.361571 1.573504 29.138971 37 31 41
5.412019 1.571231 29.096874 16 17 40
5.460299 1.568384 29.044146 43 16 34
5.515446 1.567548 29.028664 18 32 28
5.567345 1.565816 28.996588 20 38 33
5.620766 1.564543 28.973019 17 30 38
5.671594 1.562582 28.936705 38 27 34
5.716283 1.558986 28.870117 17 40 21
5.762180 1.555789 28.810902 26 28 28
5.800070 1.550514 28.713219 44 22 35
5.841788 1.546356 28.636213 38 24 27
5.881378 1.541720 28.550377 27 34 35
5.914317 1.535448 28.434216 28 17 21
5.953825 1.530983 28.351545 120 120 120
5.986045 1.524747 28.236063 120 120 120
6.023715 1.520003 28.148201 120 120 120
6.064006 1.516002 28.074102 25 21 39
6.101861 1.511470 27.990187 36 26 17
6.148329 1.509135 27.946951 20 24 41
6.194865 1.506859 27.904799 42 20 29
6.245746 1.505671 27.882795 39 16 21
6.301012 1.505552 27.880585 27 25 18
6.358028 1.505849 27.886087 36 30 19
6.417751 1.506776 27.903265 30 31 25
6.475833 1.507306 27.913074 21 26 18
6.531085 1.507173 27.910620 29 43 31
6.584541 1.506632 27.900597 42 28 16
6.637636 1.506018 27.889229 32 42 38
6.691080 1.505493 27.879501 30 33 25
6.742004 1.504414 27.859520 25 22 36
6.793262 1.503427 27.841238 37 25 16
6.843628 1.502260 27.819626 16 44 42
6.892342 1.500752 27.791700 26 18 26
6.943005 1.499689 27.772020 38 37 19
6.991491 1.498177 27.744013 35 29 36
7.041657 1.497045 27.723059 38 44 27
7.092221 1.496015 27.703989 36 38 35
7.141798 1.494795 27.681389 30 38 37
7.193850 1.494107 27.668655 41 43 42
7.243118 1.492856 27.645489 37 39 25
7.293087 1.491768 27.625330 37 43 34
7.342514 1.490586 27.603436 31 27 36
7.389939 1.489017 27.574398 43 37 22
7.439633 1.487927 27.554197 21 26 30
7.487914 1.486571 27.529095 31 39 24
7.537907 1.485573 27.510611 43 21 17
7.589788 1.484958 27.499231 15 28 23
7.642351 1.484485 27.490471 23 29 30
7.697459 1.484510 27.490927 36 41 33
7.754319 1.484870 27.497583 32 32 29
7.811235 1.485235 27.504349 31 23 27
7.870118 1.485966 27.517897 17 24 20
7.931357 1.487129 27.539434 29 18 31
7.992024 1.488170 27.558702 38 30 31
8.055312 1.489681 27.586685 32 39 21
8.116816 1.490844 27.608217 23 35 17
8.177885 1.491911 27.627991 29 39 23
8.240016 1.493157 27.651062 37 24 42
8.299251 1.493865 27.664169 35 16 24
8.359046 1.494664 27.678961 21 29 43
8.416942 1.495115 27.687309 18 33 18
8.473892 1.495393 27.692457 20 38 16
8.531803 1.495836 27.700659 33 37 15
8.588733 1.496102 27.705589 20 17 40
8.644948 1.496241 27.708166 28 39 19
8.699127 1.496028 27.704227 26 39 28
8.753909 1.495921 27.702244 36 15 35
8.810991 1.496206 27.707520 22 16 22
8.869051 1.496652 27.715784 30 40 26
8.932185 1.497944 27.739704 21 41 19
8.995024 1.499171 27.762419 38 30 37
9.061396 1.500967 27.795692 38 43 28
9.133393 1.503668 27.845709 22 43 30
9.202741 1.505903 27.887093 33 18 19
9.275923 1.508734 27.939528 19 38 34
9.343737 1.510664 27.975262 42 21 28
9.408952 1.512153 28.002834 35 35 20
9.475091 1.513772 28.032814 20 17 39
5.126811 1.708937 30.516735 41 40 39
5.148677 1.696035 30.286337 40 36 25
5.154787 1.678303 29.969692 34 20 20
5.173689 1.665095 29.733845 41 40 28
5.198038 1.653921 29.534307 32 24 21
5.217561 1.641480 29.312140 36 36 33
5.255779 1.635131 29.198772 29 42 22
5.291801 1.628247 29.075832 24 32 15
5.337070 1.624326 29.005816 37 21 16
5.388938 1.622476 28.972786 16 24 38
5.439776 1.620359 28.934980 27 40 44
5.496580 1.620045 28.929367 34 19 31
5.549670 1.618654 28.904530 18 34 41
5.602893 1.617330 28.880892 21 29 15
5.653003 1.615144 28.841850 33 23 18
5.697739 1.611482 28.776461 16 42 41
5.743893 1.608290 28.719467 27 30 42
5.781774 1.602868 28.622644 24 27 20
5.822813 1.598419 28.543200 33 31 32
5.861986 1.593550 28.456244 28 30 27
5.895799 1.587331 28.345188 38 34 29
5.936711 1.583123 28.270052 120 120 120
5.969328 1.576804 28.157207 120 120 120
6.005909 1.571640 28.064995 120 120 120
6.044562 1.567109 27.984085 25 22 39
6.081283 1.562164 27.895792 19 24 16
6.127215 1.559655 27.850977 21 18 41
6.172971 1.557146 27.806177 22 21 15
6.223295 1.555824 27.782568 21 23 41
6.277775 1.555555 27.777763 17 25 19
6.333156 1.555512 27.776999 17 30 42
6.391222 1.556124 27.787924 37 40 39
6.448148 1.556450 27.793743 41 33 29
6.503247 1.556333 27.791655 32 31 25
6.557182 1.555941 27.784668 16 31 35
6.610768 1.555475 27.776335 26 17 23
6.664628 1.555080 27.769283 16 36 38
6.716293 1.554184 27.753279 20 19 42
6.768089 1.553332 27.738068 42 24 21
6.818988 1.552290 27.719461 27 32 42
6.868482 1.550948 27.695494 36 38 21
6.919610 1.549993 27.678440 20 36 38
6.968454 1.548545 27.652596 34 18 35
7.018509 1.547388 27.631926 28 28 24
7.068834 1.546308 27.612635 42 37 36
7.118482 1.545097 27.591015 32 27 40
7.170640 1.544446 27.579386 43 34 24
7.220111 1.543230 27.557674 35 30 44
7.270017 1.542125 27.537945 34 35 21
7.319596 1.540967 27.517277 16 30 28
7.367847 1.539550 27.491966 16 41 34
7.418452 1.538642 27.475748 43 42 28
7.467489 1.537424 27.454004 32 38 32
7.517559 1.536435 27.436346 17 32 26
7.569199 1.535780 27.424635 33 22 41
7.621682 1.535303 27.416121 16 32 26
7.676650 1.535330 27.416607 15 30 18
7.733203 1.535671 27.422705 42 18 32
7.789900 1.536037 27.429226 25 37 39
7.848221 1.536715 27.441332 30 23 43
7.908235 1.537712 27.459150 35 25 25
7.967588 1.538569 27.474442 42 44 39
8.029439 1.539892 27.498079 32 32 36
8.089930 1.540939 27.516769 38 30 32
8.150480 1.541983 27.535404 32 36 20
8.212410 1.543272 27.558422 37 29 31
8.271886 1.544085 27.572952 43 36 35
8.332689 1.545134 27.591684 16 21 15
8.391765 1.545851 27.604490 42 41 24
8.450055 1.546415 27.614557 21 25 15
8.509476 1.547177 27.628168 28 36 37
8.567295 1.547640 27.636436 44 19 21
8.623574 1.547821 27.639660 32 42 32
8.677333 1.547550 27.634819 27 40 29
8.730293 1.547141 27.627510 37 24 27
8.784113 1.546888 27.622995 37 35 26
8.838846 1.546798 27.621395 39 29 40
8.896625 1.547239 27.629271 23 39 26
8.955252 1.547821 27.639668 33 31 37
9.016732 1.548887 27.658688 25 41 36
9.081484 1.550497 27.687452 38 16 44
9.145092 1.551894 27.712399 38 31 40
9.212147 1.553856 27.747431 43 43 33
9.275883 1.555238 27.772104 38 22 34
9.339576 1.556596 27.796356 21 17 17
9.406142 1.558414 27.828823 26 32 39
9.469150 1.559625 27.850441 38 35 22
5.071060 1.750723 30.184881 36 24 17
5.093131 1.737656 29.959595 26 22 39
5.101113 1.720143 29.657635 15 23 26
5.121869 1.707290 29.436031 37 38 31
5.149079 1.696856 29.256130 32 20 30
5.172696 1.685485 29.060089 33 20 39
5.214022 1.680074 28.966787 44 42 29
5.254475 1.674503 28.870741 31 43 16
5.302934 1.671577 28.820295 44 44 38
5.357477 1.670611 28.803642 33 43 31
5.411657 1.669554 28.785412 38 20 22
5.470224 1.669858 28.790655 42 31 41
5.524311 1.668802 28.772455 16 33 19
5.576891 1.667318 28.746862 26 38 27
5.625613 1.664722 28.702108 27 15 39
5.669695 1.660820 28.634823 44 23 27
5.715578 1.657518 28.577892 33 27 40
5.753083 1.651875 28.480608 38 41 34
5.793422 1.647149 28.399128 18 19 33
5.832291 1.642101 28.312094 18 25 40
5.866948 1.635976 28.206480 40 24 38
5.909159 1.632053 28.138851 120 120 120
5.942008 1.625644 28.028341 120 120 120
5.977289 1.620013 27.931257 120 120 120
6.014102 1.614898 27.843065 17 39 31
6.049453 1.609487 27.749784 31 37 29
6.094639 1.606769 27.702906 26 16 35
6.139906 1.604119 27.657232 27 38 31
6.190242 1.602831 27.635010 33 31 29
6.244780 1.602643 27.631769 43 39 37
6.299570 1.602522 27.629692 41 17 37
6.356729 1.603001 27.637951 21 38 19
6.413164 1.603291 27.642948 28 26 19
6.468271 1.603247 27.642185 41 32 30
6.522597 1.603011 27.638123 23 39 19
6.576717 1.602729 27.633263 37 20 35
6.630964 1.602483 27.629017 35 26 33
6.683365 1.601798 27.617210 23 16 20
6.735672 1.601102 27.605213 30 22 21
6.787083 1.600207 27.589769 25 40 41
6.837326 1.599052 27.569862 40 18 39
6.888858 1.598215 27.555433 24 22 35
6.938252 1.596899 27.532747 15 41 31
6.988599 1.595822 27.514168 33 18 33
7.039033 1.594781 27.496222 40 29 36
7.088862 1.593620 27.476208 42 26 33
7.140969 1.592985 27.465267 38 37 20
7.190084 1.591698 27.443069 41 17 15
7.239208 1.590432 27.421242 31 21 19
7.288107 1.589136 27.398899 32 15 17
7.336339 1.587715 27.374401 35 26 31
7.387336 1.586909 27.360504 32 24 18
7.436825 1.585793 27.341267 34 36 29
7.487073 1.584855 27.325083 42 27 27
7.538704 1.584220 27.314146 26 22 33
7.591061 1.583746 27.305973 15 36 42
7.645691 1.583750 27.306038 39 39 33
7.701762 1.584050 27.311213 32 29 30
7.758071 1.584395 27.317152 31 39 38
7.815805 1.585023 27.327990 43 29 29
7.874854 1.585908 27.343243 43 30 28
7.933242 1.586648 27.356007 27 20 34
7.994034 1.587856 27.376827 38 24 27
8.053810 1.588847 27.393911 17 41 43
8.113804 1.589867 27.411501 28 41 29
8.175047 1.591116 27.433043 41 18 19
8.234035 1.591914 27.446785 20 20 20
8.294485 1.592981 27.465183 19 30 27
8.353449 1.593750 27.478451 38 36 19
8.411676 1.594370 27.489136 42 20 15
8.470828 1.595156 27.502687 43 44 38
8.528257 1.595609 27.510506 19 20 15
8.584154 1.595772 27.513315 42 18 36
8.638159 1.595584 27.510061 33 22 41
8.690523 1.595096 27.501654 15 16 25
8.742108 1.594473 27.490906 38 18 36
8.794103 1.593931 27.481573 25 44 27
8.846609 1.593489 27.473940 34 23 19
8.900241 1.593253 27.469881 32 36 44
8.956060 1.593409 27.472576 32 25 33
9.013779 1.593900 27.481033 18 34 42
9.072400 1.594543 27.492123 27 29 22
9.134414 1.595771 27.513294 18 27 15
9.195554 1.596833 27.531599 23 26 19
9.257987 1.598105 27.553532 22 42 36
9.322346 1.599693 27.580906 40 37 23
9.383894 1.600782 27.599689 40 15 36
5.021328 1.814938 30.248964 26 18 34
5.032769 1.797418 29.956961 20 37 39
5.057039 1.784837 29.747286 30 16 44
5.067992 1.767904 29.465073 24 16 26
5.090571 1.755369 29.256153 43 30 25
5.119501 1.745284 29.088072 27 32 39
5.145150 1.734320 28.905336 32 18 32
5.187492 1.729164 28.819401 15 33 36
5.230242 1.724256 28.737595 19 41 26
5.281125 1.722106 28.701769 19 19 40
5.337905 1.721905 28.698414 33 30 23
5.394219 1.721559 28.692652 38 43 29
5.453597 1.722189 28.703144 22 40 39
5.507612 1.721129 28.685480 35 26 34
5.559033 1.719289 28.654810 17 21 44
5.606060 1.716141 28.602345 28 18 38
5.648905 1.711789 28.529823 25 37 35
5.694171 1.708251 28.470856 44 27 25
5.730972 1.702269 28.371151 31 43 32
5.770613 1.697239 28.287319 22 40 40
5.809165 1.691990 28.199831 36 42 19
5.844181 1.685821 28.097023 38 15 21
5.887128 1.682037 28.033943 120 120 120
5.920053 1.675487 27.924778 120 120 120
5.954471 1.669478 27.824631 120 120 120
5.990115 1.663921 27.732016 34 22 41
6.024547 1.658132 27.635536 20 33 20
6.069193 1.655234 27.587240 16 26 16
6.114417 1.652545 27.542418 19 15 27
6.165197 1.651392 27.523203 34 22 20
6.220383 1.651429 27.523817 25 34 42
6.275549 1.651460 27.524340 19 40 31
6.332685 1.652005 27.533415 40 35 27
6.389403 1.652432 27.540531 27 38 32
6.444846 1.652525 27.542078 28 23 42
6.499562 1.652431 27.540516 28 36 26
6.554141 1.652304 27.538408 32 33 18
6.608597 1.652149 27.535822 37 17 36
6.661422 1.651592 27.526537 39 21 27
6.714029 1.650991 27.516514 26 29 28
6.765735 1.650179 27.502989 35 30 25
6.816406 1.649130 27.485506 20 41 16
6.868141 1.648354 27.472565 25 18 35
6.918007 1.647145 27.452410 41 26 38
6.968827 1.646180 27.436327 37 37 32
7.019601 1.645219 27.420315 33 23 43
7.069642 1.644103 27.401712 24 21 33
7.121629 1.643453 27.390881 36 20 36
7.170293 1.642052 27.367531 25 38 32
7.218657 1.640604 27.343399 42 37 18
7.266833 1.639135 27.318920 15 20 15
7.314742 1.637629 27.293812 15 36 22
7.365801 1.636845 27.280743 44 31 32
7.415532 1.635779 27.262985 26 38 24
7.466063 1.634904 27.248405 41 41 38
7.517905 1.634327 27.238787 16 19 19
7.570249 1.633867 27.231112 43 33 42
7.624608 1.633844 27.230742 26 26 32
7.680347 1.634116 27.235273 28 17 25
7.736422 1.634455 27.240921 30 39 36
7.793835 1.635070 27.251173 16 28 37
7.852398 1.635916 27.265272 29 36 20
7.910310 1.636616 27.276930 35 42 33
7.970503 1.637775 27.296244 23 24 24
8.029931 1.638761 27.312689 41 40 44
8.089401 1.639743 27.329056 30 16 26
8.149612 1.640861 27.347691 26 34 27
8.207560 1.641512 27.358532 35 30 34
8.266697 1.642390 27.373169 16 26 22
8.324694 1.643032 27.383862 18 25 18
8.382084 1.643546 27.392431 29 33 30
8.440102 1.644176 27.402927 16 20 27
8.496696 1.644522 27.408695 23 39 23
8.552626 1.644736 27.412264 19 41 22
8.607782 1.644799 27.413319 20 20 43
8.661258 1.644543 27.409044 34 26 20
8.713005 1.643963 27.399385 28 23 32
8.764315 1.643309 27.388485 40 24 39
8.814509 1.642455 27.374250 39 18 16
8.865308 1.641724 27.362062 24 18 25
8.917711 1.641297 27.354942 40 27 22
8.971699 1.641164 27.352739 19 30 22
9.027850 1.641427 27.357122 37 23 41
9.087258 1.642276 27.371260 21 39 27
9.147381 1.643242 27.387369 43 35 37
9.208682 1.644408 27.406792 42 26 17
9.269463 1.645467 27.424446 29 29 41
9.327217 1.645979 27.432991 22 44 42
9.392311 1.647774 27.462898 38 19 42
4.942728 1.868592 30.138584 22 18 27
4.965830 1.854708 29.914640 34 26 40
4.978199 1.837193 29.632139 36 28 35
5.005329 1.825473 29.443113 24 44 30
5.020519 1.809722 29.189064 44 34 23
5.046034 1.798012 29.000195 21 25 17
5.077777 1.788762 28.851006 24 39 39
5.106739 1.778752 28.689547 36 23 39
5.150822 1.774172 28.615679 18 37 44
5.196344 1.770183 28.551338 34 31 29
5.249610 1.768890 28.530487 15 19 30
5.308133 1.769378 28.538347 35 40 16
5.365935 1.769617 28.542210 29 21 26
5.425428 1.770403 28.554884 40 21 19
5.478651 1.769148 28.534643 15 35 22
5.528476 1.766833 28.497301 20 21 33
5.573568 1.763067 28.436569 32 40 22
5.614988 1.758229 28.358524 35 32 29
5.659597 1.754475 28.297987 32 40 38
5.695700 1.748185 28.196533 21 18 24
5.734648 1.742883 28.111017 19 23 16
5.772832 1.737454 28.023455 31 32 20
5.807973 1.731223 27.922947 19 20 21
5.851316 1.727531 27.863411 120 120 120
5.884231 1.720860 27.755806 120 120 120
5.917915 1.714536 27.653809 120 120 120
5.952671 1.708637 27.558662 23 42 37
5.986511 1.702586 27.461061 19 24 26
6.030804 1.699590 27.412745 22 40 40
6.076271 1.696977 27.370590 40 35 37
6.127684 1.696055 27.355730 20 37 29
6.183603 1.696387 27.361076 28 21 43
6.239175 1.696618 27.364803 39 32 42
6.296137 1.697220 27.374510 40 40 31
6.353089 1.697808 27.384003 22 28 41
6.408892 1.698082 27.388426 40 15 24
6.464059 1.698185 27.390081 28 19 40
6.519196 1.698278 27.391579 15 39 21
6.573878 1.698252 27.391159 28 16 39
6.627271 1.697896 27.385418 39 39 27
6.680291 1.697451 27.378241 34 40 40
6.732449 1.696796 27.367680 17 18 18
6.783766 1.695941 27.353893 20 23 24
6.835843 1.695289 27.343372 21 18 28
6.886626 1.694329 27.327881 34 42 42
6.938490 1.693647 27.316891 39 43 21
6.990114 1.692918 27.305132 21 29 35
7.040644 1.691938 27.289318 28 34 37
7.092415 1.691268 27.278521 27 28 33
7.140688 1.689781 27.254536 31 20 32
7.188499 1.688208 27.229162 41 33 34
7.236136 1.686618 27.203520 38 27 30
7.283778 1.685053 27.178276 33 19 21
7.334780 1.684283 27.165854 34 18 33
7.384777 1.683295 27.149916 31 18 24
7.435721 1.682535 27.137669 36 43 42
7.487937 1.682073 27.130207 30 31 30
7.540409 1.681674 27.123772 22 42 19
7.594526 1.681645 27.123308 21 18 33
7.649971 1.681909 27.127558 35 33 15
7.705809 1.682254 27.133129 35 31 22
7.762838 1.682853 27.142792 20 26 27
7.820786 1.683641 27.155508 44 34 23
7.878050 1.684273 27.165689 43 18 32
7.937481 1.685356 27.183155 24 25 37
7.996492 1.686335 27.198954 21 30 31
8.055359 1.687271 27.214050 39 28 25
8.114397 1.688230 27.229521 36 20 32
8.171162 1.688707 27.237207 35 18 15
8.228586 1.689312 27.246973 19 22 41
8.285204 1.689745 27.253960 31 30 36
8.341152 1.690037 27.258667 24 27 33
8.397272 1.690360 27.263870 42 30 36
8.452427 1.690485 27.265892 19 39 38
8.507070 1.690508 27.266251 34 20 36
8.561785 1.690544 27.266832 37 30 40
8.614998 1.690285 27.262653 22 39 36
8.666114 1.689620 27.251932 42 25 21
8.716821 1.688884 27.240065 33 36 31
8.764797 1.687632 27.219866 18 31 41
8.812841 1.686408 27.200127 21 33 18
8.861799 1.685373 27.183434 18 20 20
8.911807 1.684549 27.170143 28 30 18
8.965124 1.684357 27.167044 29 18 35
9.020874 1.684621 27.171309 20 22 33
9.078298 1.685193 27.180534 25 28 32
9.137250 1.686040 27.194197 33 32 31
9.194919 1.686642 27.203903 19 19 39
9.250514 1.686859 27.207396 20 39 23
9.314252 1.688549 27.234655 19 41 15
9.380151 1.690609 27.267881 38 19 35
4.902533 1.913183 29.893492 39 21 37
4.924848 1.898736 29.667757 15 19 26
4.938230 1.881230 29.394226 30 38 38
4.967263 1.870028 29.219193 37 34 34
4.985542 1.855086 28.985712 27 36 27
5.013408 1.844012 28.812687 40 41 16
5.047452 1.835437 28.678707 19 32 22
5.079133 1.826205 28.534454 36 35 19
5.124697 1.822115 28.470541 41 21 27
5.171897 1.818689 28.417019 34 29 17
5.226099 1.817774 28.402712 38 15 19
5.284908 1.818463 28.413486 23 19 36
5.342956 1.818879 28.419981 27 29 39
5.402131 1.819665 28.432266 37 39 20
5.454457 1.818152 28.408628 21 31 41
5.503005 1.815424 28.366003 17 15 25
5.546775 1.811192 28.299871 40 41 41
5.587301 1.805996 28.218693 35 36 18
5.631615 1.802117 28.158075 25 42 27
5.667412 1.795616 28.056494 27 31 37
5.706031 1.790127 27.970741 31 37 25
5.743973 1.784535 27.883364 39 16 17
5.778918 1.778129 27.783258 21 35 43
5.822098 1.774354 27.724277 120 120 120
5.854938 1.767528 27.617630 120 120 120
5.888482 1.761041 27.516272 120 120 120
5.923180 1.755016 27.422129 35 31 27
5.957108 1.748876 27.326183 29 42 27
6.001448 1.745876 27.279308 32 33 37
6.047320 1.743372 27.240181 24 27 42
6.099217 1.742633 27.228645 15 21 24
6.155579 1.743173 27.237076 21 24 23
6.211387 1.743547 27.242928 18 20 24
6.268164 1.744185 27.252886 44 23 20
6.325236 1.744893 27.263947 43 34 40
6.381263 1.745303 27.270353 20 18 26
6.436757 1.745561 27.274393 23 18 34
6.492311 1.745831 27.278616 40 37 35
6.547188 1.745917 27.279949 43 16 39
6.601090 1.745743 27.277231 33 24 38
6.654494 1.745441 27.272518 16 38 18
6.707115 1.744941 27.264696 15 35 28
6.759077 1.744278 27.254343 26 34 23
6.811521 1.743749 27.246084 40 31 20
6.863348 1.743073 27.235510 26 33 41
6.916465 1.742731 27.230179 32 34 25
6.969142 1.742285 27.223209 34 27 17
7.020187 1.741442 27.210028 17 20 26
7.071645 1.740713 27.198635 37 39 17
7.119699 1.739163 27.174423 24 18 44
7.167432 1.737559 27.149364 24 15 30
7.215009 1.735942 27.124094 42 15 37
7.262566 1.734344 27.099129 37 43 20
7.313431 1.733554 27.086781 44 44 36
7.363654 1.732625 27.072258 31 28 16
7.415074 1.731988 27.062313 33 30 34
7.467780 1.731659 27.057175 31 41 23
7.520538 1.731347 27.052296 22 37 38
7.574577 1.731332 27.052059 42 16 21
7.629913 1.731612 27.056431 19 43 44
7.685655 1.731979 27.062166 21 18 21
7.742428 1.732571 27.071426 18 15 40
7.799892 1.733309 27.082958 38 30 33
7.856610 1.733873 27.091759 19 39 17
7.915407 1.734884 27.107557 17 41 30
7.974054 1.735848 27.122631 20 38 35
8.032455 1.736747 27.136671 35 35 44
8.090683 1.737596 27.149942 39 36 18
8.146687 1.737960 27.155622 25 15 29
8.202801 1.738342 27.161592 24 20 37
8.258261 1.738581 27.165333 16 37 18
8.312833 1.738632 27.166122 37 24 20
8.367157 1.738630 27.166096 31 35 41
8.420942 1.738517 27.164330 21 25 29
8.473487 1.738151 27.158613 34 42 22
8.526200 1.737824 27.153503 30 34 19
8.577756 1.737267 27.144796 36 31 43
8.627829 1.736418 27.131536 33 24 44
8.678528 1.735706 27.120401 26 26 22
8.725602 1.734281 27.098143 17 19 39
8.772244 1.732789 27.074827 23 40 19
8.819363 1.731409 27.053261 24 43 32
8.867263 1.730198 27.034338 39 41 39
8.919026 1.729750 27.027351 16 22 28
8.972145 1.729570 27.024534 36 28 41
9.026602 1.729648 27.025753 37 30 16
9.083312 1.730155 27.033667 26 19 18
9.140415 1.730729 27.042648 35 30 40
9.197134 1.731225 27.050394 18 38 15
9.260931 1.733040 27.078747 22 28 21
9.324654 1.734819 27.106552 28 17 42
4.862818 1.956988 29.651329 24 28 21
4.885754 1.942529 29.432251 16 20 20
4.900772 1.925303 29.171265 17 21 32
4.931619 1.914629 29.009523 21 38 43
4.952936 1.900545 28.796139 23 25 33
4.983236 1.890193 28.639286 22 39 23
5.019599 1.882349 28.520447 24 24 37
5.053970 1.873944 28.393087 40 38 28
5.100967 1.870354 28.338703 40 36 38
5.149448 1.867382 28.293673 33 26 32
5.204135 1.866701 28.283344 22 27 40
5.262529 1.867349 28.293169 19 16 26
5.319683 1.867548 28.296188 24 28 31
5.377523 1.867982 28.302752 21 34 28
5.428382 1.866006 28.272825 29 15 40
5.475943 1.862950 28.226509 42 26 36
5.519019 1.858445 28.158258 29 27 42
5.558945 1.852982 28.075481 43 16 26
5.603013 1.848994 28.015064 30 40 29
5.638634 1.842326 27.914028 42 34 41
5.677123 1.836716 27.829037 17 16 44
5.714915 1.830992 27.742308 43 16 24
5.749517 1.824366 27.641911 26 36 41
5.792224 1.820413 27.582020 120 120 120
5.824887 1.813408 27.475883 120 120 120
5.858468 1.806817 27.376020 120 120 120
5.893413 1.800765 27.284319 19 30 42
5.927716 1.794630 27.191359 18 21 18
5.972284 1.791685 27.146744 15 22 28
6.018672 1.789335 27.111135 42 25 28
6.071020 1.788783 27.102766 28 35 17
6.127705 1.789507 27.113741 32 42 43
6.183655 1.790005 27.121294 35 33 42
6.240179 1.790660 27.131214 42 25 21
6.297232 1.791454 27.143242 25 37 36
6.353367 1.791975 27.151142 15 31 15
6.409034 1.792357 27.156925 31 27 42
6.464798 1.792759 27.163015 44 30 32
6.519706 1.792919 27.165443 37 21 44
6.573875 1.792875 27.164774 29 30 17
6.627477 1.792678 27.161791 43 36 34
6.680369 1.792294 27.155972 27 42 17
6.732740 1.791778 27.148146 33 39 43
6.785400 1.791346 27.141600 23 15 27
6.838039 1.790915 27.135075 28 16 30
6.892169 1.790879 27.134523 44 22 18
6.945758 1.790703 27.131868 33 19 31
6.997340 1.790017 27.121471 41 43 19
7.048655 1.789274 27.110210 24 39 30
7.096786 1.787740 27.086969 16 23 44
7.144762 1.786190 27.063492 38 41 31
7.192518 1.784610 27.039543 28 28 15
7.240102 1.783010 27.015306 22 44 30
7.290745 1.782182 27.002758 26 23 17
7.340997 1.781271 26.988960 41 38 25
7.392629 1.780706 26.980396 16 42 33
7.445593 1.780468 26.976788 24 24 29
7.498561 1.780234 26.973242 30 34 38
7.552608 1.780257 26.973598 27 32 19
7.607951 1.780584 26.978548 21 26 31
7.663650 1.780989 26.984684 20 20 16
7.720260 1.781598 26.993916 41 21 23
7.777449 1.782332 27.005032 26 32 35
7.833814 1.782868 27.013151 42 44 26
7.892284 1.783872 27.028370 39 35 42
7.950811 1.784876 27.043573 31 24 31
8.009023 1.785796 27.057508 35 33 42
8.066838 1.786615 27.069925 16 26 22
8.122375 1.786922 27.074583 39 21 36
8.177522 1.787141 27.077888 44 15 37
8.232032 1.787217 27.079052 44 17 33
8.285369 1.787040 27.076368 31 30 39
8.338112 1.786738 27.071793 25 28 39
8.390666 1.786400 27.066664 44 40 31
8.440985 1.785593 27.054440 38 34 23
8.491265 1.784788 27.042246 16 35 24
8.540746 1.783827 27.027678 38 36 36
8.589539 1.782735 27.011129 42 42 30
8.640228 1.782047 27.000711 44 40 18
8.687121 1.780590 26.978636 28 44 35
8.733540 1.779054 26.955370 42 21 44
8.780123 1.777571 26.932894 24 27 40
8.826959 1.776156 26.911459 21 40 22
8.877579 1.775516 26.901754 21 25 27
8.928299 1.774903 26.892467 29 29 33
8.979631 1.774418 26.885122 40 43 35
9.033901 1.774516 26.886610 38 37 22
9.090734 1.775114 26.895662 18 36 17
9.149074 1.775997 26.909040 38 37 40
9.213261 1.777998 26.939360 29 17 42
9.274988 1.779503 26.962173 28 33 43
4.787594 2.009607 29.553049 15 44 30
4.811650 1.995074 29.339327 23 26 19
4.836128 1.981064 29.133299 32 16 27
4.853353 1.964453 28.889008 36 19 38
4.886229 1.954492 28.742523 23 26 37
4.911090 1.941594 28.552847 34 37 27
4.944280 1.932247 28.415400 16 15 43
4.983466 1.925430 28.315145 33 15 27
5.021187 1.918206 28.208914 26 27 30
5.070027 1.915344 28.166817 30 17 36
5.120440 1.913131 28.134285 28 33 28
5.176304 1.912982 28.132090 30 30 19
5.234608 1.913728 28.143053 27 36 41
5.290444 1.913565 28.140659 38 32 15
5.345985 1.913300 28.136765 38 31 34
5.394881 1.910687 28.098337 34 24 21
5.441803 1.907436 28.050531 43 19 38
5.484740 1.902869 27.983368 35 38 20
5.524204 1.897201 27.900021 30 41 43
5.567862 1.893073 27.839308 23 23 33
5.603211 1.886230 27.738670 31 22 31
5.641563 1.880521 27.654722 27 34 42
5.679256 1.874706 27.569206 30 44 23
5.713652 1.867925 27.469482 17 35 19
5.756025 1.863856 27.409645 120 120 120
5.788424 1.856664 27.303886 120 120 120
5.821690 1.849883 27.204157 120 120 120
5.856464 1.843702 27.113260 42 18 19
5.890874 1.837520 27.022358 23 16 33
5.935580 1.834634 26.979908 15 23 18
5.982423 1.832454 26.947853 35 26 40
6.035219 1.832120 26.942940 40 36 41
6.092217 1.833056 26.956711 35 37 41
6.148210 1.833677 26.965834 30 19 23
6.204334 1.834325 26.975365 16 15 16
6.261214 1.835184 26.987993 35 40 22
6.317357 1.835813 26.997253 34 28 16
6.373092 1.836315 27.004629 42 36 38
6.428895 1.836827 27.012165 21 22 31
6.483672 1.837040 27.015301 42 27 38
6.537862 1.837085 27.015959 20 34 34
6.591433 1.836957 27.014069 38 26 40
6.644350 1.836650 27.009552 19 36 26
6.696838 1.836230 27.003380 36 33 19
6.749487 1.835861 26.997950 21 25 41
6.802484 1.835591 26.993984 37 22 33
6.856981 1.835727 26.995987 18 34 17
6.911040 1.835745 26.996250 26 37 22
6.963242 1.835273 26.989311 35 34 34
7.014882 1.834661 26.980316 22 37 38
7.063528 1.833282 26.960032 44 43 18
7.111842 1.831838 26.938797 43 20 41
7.159759 1.830314 26.916386 33 34 43
7.207420 1.828748 26.893358 26 30 40
7.257842 1.827901 26.880898 32 23 28
7.307829 1.826957 26.867020 43 16 16
7.359107 1.826348 26.858055 18 27 29
7.411759 1.826085 26.854198 36 43 22
7.464641 1.825883 26.851225 24 26 30
7.518703 1.825971 26.852510 35 28 36
7.574082 1.826374 26.858446 36 31 27
7.629686 1.826826 26.865093 26 33 41
7.686145 1.827475 26.874634 20 21 36
7.743172 1.828249 26.886013 24 38 32
7.799296 1.828800 26.894123 40 35 43
7.857729 1.829882 26.910030 40 31 25
7.916393 1.831003 26.926508 41 27 26
7.974694 1.832024 26.941532 15 23 44
8.032412 1.832899 26.954401 21 18 28
8.087626 1.833195 26.958754 32 37 35
8.142117 1.833324 26.960651 28 17 15
8.195935 1.833301 26.960314 36 39 42
8.248320 1.832960 26.955296 21 26 22
8.299871 1.832439 26.947634 19 23 18
8.351442 1.831929 26.940134 28 23 16
8.400005 1.830770 26.923094 44 27 25
8.448481 1.829607 26.905991 40 29 44
8.496192 1.828295 26.886684 40 36 24
8.543240 1.826856 26.865534 38 28 37
8.592944 1.826001 26.852951 18 25 21
8.639035 1.824392 26.829300 41 44 43
8.685521 1.822887 26.807163 24 33 36
8.731818 1.821361 26.784718 32 22 29
8.776937 1.819609 26.758955 35 16 28
8.825398 1.818567 26.743631 25 17 18
8.872757 1.817312 26.725172 15 40 15
8.920795 1.816210 26.708967 39 17 39
8.972329 1.815828 26.703360 34 33 26
9.027371 1.816158 26.708199 41 31 33
9.085570 1.817114 26.722263 31 17 33
9.149790 1.819256 26.753771 22 39 42
9.211372 1.820853 26.777245 20 18 37
9.279020 1.823622 26.817976 27 37 29
4.753569 2.054011 29.343019 22 43 39
4.778235 2.039490 29.135578 26 24 35
4.804691 2.026074 28.943920 37 39 15
4.823685 2.009869 28.712412 44 34 18
4.857706 2.000232 28.574741 28 44 36
4.884698 1.987958 28.399406 28 26 24
4.919700 1.979190 28.274139 42 30 30
4.960671 1.972994 28.185633 27 28 17
5.000536 1.966503 28.092899 41 20 26
5.050572 1.964111 28.058735 18 22 38
5.102238 1.962399 28.034275 26 42 27
5.158979 1.962655 28.037930 32 19 33
5.217162 1.963448 28.049257 28 43 16
5.271568 1.962818 28.040253 43 41 25
5.324864 1.961792 28.025602 29 40 33
5.372192 1.958612 27.980167 42 24 42
5.419153 1.955365 27.933779 27 19 20
5.462665 1.950952 27.870739 18 20 22
5.502117 1.945193 27.788469 27 16 17
5.545469 1.940914 27.727346 40 40 44
5.580675 1.933897 27.627104 24 40 36
5.619042 1.928103 27.544323 20 33 22
5.656759 1.922200 27.459995 29 41 17
5.691083 1.915268 27.360975 18 42 28
5.733249 1.911083 27.301186 120 120 120
5.765407 1.903672 27.195318 120 120 120
5.798344 1.896654 27.095064 120 120 120
5.832876 1.890284 27.004057 16 42 18
5.867280 1.883989 26.914127 32 35 40
5.912077 1.881116 26.873079 37 38 37
5.959165 1.879016 26.843084 24 31 31
6.012170 1.878803 26.840044 23 43 26
6.069279 1.879865 26.855219 20 26 15
6.125197 1.880543 26.864901 41 18 37
6.181000 1.881174 26.873913 15 18 26
6.237641 1.882047 26.886385 37 23 25
6.293678 1.882724 26.896061 44 20 17
6.349319 1.883272 26.903893 43 16 35
6.404946 1.883808 26.911539 27 17 26
6.459481 1.884015 26.914503 31 30 31
6.513415 1.884046 26.914940 35 22 23
6.566747 1.883903 26.912899 19 26 42
6.619426 1.883576 26.908236 26 39 24
6.671683 1.883136 26.901949 29 39 25
6.724118 1.882753 26.896471 31 32 18
6.776899 1.882472 26.892456 35 19 35
6.831043 1.882571 26.893869 31 27 29
6.884979 1.882611 26.894447 33 22 37
6.937574 1.882288 26.889822 15 36 37
6.989779 1.881864 26.883766 27 30 41
7.039120 1.880681 26.866871 33 30 17
7.087819 1.879346 26.847797 27 18 40
7.135903 1.877869 26.826704 33 18 35
7.183691 1.876337 26.804817 18 20 16
7.233969 1.875473 26.792477 17 17 17
7.283531 1.874438 26.777689 34 24 44
7.334123 1.873681 26.766872 16 37 27
7.386125 1.873293 26.761322 17 19 18
7.438731 1.873062 26.758024 27 36 35
7.492845 1.873211 26.760162 31 27 32
7.548314 1.873695 26.767071 33 41 19
7.603865 1.874192 26.774172 30 30 22
7.660302 1.874899 26.784273 20 38 44
7.717407 1.875759 26.796551 24 23 21
7.773566 1.876378 26.805401 27 18 44
7.832299 1.877606 26.822943 20 38 16
7.891307 1.878883 26.841179 20 19 38
7.949958 1.880058 26.857967 39 38 34
8.007996 1.881073 26.872471 15 30 18
8.063271 1.881430 26.877571 34 30 18
8.117774 1.881603 26.880047 25 44 21
8.171505 1.881597 26.879951 18 25 30
8.223653 1.881228 26.874683 26 42 24
8.274952 1.880671 26.866728 29 18 38
8.326244 1.880120 26.858850 31 24 42
8.374179 1.878822 26.840317 20 27 17
8.421973 1.877510 26.821569 22 28 35
8.468796 1.875999 26.799988 42 39 24
8.514532 1.874268 26.775257 40 42 26
8.563074 1.873173 26.759607 20 35 39
8.608629 1.871441 26.734873 15 23 18
8.655841 1.870089 26.715559 42 23 18
8.702715 1.868681 26.695444 18 17 16
8.746952 1.866728 26.667538 32 22 34
8.793778 1.865347 26.647812 19 24 17
8.838863 1.863616 26.623081 23 26 26
8.885020 1.862130 26.601856 40 31 19
8.934874 1.861432 26.591887 41 33 40
8.988118 1.861444 26.592064 37 28 24
9.045290 1.862266 26.603794 27 17 44
9.109430 1.864503 26.635761 28 17 23
9.172237 1.866444 26.663479 42 35 26
9.241121 1.869591 26.708443 31 39 35
4.707285 2.092127 29.057314 21 25 18
4.732802 2.077815 28.858547 39 30 22
4.761579 2.065263 28.684212 41 32 36
4.782991 2.049853 28.470186 43 39 33
4.818671 2.040849 28.345125 44 33 24
4.848643 2.029664 28.189783 16 35 26
4.886142 2.021852 28.081278 25 40 29
4.929506 2.016616 28.008554 35 20 37
4.972178 2.011218 27.933584 21 31 22
5.023709 2.009484 27.909494 42 20 20
5.076897 2.008443 27.895041 17 27 26
5.134693 2.009228 27.905941 39 27 32
5.192601 2.010039 27.917208 30 25 16
5.244983 2.008717 27.898848 21 24 31
5.295235 2.006615 27.869656 36 15 39
5.340293 2.002610 27.814028 18 20 24
5.387037 1.999313 27.768234 37 42 16
5.431062 1.995084 27.709501 20 20 20
5.470359 1.989221 27.628075 17 20 39
5.513317 1.984794 27.566584 18 42 28
5.548340 1.977626 27.467028 43 16 29
5.586707 1.971779 27.385818 24 31 15
5.624442 1.965824 27.303116 33 40 18
5.658649 1.958763 27.205044 20 40 31
5.700505 1.954459 27.145260 120 120 120
5.732423 1.946861 27.039732 120 120 120
5.765110 1.939663 26.939766 120 120 120
5.799479 1.933160 26.849438 43 21 18
5.833908 1.926795 26.761045 38 23 18
5.878734 1.923949 26.721519 22 29 20
5.926004 1.921947 26.693712 34 44 29
5.979227 1.921894 26.692978 17 20 29
6.036310 1.923072 26.709335 19 30 37
6.091731 1.923705 26.718121 43 44 15
6.146683 1.924179 26.724710 23 24 20
6.202553 1.924930 26.735144 34 25 30
6.258222 1.925607 26.744537 30 35 40
6.313569 1.926173 26.752409 27 20 43
6.368709 1.926668 26.759281 27 19 21
6.422755 1.926826 26.761478 41 28 23
6.476119 1.926779 26.760822 43 20 36
6.528949 1.926575 26.757986 15 25 20
6.581146 1.926189 26.752625 38 28 16
6.632865 1.925671 26.745424 40 31 22
6.684855 1.925238 26.739420 24 28 36
6.737149 1.924900 26.734718 29 15 19
6.790767 1.924942 26.735304 35 44 38
6.844350 1.924973 26.735741 40 17 18
6.896889 1.924713 26.732128 26 23 33
6.949187 1.924390 26.727644 22 16 22
6.998807 1.923336 26.713003 33 36 30
7.047673 1.922093 26.695732 39 25 15
7.095843 1.920679 26.676102 20 34 40
7.143685 1.919199 26.655542 38 25 29
7.193782 1.918342 26.643637 44 15 39
7.243004 1.917266 26.628691 42 30 27
7.293048 1.916421 26.616962 38 19 23
7.344496 1.915955 26.610493 44 36 29
7.396776 1.915712 26.607109 18 16 38
7.450747 1.915906 26.609810 21 36 15
7.506147 1.916463 26.617542 43 31 26
7.561491 1.916998 26.624968 40 37 34
7.617854 1.917782 26.635855 36 33 37
7.675128 1.918782 26.649752 15 15 22
7.731451 1.919533 26.660175 33 43 18
7.790795 1.921018 26.680805 37 33 40
7.850396 1.922546 26.702028 31 18 31
7.909703 1.923982 26.721970 37 32 30
7.968520 1.925280 26.740000 22 24 42
8.024159 1.925798 26.747198 20 17 18
8.079107 1.926145 26.752008 16 30 16
8.133000 1.926237 26.753290 23 16 22
8.185108 1.925908 26.748720 35 24 25
8.236423 1.925398 26.741632 34 41 15
8.287556 1.924852 26.734053 21 16 20
8.335060 1.923475 26.714937 42 26 41
8.382272 1.922050 26.695135 36 17 39
8.428312 1.920375 26.671873 29 24 20
8.472959 1.918406 26.644524 26 39 18
8.520504 1.917113 26.626574 36 34 16
8.565837 1.915342 26.601978 26 42 36
8.613994 1.914221 26.586401 24 38 16
8.661711 1.913016 26.569666 42 35 28
8.705565 1.910978 26.541357 33 33 17
8.751175 1.909347 26.518711 43 34 19
8.794161 1.907167 26.488436 19 17 27
8.838309 1.905264 26.462004 32 34 36
8.886056 1.904155 26.446596 19 36 34
8.936807 1.903699 26.440258 23 28 18
8.992234 1.904238 26.447748 37 15 34
9.056219 1.906572 26.480173 25 28 21
9.121004 1.909047 26.514545 23 26 26
9.192061 1.912799 26.566650 18 20 22
4.661483 2.155936 29.134272 20 18 27
4.674223 2.135139 28.853228 42 21 16
4.700341 2.120885 28.660614 19 23 28
4.730562 2.108805 28.497364 20 35 18
4.753757 2.093917 28.296173 27 19 40
4.790748 2.085385 28.180872 19 26 42
4.823005 2.075014 28.040726 16 44 17
4.862410 2.067922 27.944887 33 33 42
4.907563 2.063407 27.883881 23 29 34
4.952281 2.058813 27.821804 21 29 34
5.004846 2.057548 27.804701 28 35 37
5.059165 2.057023 27.797609 28 17 25
5.117868 2.058273 27.814501 30 41 27
5.175679 2.059141 27.826229 36 27 38
5.226529 2.057251 27.800688 42 26 17
5.274404 2.054242 27.760023 34 34 36
5.317586 2.049486 27.695759 34 43 26
5.363982 2.046055 27.649391 30 24 26
5.408227 2.041882 27.592995 21 19 23
5.447308 2.035863 27.511658 44 16 39
5.489983 2.031294 27.449917 19 39 38
5.524839 2.023951 27.350687 33 23 24
5.563165 2.018011 27.270416 18 15 37
5.600857 2.011958 27.188625 26 23 32
5.634891 2.004721 27.090824 25 30 42
5.676450 2.000273 27.030714 120 120 120
5.708146 1.992466 26.925215 120 120 120
5.740671 1.985092 26.825563 120 120 120
5.774935 1.978450 26.735809 36 18 35
5.809286 1.971959 26.648100 23 18 36
5.854008 1.969075 26.609127 17 40 17
5.901328 1.967109 26.582558 16 18 42
5.954776 1.967203 26.583822 18 24 34
6.011852 1.968482 26.601114 23 31 43
6.066666 1.969006 26.608183 21 21 44
6.120649 1.969252 26.611517 30 35 40
6.175618 1.969809 26.619043 30 35 40
6.230875 1.970448 26.627672 30 35 40
6.285939 1.971015 26.635334 30 35 40
6.340591 1.971444 26.641138 30 35 40
6.394192 1.971542 26.642466 24 19 43
6.447013 1.971401 26.640551 27 22 38
6.499384 1.971125 26.636818 22 33 26
6.551124 1.970663 26.630585 35 22 19
6.602326 1.970049 26.622282 18 28 22
6.653894 1.969553 26.615578 36 42 32
6.705715 1.969138 26.609980 16 18 22
6.758943 1.969141 26.610012 20 25 37
6.812136 1.969133 26.609907 36 31 39
6.864166 1.968792 26.605293 25 18 33
6.916001 1.968400 26.600004 26 18 38
6.965271 1.967290 26.585003 26 19 34
7.013960 1.966034 26.568031 43 25 35
7.062056 1.964632 26.549084 24 30 29
7.109805 1.963155 26.529123 23 19 41
7.159759 1.962304 26.517628 16 21 31
7.208892 1.961243 26.503279 33 30 21
7.258820 1.960411 26.492043 40 16 29
7.310121 1.959960 26.485947 41 31 39
7.362213 1.959726 26.482782 35 44 36
7.415923 1.959923 26.485439 33 27 37
7.471153 1.960515 26.493450 39 41 30
7.526296 1.961077 26.501041 21 39 34
7.582630 1.961939 26.512693 33 40 18
7.640148 1.963094 26.528292 18 35 29
7.696729 1.963993 26.540445 15 30 27
7.756760 1.965754 26.564245 28 33 16
7.816948 1.967531 26.588259 30 17 31
7.876944 1.969236 26.611298 30 18 35
7.936700 1.970858 26.633223 18 17 43
7.992910 1.971584 26.643032 21 26 30
8.048611 1.972176 26.651030 24 19 39
8.102928 1.972423 26.654367 20 39 43
8.155282 1.972192 26.651249 27 22 18
8.206948 1.971799 26.645935 35 34 21
8.258150 1.971300 26.639194 22 18 21
8.305653 1.969931 26.620684 28 20 19
8.352688 1.968468 26.600918 26 27 24
8.398448 1.966725 26.577368 21 25 36
8.442811 1.964679 26.549721 39 26 19
8.490063 1.963327 26.531448 21 32 36
8.535618 1.961602 26.508131 34 26 36
8.584456 1.960647 26.495234 26 40 22
8.632828 1.959599 26.481068 31 20 42
8.676968 1.957609 26.454170 33 15 24
8.722371 1.955926 26.431427 33 17 29
8.764517 1.953537 26.399149 41 27 37
8.807585 1.951381 26.370014 40 28 38
8.853905 1.949967 26.350906 43 38 17
8.902662 1.949103 26.339235 37 26 39
8.956396 1.949333 26.342342 24 33 44
9.020204 1.951740 26.374865 23 25 34
9.086877 1.954735 26.415340 42 38 26
9.160069 1.959090 26.474188 20 36 22
9.238589 1.964528 26.547670 22 32 37
4.632015 2.200207 28.950096 28 39 38
4.645333 2.179292 28.674898 16 38 28
4.672075 2.165108 28.488264 18 24 19
4.703373 2.153352 28.333572 31 44 43
4.728090 2.138898 28.143393 37 26 34
4.766189 2.130767 28.036407 44 24 18
4.800318 2.121071 27.908823 25 28 43
4.841256 2.114572 27.823311 43 23 25
4.887791 2.110637 27.771542 27 41 40
4.934060 2.106677 27.719440 36 16 19
4.987352 2.105771 27.707512 39 22 23
5.042299 2.105576 27.704941 36 36 40
5.101357 2.107082 27.724768 38 37 22
5.158747 2.107875 27.735201 33 17 26
5.208224 2.105452 27.703321 36 18 20
5.254274 2.101709 27.654072 19 39 19
5.295944 2.096311 27.583040 29 31 28
5.341923 2.092712 27.535685 28 26 18
5.386200 2.088526 27.480610 18 38 26
5.425045 2.082341 27.399218 31 15 36
5.467495 2.077648 27.337477 38 17 43
5.502271 2.070161 27.238966 23 19 43
5.540609 2.064148 27.159847 21 28 41
5.578342 2.058029 27.079329 27 40 42
5.612323 2.050656 26.982321 38 32 44
5.653691 2.046098 26.922338 120 120 120
5.685402 2.038163 26.817934 120 120 120
5.718059 2.030713 26.719902 120 120 120
5.752483 2.024022 26.631865 22 19 38
5.786953 2.017470 26.545656 42 18 28
5.831612 2.014557 26.507326 18 24 27
5.878848 2.012579 26.481298 40 25 43
5.932262 2.012732 26.483315 18 25 42
5.989034 2.014011 26.500149 29 18 42
6.043040 2.014347 26.504562 41 37 21
6.096034 2.014342 26.504496 30 35 40
6.150005 2.014657 26.508640 30 35 40
6.204733 2.015212 26.515951 30 35 40
6.259386 2.015734 26.522821 30 35 40
6.313412 2.016048 26.526941 30 35 40
6.366482 2.016053 26.527008 34 22 27
6.418647 2.015774 26.523336 18 24 21
6.470471 2.015392 26.518322 25 18 16
6.521678 2.014827 26.510885 20 26 26
6.572263 2.014081 26.501060 40 36 15
6.623352 2.013499 26.493408 16 33 26
6.674597 2.012974 26.486498 15 31 25
6.727391 2.012920 26.485790 42 16 21
6.780103 2.012843 26.484776 17 40 30
6.831410 2.012353 26.478333 31 25 35
6.882562 2.011826 26.471394 39 18 22
6.931270 2.010597 26.455229 34 15 15
6.979675 2.009300 26.438164 33 28 29
7.027681 2.007909 26.419853 33 39 32
7.075353 2.006443 26.400570 38 31 18
7.125234 2.005621 26.389755 39 18 16
7.174426 2.004619 26.376566 28 36 15
7.224426 2.003855 26.366518 27 31 39
7.275730 2.003462 26.361341 37 37 35
7.327675 2.003249 26.358541 17 40 34
7.381034 2.003423 26.360834 20 39 42
7.435979 2.004023 26.368721 28 37 34
7.490827 2.004588 26.376152 41 37 42
7.547038 2.005507 26.388245 24 32 31
7.604697 2.006795 26.405199 31 42 18
7.661480 2.007836 26.418898 28 15 18
7.722091 2.009859 26.445518 23 33 28
7.782765 2.011871 26.471991 29 24 18
7.843344 2.013832 26.497784 37 42 30
7.903940 2.015770 26.523289 15 19 37
7.960677 2.016705 26.535589 27 24 28
8.017107 2.017550 26.546711 43 36 40
8.071842 2.017961 26.552113 22 41 36
8.124486 2.017846 26.550608 32 17 31
8.176606 2.017604 26.547421 39 39 26
8.227993 2.017185 26.541912 26 15 39
8.275774 2.015894 26.524918 21 36 42
8.322890 2.014457 26.506020 24 33 26
8.368703 2.012726 26.483236 18 21 30
8.413230 2.010709 26.456699 16 44 28
8.460529 2.009376 26.439152 20 30 18
8.506552 2.007758 26.417864 23 22 41
8.555955 2.006952 26.407269 39 34 38
8.604968 2.006066 26.395607 36 21 25
8.649903 2.004246 26.371655 32 15 18
8.695770 2.002662 26.350817 17 15 20
8.737864 2.000234 26.318867 35 37 29
8.780361 1.997926 26.288506 29 22 16
8.825617 1.996271 26.266718 16 37 23
8.872827 1.995073 26.250967 39 32 25
8.925095 1.995021 26.250278 30 43 34
8.988760 1.997502 26.282925 24 28 36
9.056992 2.000963 26.328466 15 27 42
9.132090 2.005893 26.393324 28 36 44
9.211445 2.011695 26.469669 43 29 15
4.595661 2.240385 28.722883 39 37 15
4.609748 2.219508 28.455233 25 37 42
4.637185 2.205490 28.275517 22 24 34
4.669619 2.194159 28.130238 20 33 15
4.696010 2.180290 27.952438 32 23 28
4.735314 2.172674 27.854790 18 19 36
4.771470 2.163806 27.741104 32 38 19
4.814040 2.158018 27.666897 34 31 15
4.862011 2.154755 27.625061 40 24 17
4.909950 2.151551 27.583990 44 26 25
4.964021 2.151076 27.577894 21 37 28
5.019303 2.151130 27.578588 16 20 32
5.078028 2.152642 27.597977 18 19 40
5.134363 2.153120 27.604103 36 26 28
5.182364 2.150130 27.565767 29 15 38
5.226912 2.145785 27.510061 43 36 25
5.267293 2.139838 27.433819 41 43 32
5.312756 2.136056 27.385340 25 21 42
5.356895 2.131825 27.331095 26 17 24
5.395426 2.125471 27.249624 34 36 21
5.437607 2.120667 27.188036 21 35 39
5.472364 2.113091 27.090912 15 31 27
5.510793 2.107068 27.013691 31 22 17
5.548706 2.100966 26.935467 41 34 16
5.582829 2.093561 26.840523 19 41 34
5.624123 2.088960 26.781536 120 120 120
5.656158 2.081039 26.679991 120 120 120
5.689248 2.073651 26.585270 120 120 120
5.724129 2.067047 26.500597 27 17 23
5.759064 2.060583 26.417727 41 23 44
5.803854 2.057730 26.381153 38 15 19
5.850981 2.055750 26.355768 42 34 25
5.904028 2.055867 26.357269 30 25 36
5.960101 2.057026 26.372128 15 18 27
6.013171 2.057138 26.373558 30 35 40
6.065249 2.056910 26.370647 30 35 40
6.118228 2.056990 26.371672 30 35 40
6.172322 2.057441 26.377445 30 35 40
6.226422 2.057885 26.383144 30 35 40
6.279675 2.058045 26.385189 30 35 40
6.332098 2.057932 26.383743 30 35 40
6.383493 2.057489 26.378069 21 38 28
6.434686 2.056990 26.371662 33 27 26
6.485302 2.056315 26.363018 31 31 19
6.535220 2.055432 26.351694 25 34 28
6.585787 2.054765 26.343147 31 31 33
6.636460 2.054142 26.335157 38 41 32
6.688783 2.054036 26.333792 16 21 16
6.741052 2.053914 26.332233 31 31 29
6.791787 2.053331 26.324755 39 43 19
6.842414 2.052724 26.316977 36 25 17
6.890794 2.051458 26.300739 20 37 27
6.939069 2.050180 26.284353 39 22 19
6.987105 2.048850 26.267311 35 22 35
7.034854 2.047457 26.249454 38 33 19
7.084727 2.046699 26.239729 18 31 29
7.134007 2.045782 26.227968 31 39 16
7.184033 2.045090 26.219099 33 43 25
7.235258 2.044747 26.214703 23 31 30
7.287018 2.044559 26.212296 28 43 33
7.340013 2.044718 26.214331 31 42 35
7.394569 2.045306 26.221876 15 38 20
7.448988 2.045849 26.228832 31 17 26
7.504875 2.046784 26.240822 38 16 16
7.562416 2.048154 26.258390 44 34 34
7.619185 2.049298 26.273050 30 20 15
7.680088 2.051530 26.301672 43 38 16
7.741033 2.053744 26.330046 17 36 34
7.801962 2.055922 26.357981 40 28 25
7.863040 2.058111 26.386040 24 36 15
7.919992 2.059198 26.399975 19 20 44
7.976742 2.060218 26.413052 22 34 28
8.031555 2.060728 26.419588 42 29 23
8.084208 2.060681 26.418982 22 38 41
8.136497 2.060541 26.417198 20 26 30
8.187914 2.060185 26.412624 36 40 22
8.235780 2.058945 26.396730 17 28 23
8.282815 2.057515 26.378393 41 34 33
8.328538 2.055778 26.356133 26 23 18
