ply
format ascii 1.0
element vertex 1256
property float x
property float y
property float z
property uchar red
property uchar green
property uchar blue
end_header
-4.670958 2.355788 20.308514 15 19 16
-4.634759 2.358035 20.327890 39 44 32
-4.598777 2.360434 20.348572 42 26 32
-4.563854 2.363425 20.374350 16 24 16
-4.529546 2.366790 20.403362 19 44 30
-4.492802 2.368932 20.421827 42 27 39
-4.461096 2.373794 20.463743 32 22 31
-4.428465 2.378250 20.502151 120 120 120
-4.398046 2.383988 20.551619 120 120 120
-4.371853 2.392146 20.621950 120 120 120
-4.342031 2.398455 20.676336 23 44 29
-4.316634 2.407353 20.753046 32 29 30
-4.286164 2.413568 20.806620 26 31 42
-4.255469 2.419776 20.860142 37 16 32
-4.228962 2.428513 20.935455 27 27 15
-4.197572 2.434592 20.987860 42 17 31
-4.171325 2.443807 21.067299 23 34 43
-4.141214 2.450922 21.128641 19 41 23
-4.110723 2.457958 21.189295 33 32 41
-4.083353 2.467026 21.267466 28 19 32
-4.050408 2.472881 21.317936 42 33 28
-4.021902 2.481599 21.393097 34 44 34
-3.989798 2.488261 21.450527 35 24 36
-3.957069 2.494674 21.505808 40 44 18
-3.927084 2.502976 21.577383 30 34 28
-3.892169 2.508286 21.623159 30 42 44
-3.860606 2.515901 21.688799 35 25 16
-3.825808 2.521555 21.737543 31 24 28
-3.790177 2.526785 21.782625 43 27 36
-3.756563 2.533496 21.840483 37 25 22
-3.718976 2.537654 21.876331 21 23 32
-3.684168 2.543830 21.929573 37 35 40
-3.646947 2.548469 21.969559 31 29 39
-3.609437 2.553016 22.008760 25 21 22
-3.573857 2.559058 22.060844 42 36 31
-3.535221 2.563035 22.095133 40 27 15
-3.499511 2.569261 22.148804 23 44 33
-3.461561 2.573981 22.189493 44 43 43
-3.423928 2.579062 22.233297 40 31 40
-3.388748 2.586150 22.294395 21 40 42
-3.350694 2.591204 22.337963 30 29 35
-3.316331 2.599286 22.407640 22 38 18
-3.279657 2.605755 22.463404 34 26 21
-3.243035 2.612445 22.521078 39 37 38
-3.208440 2.620979 22.594650 24 34 39
-3.169988 2.626562 22.642775 20 35 44
-3.135306 2.635475 22.719608 34 31 27
-3.098767 2.643066 22.785051 27 20 25
-3.061338 2.650114 22.845806 23 28 37
-3.024506 2.657899 22.912924 38 35 18
-2.983293 2.662016 22.948410 44 34 28
-2.943504 2.667551 22.996126 24 28 36
-2.901289 2.671028 23.026104 37 30 31
-2.858987 2.674537 23.056351 31 27 32
-6.880516 2.255280 19.112545 20 40 33
-6.835498 2.253041 19.093569 19 29 38
-6.790980 2.250943 19.075787 30 22 21
-6.748567 2.249522 19.063747 42 37 28
-6.708561 2.248892 19.058411 24 19 16
-6.671956 2.249402 19.062733 17 41 31
-6.638864 2.251109 19.077194 24 27 37
-6.606530 2.253094 19.094017 42 20 41
-6.575334 2.255493 19.114344 39 38 25
-6.544145 2.257921 19.134928 42 18 21
-6.509894 2.259316 19.146746 39 18 27
-6.478490 2.261721 19.167130 37 40 43
-6.445568 2.263622 19.183239 44 19 34
-6.413519 2.265854 19.202152 38 26 39
-6.384220 2.269090 19.229578 35 42 35
-6.352589 2.271532 19.250269 18 43 32
-6.324999 2.275457 19.283533 18 27 31
-6.294985 2.278553 19.309769 16 43 37
-6.265462 2.281866 19.337845 37 17 19
-6.238767 2.286256 19.375051 38 38 41
-6.208190 2.289270 19.400595 15 31 23
-6.181872 2.293902 19.439848 23 26 30
-6.152887 2.297597 19.471161 22 38 40
-6.123393 2.301148 19.501253 23 26 23
-6.095976 2.305529 19.538383 35 39 22
-6.063965 2.308219 19.561178 20 37 25
-6.033880 2.311681 19.590519 33 20 44
-6.000532 2.313931 19.609583 39 33 16
-5.966243 2.315844 19.625799 25 40 31
-5.933986 2.318577 19.648960 22 37 41
-5.899202 2.320353 19.664005 20 35 35
-5.866287 2.322892 19.685526 18 41 22
-5.831371 2.324668 19.700577 30 30 39
-5.796446 2.326465 19.715801 43 19 27
-5.763358 2.329028 19.737526 17 25 27
-5.728310 2.330829 19.752792 29 23 34
-5.696224 2.333869 19.778555 44 17 33
-5.662762 2.336384 19.799866 39 29 29
-5.629617 2.339066 19.822596 22 27 36
-5.598201 2.342510 19.851776 30 35 40
-5.563968 2.344815 19.871313 30 35 40
-5.532366 2.348271 19.900599 30 35 40
-5.498805 2.350938 19.923206 30 35 40
-5.464915 2.353503 19.944944 30 35 40
-5.432513 2.356752 19.972475 30 35 40
-5.397234 2.358791 19.989754 30 35 40
-5.363811 2.361678 20.014219 29 36 19
-5.328658 2.363841 20.032549 25 35 35
-5.292857 2.365747 20.048700 30 39 19
-5.257889 2.368057 20.068277 15 24 21
-5.220637 2.369366 20.079372 42 34 22
-5.184671 2.371284 20.095623 30 23 20
-5.147569 2.372708 20.107693 34 32 34
-5.110285 2.374069 20.119232 28 36 19
-5.073928 2.375887 20.134634 30 35 40
-5.036166 2.377070 20.144665 30 35 40
-4.999862 2.378967 20.160734 30 35 40
-4.962826 2.380543 20.174091 30 35 40
-4.925616 2.382060 20.186949 30 35 40
-4.889050 2.383917 20.202684 30 35 40
-4.850956 2.385054 20.212318 30 35 40
-4.812886 2.386221 20.222212 27 39 31
-4.773187 2.386593 20.225367 17 41 32
-4.733411 2.386934 20.228252 22 23 17
-4.694798 2.387871 20.236197 44 21 32
-4.655957 2.388708 20.243292 23 32 39
-4.620013 2.391059 20.263216 24 25 33
-4.584172 2.393506 20.283945 15 21 20
-4.549427 2.396573 20.309940 41 30 35
-4.515530 2.400147 20.340227 18 39 17
-4.479239 2.402501 20.360176 38 22 28
-4.447768 2.407508 20.402607 33 21 26
-4.415100 2.411953 20.440279 120 120 120
-4.384484 2.417612 20.488241 120 120 120
-4.358129 2.425751 20.557211 120 120 120
-4.328251 2.432065 20.610720 24 26 21
-4.302478 2.440829 20.684988 43 33 40
-4.271521 2.446793 20.735537 32 23 39
-4.240373 2.452765 20.786144 25 34 39
-4.213579 2.461397 20.859301 16 44 20
-4.182244 2.467524 20.911221 25 26 21
-4.155974 2.476793 20.989769 29 25 15
-4.125858 2.483935 21.050297 37 21 31
-4.095368 2.490997 21.110142 42 21 29
-4.067929 2.500081 21.187130 33 38 32
-4.034987 2.505939 21.236773 25 38 23
-4.006391 2.514650 21.310593 34 17 15
-3.974230 2.521286 21.366827 33 41 37
-3.941474 2.527684 21.421053 29 26 25
-3.911474 2.536010 21.491613 44 15 43
-3.876658 2.541365 21.536989 32 16 26
-3.845176 2.549049 21.602112 21 31 38
-3.810463 2.554742 21.650358 42 18 16
-3.774978 2.560042 21.695274 38 16 17
-3.741581 2.566898 21.753376 39 29 31
-3.704259 2.571192 21.789761 28 42 33
-3.669713 2.577536 21.843529 31 44 20
-3.632706 2.582285 21.883772 28 28 36
-3.595365 2.586909 21.922958 26 42 32
-3.559904 2.593017 21.974716 25 22 18
-3.521363 2.597005 22.008518 33 34 15
-3.485751 2.603282 22.061712 19 24 24
-3.447972 2.608081 22.102385 16 33 42
-3.410480 2.613225 22.145977 39 22 19
-3.375327 2.620320 22.206100 34 39 43
-3.337276 2.625324 22.248505 19 22 24
-3.302923 2.633412 22.317049 30 35 15
-3.266341 2.639920 22.372200 16 24 17
-3.229882 2.646709 22.429737 43 39 27
-3.195524 2.655436 22.503693 21 22 18
-3.157371 2.661213 22.552650 21 34 34
-3.122797 2.670218 22.628967 27 15 19
-3.086076 2.677625 22.691734 38 16 27
-3.048602 2.684590 22.750765 27 30 34
-3.012268 2.692785 22.820213 17 36 36
-2.971830 2.697507 22.860231 27 37 18
-2.932580 2.703472 22.910780 15 39 21
-2.890454 2.706933 22.940113 38 39 21
-2.848068 2.710258 22.968290 28 30 37
-6.863400 2.287800 19.064999 42 21 17
-6.817939 2.285343 19.044521 33 25 38
-6.774307 2.283474 19.028952 22 17 41
-6.733393 2.282506 19.020884 39 23 21
-6.694647 2.282266 19.018885 39 21 26
-6.658822 2.283025 19.025206 33 21 29
-6.626368 2.284954 19.041286 31 38 41
-6.594293 2.287038 19.058649 26 15 31
-6.562974 2.289410 19.078413 31 32 25
-6.531459 2.291740 19.097834 25 17 22
-6.496772 2.292978 19.108152 44 21 38
-6.464917 2.295237 19.126972 39 34 43
-6.431850 2.297089 19.142412 16 38 38
-6.399719 2.299300 19.160835 44 18 32
-6.370159 2.302467 19.187227 20 33 38
-6.338338 2.304850 19.207085 22 34 31
-6.310635 2.308769 19.239740 16 35 44
-6.280722 2.311922 19.266020 23 16 35
-6.251361 2.315319 19.294323 33 18 42
-6.224719 2.319771 19.331425 28 40 15
-6.194163 2.322811 19.356760 43 30 42
-6.167845 2.327489 19.395741 34 15 43
-6.138877 2.331219 19.426826 28 40 37
-6.109418 2.334809 19.456745 23 20 31
-6.082069 2.339257 19.493811 40 27 27
-6.050163 2.341999 19.516655 21 24 20
-6.020134 2.345507 19.545891 43 44 26
-5.986809 2.347768 19.564735 36 16 44
-5.952540 2.349687 19.580723 17 19 38
-5.920357 2.352460 19.603830 28 33 24
-5.885684 2.354274 19.618948 23 40 27
-5.852907 2.356875 19.640629 40 23 35
-5.818120 2.358697 19.655811 15 37 16
-5.783329 2.360543 19.671188 28 20 39
-5.750384 2.363171 19.693094 37 40 36
-5.715454 2.365016 19.708464 15 32 17
-5.683475 2.368114 19.734287 23 35 40
-5.650089 2.370667 19.755554 42 31 42
-5.617015 2.373387 19.778221 30 35 40
-5.585697 2.376892 19.807436 30 35 40
-5.551569 2.379244 19.827032 30 35 40
-5.520102 2.382778 19.856483 30 35 40
-5.486677 2.385512 19.879263 30 35 40
-5.452934 2.388146 19.901218 30 35 40
-5.420692 2.391482 19.929016 30 35 40
-5.385548 2.393577 19.946474 30 35 40
-5.352307 2.396555 19.971294 30 35 40
-5.317412 2.398832 19.990271 43 28 43
-5.281740 2.400791 20.006592 16 43 17
-5.246585 2.403016 20.025135 15 29 42
-5.209006 2.404156 20.034637 42 24 43
-5.172849 2.405976 20.049801 30 35 22
-5.135875 2.407442 20.062014 39 33 17
-5.098831 2.408897 20.074139 30 35 40
-5.062619 2.410771 20.089756 30 35 40
-5.024957 2.411979 20.099829 30 35 40
-4.988787 2.413929 20.116077 30 35 40
-4.951884 2.415553 20.129610 30 35 40
-4.914834 2.417132 20.142763 30 35 40
-4.878487 2.419085 20.159039 30 35 40
-4.840600 2.420300 20.169168 30 35 40
-4.802809 2.421584 20.179871 30 35 40
-4.763357 2.422046 20.183716 43 28 21
-4.723827 2.422476 20.187296 44 26 39
-4.685490 2.423529 20.196077 27 29 17
-4.646848 2.424442 20.203686 20 42 41
-4.611092 2.426891 20.224089 34 21 29
-4.575318 2.429373 20.244772 30 43 26
-4.540682 2.432508 20.270903 18 41 42
-4.507109 2.436275 20.302294 32 16 27
-4.471188 2.438830 20.323582 34 16 27
-4.439937 2.444002 20.366682 41 29 28
-4.407253 2.448474 20.403950 120 120 120
-4.376498 2.454111 20.450926 120 120 120
-4.350063 2.462300 20.519163 120 120 120
-4.320167 2.468667 20.572224 27 17 25
-4.294167 2.477404 20.645033 36 34 35
-4.262896 2.483240 20.693668 43 28 27
-4.231444 2.489085 20.742373 28 29 32
-4.204458 2.497698 20.814150 16 23 23
-4.173149 2.503889 20.865744 39 15 35
-4.146838 2.513235 20.943624 22 18 29
-4.116690 2.520423 21.003523 35 42 40
-4.086153 2.527518 21.062647 41 35 19
-4.058607 2.536629 21.138577 30 32 15
-4.025607 2.542488 21.187403 21 16 35
-3.996861 2.551188 21.259899 43 43 39
-3.964585 2.557797 21.314972 16 27 40
-3.931734 2.564175 21.368122 34 24 43
-3.901641 2.572510 21.437586 23 44 21
-3.866841 2.577894 21.482452 30 42 40
-3.835349 2.585628 21.546904 31 16 40
-3.800652 2.591353 21.594612 41 43 25
-3.765220 2.596704 21.639196 42 41 42
-3.731910 2.603658 21.697149 27 43 34
-3.694727 2.608042 21.733686 23 28 17
-3.660310 2.614507 21.787560 22 43 30
-3.623429 2.619346 21.827885 31 36 22
-3.586183 2.624036 21.866968 17 23 22
-3.550757 2.630190 21.918253 25 33 16
-3.512234 2.634176 21.951466 16 18 23
-3.476629 2.640477 22.003979 33 22 22
-3.438929 2.645330 22.044415 16 19 31
-3.401503 2.650521 22.087679 33 20 33
-3.366335 2.657633 22.146942 32 19 23
-3.328276 2.662621 22.188509 31 40 16
-3.293914 2.670741 22.256176 40 44 23
-3.257391 2.677308 22.310900 44 29 35
-3.221024 2.684187 22.368223 36 23 25
-3.186738 2.693018 22.441814 36 31 34
-3.148679 2.698868 22.490564 26 29 44
-3.114187 2.707988 22.566570 17 42 16
-3.077490 2.715433 22.628605 33 23 40
-3.040147 2.722519 22.687662 17 19 30
-3.004191 2.731082 22.759020 35 26 43
-2.964220 2.736203 22.801689 27 25 15
-2.925316 2.742484 22.854034 17 23 39
-2.883278 2.745979 22.883160 38 25 33
-2.840874 2.749232 22.910271 31 24 24
-6.841482 2.318502 19.004116 26 39 23
-6.796211 2.316027 18.983829 16 43 36
-6.753518 2.314408 18.970556 43 21 25
-6.713914 2.313835 18.965858 24 41 38
-6.676437 2.313993 18.967152 20 37 42
-6.641462 2.315024 18.975607 38 37 20
-6.609293 2.317051 18.992220 37 39 38
-6.576815 2.318992 19.008135 30 33 24
-6.544719 2.321092 19.025347 24 21 17
-6.512573 2.323199 19.042612 36 18 36
-6.477560 2.324301 19.051647 16 16 16
-6.445281 2.326403 19.068878 28 18 31
-6.412007 2.328169 19.083353 32 38 22
-6.379729 2.330320 19.100985 29 26 23
-6.349848 2.333378 19.126049 30 23 30
-6.317826 2.335681 19.144928 41 15 17
-6.290055 2.339594 19.176996 44 18 18
-6.260341 2.342827 19.203501 17 30 35
-6.231263 2.346340 19.232294 30 16 42
-6.204771 2.350876 19.269476 35 30 36
-6.174289 2.353948 19.294653 36 15 32
-6.147964 2.358653 19.333220 25 15 40
-6.118963 2.362384 19.363806 34 22 17
-6.089461 2.365969 19.393187 24 39 31
-6.062086 2.370431 19.429764 37 44 33
-6.030250 2.373195 19.452419 15 24 32
-6.000229 2.376714 19.481262 37 41 39
-5.966894 2.378958 19.499655 44 33 22
-5.932656 2.380869 19.515316 39 44 22
-5.900551 2.383666 19.538250 23 37 30
-5.866041 2.385523 19.553469 26 43 29
-5.833482 2.388204 19.575441 42 33 34
-5.798936 2.390102 19.591002 16 26 38
-5.764405 2.392032 19.606819 24 44 19
-5.731718 2.394759 19.629171 42 31 28
-5.696991 2.396665 19.644796 44 29 34
-5.665176 2.399832 19.670752 21 33 17
-5.631883 2.402412 19.691900 35 23 36
-5.598887 2.405156 19.714390 30 35 40
-5.567677 2.408711 19.743536 30 35 40
-5.533684 2.411105 19.763157 30 35 40
-5.502382 2.414714 19.792742 30 35 40
-5.469112 2.417506 19.815624 30 35 40
-5.435558 2.420212 19.837803 30 35 40
-5.403568 2.423659 19.866060 30 35 40
-5.368671 2.425844 19.883966 30 35 40
-5.335662 2.428921 19.909185 30 35 40
-5.300955 2.431265 19.928402 24 23 25
-5.265382 2.433245 19.944628 27 15 31
-5.230198 2.435436 19.962589 21 29 40
-5.192536 2.436497 19.971291 22 41 28
-5.156449 2.438321 19.986237 22 21 22
-5.119734 2.439873 19.998962 25 40 19
-5.083032 2.441456 20.011938 39 33 18
-5.047096 2.443436 20.028160 30 35 40
-5.009629 2.444699 20.038517 30 35 40
-4.973696 2.446738 20.055227 30 35 40
-4.936989 2.448425 20.069061 30 35 40
-4.900168 2.450084 20.082657 30 35 40
-4.864131 2.452165 20.099714 30 35 40
-4.826524 2.453483 20.110518 30 35 40
-4.789110 2.454922 20.122313 30 35 40
-4.749987 2.455502 20.127062 25 43 42
-4.710782 2.456049 20.131548 16 43 21
-4.672821 2.457259 20.141468 18 26 30
-4.634459 2.458278 20.149820 44 27 18
-4.598957 2.460846 20.170866 39 38 30
-4.563301 2.463375 20.191597 35 15 38
-4.528779 2.466567 20.217762 22 19 40
-4.495494 2.470497 20.249973 26 37 34
-4.459890 2.473212 20.272228 32 41 35
-4.428830 2.478520 20.315735 37 41 44
-4.396223 2.483052 20.352886 120 120 120
-4.365360 2.488663 20.398880 120 120 120
-4.338629 2.496758 20.465229 120 120 120
-4.308429 2.502992 20.516327 18 40 18
-4.281997 2.511556 20.586525 38 33 43
-4.250447 2.517255 20.633240 23 33 25
-4.218806 2.523012 20.680424 30 26 18
-4.191640 2.531585 20.750694 32 34 38
-4.160351 2.537814 20.801756 36 40 35
-4.133966 2.547191 20.878616 26 18 37
-4.103788 2.554399 20.937695 22 23 27
-4.073186 2.561488 20.995804 44 17 28
-4.045470 2.570559 21.070154 39 30 24
-4.012371 2.576365 21.117743 28 36 39
-3.983355 2.584943 21.188059 37 28 31
-3.950846 2.591415 21.241106 30 27 22
-3.917793 2.597667 21.292351 15 15 44
-3.887497 2.605904 21.359871 41 20 35
-3.852689 2.611267 21.403830 20 23 28
-3.821149 2.618989 21.467127 15 25 21
-3.786452 2.624700 21.513931 27 26 26
-3.751106 2.630086 21.558081 22 27 42
-3.717942 2.637145 21.615942 23 29 20
-3.680989 2.641651 21.652878 39 30 16
-3.646824 2.648289 21.707285 15 29 35
-3.610192 2.653274 21.748146 27 29 16
-3.573153 2.658077 21.787519 40 28 35
-3.537853 2.664309 21.838600 30 33 43
-3.499403 2.668295 21.871267 29 40 16
-3.463835 2.674607 21.923008 43 41 44
-3.426246 2.679500 21.963114 32 20 18
-3.388871 2.684690 22.005653 43 36 28
-3.353606 2.691710 22.063200 20 43 33
-3.315456 2.696571 22.103041 18 37 40
-3.280954 2.704570 22.168610 21 33 40
-3.244419 2.711090 22.222050 21 37 28
-3.208085 2.717961 22.278366 39 40 35
-3.173799 2.726785 22.350695 15 21 26
-3.135828 2.732650 22.398769 27 23 18
-3.101389 2.741808 22.473833 22 20 30
-3.064684 2.749202 22.534439 29 20 26
-3.027506 2.756386 22.593330 32 38 39
-2.992078 2.765405 22.667255 40 23 25
-2.952784 2.771074 22.713720 24 23 19
-2.914424 2.777810 22.768936 24 23 20
-2.872582 2.781389 22.798273 40 40 37
-2.830237 2.784588 22.824492 44 27 19
-6.826983 2.351516 18.963842 36 19 22
-6.782311 2.349180 18.945004 16 40 23
-6.739910 2.347609 18.932331 15 30 40
-6.700596 2.347101 18.928236 43 20 33
-6.663794 2.347473 18.931234 24 30 41
-6.629483 2.348731 18.941380 32 40 43
-6.597197 2.350725 18.957462 40 24 34
-6.563760 2.352330 18.970406 29 19 16
-6.530517 2.354023 18.984060 40 44 19
-6.497765 2.355915 18.999313 40 43 31
-6.462784 2.357015 19.008188 22 30 17
-6.430421 2.359089 19.024914 34 37 40
-6.397015 2.360803 19.038734 15 44 33
-6.364635 2.362918 19.055794 39 23 38
-6.334601 2.365935 19.080124 28 40 15
-6.302517 2.368219 19.098537 25 44 38
-6.274819 2.372188 19.130545 44 26 31
-6.245357 2.375534 19.157536 19 23 40
-6.216582 2.379186 19.186981 21 17 32
-6.190308 2.383845 19.224560 23 34 31
-6.159955 2.386982 19.249859 33 40 20
-6.133660 2.391742 19.288240 44 35 21
-6.104628 2.395487 19.318443 28 30 35
-6.075051 2.399065 19.347298 22 40 16
-6.047612 2.403538 19.383373 29 22 17
-6.015771 2.406308 19.405712 18 21 26
-5.985700 2.409827 19.434092 37 15 15
-5.952319 2.412051 19.452024 15 33 30
-5.918079 2.413953 19.467365 37 21 19
-5.885999 2.416768 19.490063 32 28 16
-5.851585 2.418655 19.505283 20 33 36
-5.819188 2.421407 19.527475 26 40 40
-5.784834 2.423376 19.543358 32 17 38
-5.750514 2.425387 19.559572 19 17 44
-5.718041 2.428209 19.582333 19 25 17
-5.683480 2.430178 19.598207 22 15 26
-5.651783 2.433407 19.624247 42 29 22
-5.618543 2.436012 19.645256 34 22 24
-5.585567 2.438769 19.667490 30 35 40
-5.554408 2.442364 19.696484 30 35 40
-5.520490 2.444788 19.716036 30 35 40
-5.489273 2.448453 19.745586 30 35 40
-5.456086 2.451285 19.768427 30 35 40
-5.422656 2.454049 19.790714 30 35 40
-5.390893 2.457613 19.819460 30 35 40
-5.356250 2.459907 19.837961 30 35 40
-5.323384 2.463058 19.863375 30 35 40
-5.288633 2.465378 19.882078 29 15 41
-5.253022 2.467329 19.897812 42 31 41
-5.217968 2.469572 19.915907 28 24 32
-5.180536 2.470717 19.925140 19 25 22
-5.144749 2.472670 19.940887 31 30 43
-5.108288 2.474327 19.954250 34 24 26
-5.071838 2.476015 19.967865 28 30 27
-5.036172 2.478116 19.984808 30 35 40
-4.998888 2.479448 19.995550 30 35 40
-4.963176 2.481588 20.012806 30 35 40
-4.926641 2.483347 20.026995 30 35 40
-4.889997 2.485080 20.040972 30 35 40
-4.854199 2.487276 20.058674 30 35 40
-4.816802 2.488681 20.070009 30 35 40
-4.779663 2.490244 20.082617 30 35 40
-4.740766 2.490911 20.087992 30 35 40
-4.701785 2.491544 20.093100 19 36 32
-4.664094 2.492878 20.103855 38 30 40
-4.625938 2.493984 20.112774 27 16 34
-4.590620 2.496653 20.134300 23 44 25
-4.555063 2.499238 20.155148 43 15 40
-4.520597 2.502474 20.181238 37 33 38
-4.487404 2.506478 20.213533 36 26 31
-4.451888 2.509246 20.235853 35 43 40
-4.420901 2.514641 20.279362 27 28 43
-4.388446 2.519293 20.316879 120 120 120
-4.357568 2.524946 20.362467 120 120 120
-4.330454 2.532907 20.426672 120 120 120
-4.299772 2.538913 20.475105 28 16 22
-4.272901 2.547307 20.542795 27 35 42
-4.241252 2.552987 20.588604 20 40 33
-4.209642 2.558802 20.635500 40 32 20
-4.182421 2.567427 20.705055 30 31 30
-4.151147 2.573711 20.755737 37 37 28
-4.124728 2.583163 20.831961 26 39 16
-4.094563 2.590438 20.890627 38 37 38
-4.063941 2.597571 20.948151 15 17 43
-4.036126 2.606665 21.021490 15 16 29
-4.002955 2.612455 21.068186 39 43 34
-3.973725 2.620968 21.136835 39 39 30
-3.941017 2.627345 21.188263 17 37 28
-3.907773 2.633499 21.237894 31 20 19
-3.877291 2.641671 21.303797 37 24 15
-3.842448 2.647020 21.346933 16 37 35
-3.810847 2.654747 21.409250 26 44 15
-3.776125 2.660452 21.455257 27 17 16
-3.740836 2.665883 21.499058 38 38 32
-3.707795 2.673062 21.556948 37 24 26
-3.671040 2.677700 21.594355 27 33 41
-3.637111 2.684534 21.649467 40 40 25
-3.600708 2.689685 21.691011 23 44 18
-3.563860 2.694626 21.730852 33 17 17
-3.528698 2.700979 21.782089 30 42 21
-3.490321 2.704999 21.814508 15 38 21
-3.454784 2.711350 21.865723 36 36 21
-3.417264 2.716287 21.905539 35 42 23
-3.379883 2.721464 21.947290 43 16 19
-3.344465 2.728379 22.003059 42 43 31
-3.306161 2.733093 22.041075 17 15 41
-3.271445 2.740940 22.104355 15 41 40
-3.234815 2.747377 22.156265 34 34 36
-3.198430 2.754204 22.211319 25 25 32
-3.164067 2.762988 22.282162 27 36 22
-3.126117 2.768846 22.329407 22 33 41
-3.091669 2.778021 22.403399 15 16 24
-3.054916 2.785364 22.462614 34 18 26
-3.017843 2.792631 22.521215 28 37 32
-2.982811 2.802034 22.597052 17 26 42
-2.944055 2.808175 22.646574 23 39 24
-2.906150 2.815332 22.704294 29 31 30
-2.864492 2.819024 22.734064 16 30 20
-2.822232 2.822232 22.759935 27 21 20
-6.814974 2.385241 18.930483 29 39 44
-6.771447 2.383247 18.914656 23 34 16
-6.729465 2.381777 18.902990 29 30 31
-6.690216 2.381263 18.898914 33 42 15
-6.653628 2.381697 18.902353 28 29 23
-6.619423 2.382992 18.912636 31 42 42
-6.586513 2.384772 18.926762 23 21 30
-6.551930 2.385963 18.936214 42 35 16
-6.517521 2.387231 18.946281 18 29 44
-6.484134 2.388891 18.959455 38 34 32
-6.449236 2.390011 18.968342 44 39 18
-6.416803 2.392062 18.984623 31 19 29
-6.383239 2.393715 18.997736 24 41 20
-6.350716 2.395779 19.014120 39 28 20
-6.320487 2.398739 19.037613 44 43 34
-6.288321 2.400995 19.055519 44 17 29
-6.260630 2.404998 19.087288 33 23 20
-6.231336 2.408430 19.114527 18 30 17
-6.202774 2.412190 19.144363 41 39 18
-6.176641 2.416946 19.182114 39 16 25
-6.146376 2.420136 19.207426 26 38 33
-6.120036 2.424920 19.245396 35 41 31
-6.090894 2.428648 19.274981 23 34 23
-6.061154 2.432183 19.303038 39 34 31
-6.033556 2.436629 19.338322 20 23 16
-6.001663 2.439386 19.360205 43 35 25
-5.971512 2.442891 19.388027 30 19 18
-5.938105 2.445102 19.405573 28 36 39
-5.903895 2.447009 19.420706 37 26 41
-5.871866 2.449851 19.443264 16 33 41
-5.837565 2.451777 19.458549 17 39 30
-5.805374 2.454621 19.481121 29 35 16
-5.771268 2.456688 19.497526 43 17 39
-5.737214 2.458806 19.514332 18 27 38
-5.704999 2.461746 19.537668 20 33 21
-5.670622 2.463787 19.553867 16 27 36
-5.639055 2.467086 19.580051 30 26 36
-5.605873 2.469720 19.600956 30 35 40
-5.572914 2.472490 19.622938 30 35 40
-5.541808 2.476127 19.651800 30 35 40
-5.507964 2.478584 19.671299 30 35 40
-5.476824 2.482302 19.700806 30 35 40
-5.443707 2.485171 19.723576 30 35 40
-5.410382 2.487986 19.745920 30 35 40
-5.378806 2.491653 19.775021 30 35 40
-5.344372 2.494040 19.793972 30 35 40
-5.311635 2.497261 19.819532 30 35 40
-5.276834 2.499553 19.837723 30 35 40
-5.241227 2.501495 19.853134 29 34 37
-5.206426 2.503854 19.871857 44 20 18
-5.169358 2.505150 19.882145 41 36 35
-5.133989 2.507297 19.899181 44 16 40
-5.097817 2.509082 19.913347 38 40 36
-5.061614 2.510879 19.927614 18 16 32
-5.026225 2.513112 19.945337 30 35 40
-4.989126 2.514520 19.956505 30 35 40
-4.953619 2.516758 19.974272 30 35 40
-4.917228 2.518580 19.988733 30 35 40
-4.880727 2.520376 20.002981 30 35 40
-4.845132 2.522672 20.021208 30 35 40
-4.807915 2.524155 20.032980 30 35 40
-4.771007 2.525827 20.046249 30 35 40
-4.732306 2.526570 20.052145 30 35 40
-4.693521 2.527280 20.057781 24 27 22
-4.656073 2.528729 20.069279 42 43 33
-4.618103 2.529917 20.078709 19 36 20
-4.582947 2.532681 20.100643 25 25 16
-4.547486 2.535324 20.121620 22 27 15
-4.513053 2.538592 20.147556 23 37 16
-4.479853 2.542619 20.179516 25 37 23
-4.444310 2.545378 20.201410 18 32 32
-4.413318 2.550817 20.244579 24 32 36
-4.381019 2.555594 20.282494 120 120 120
-4.350161 2.561310 20.327856 120 120 120
-4.322663 2.569130 20.389921 120 120 120
-4.291478 2.574887 20.435612 27 33 15
-4.264221 2.583134 20.501064 37 40 42
-4.232593 2.588867 20.546566 29 27 24
-4.201129 2.594815 20.593769 18 38 42
-4.173890 2.603515 20.662821 30 22 21
-4.142596 2.609836 20.712980 19 18 41
-4.116092 2.619331 20.788343 44 23 33
-4.085901 2.626651 20.846436 28 33 30
-4.055214 2.633799 20.903166 19 24 32
-4.027247 2.642881 20.975243 43 34 41
-3.993973 2.648635 21.020910 33 32 16
-3.964473 2.657040 21.087622 18 44 23
-3.931507 2.663279 21.137136 22 19 18
-3.898027 2.669301 21.184929 43 31 24
-3.867324 2.677378 21.249031 34 23 35
-3.832437 2.682706 21.291315 36 43 40
-3.800767 2.690430 21.352623 39 26 33
-3.766030 2.696135 21.397898 42 30 40
-3.730805 2.701617 21.441408 32 23 38
-3.697883 2.708914 21.499321 26 40 24
-3.661318 2.713683 21.537167 40 28 29
-3.627637 2.720728 21.593077 37 43 20
-3.591485 2.726067 21.635452 32 28 19
-3.554865 2.731177 21.676004 19 41 15
-3.519883 2.737687 21.727673 26 29 28
-3.481610 2.741768 21.760063 28 18 30
-3.446132 2.748181 21.810959 37 27 28
-3.408691 2.753174 21.850584 15 33 15
-3.371308 2.758343 21.891611 19 40 19
-3.335750 2.765161 21.945721 39 20 15
-3.297303 2.769735 21.982021 43 27 28
-3.262366 2.777419 22.043011 17 18 35
-3.225619 2.783753 22.093279 24 29 32
-3.189152 2.790508 22.146891 24 16 41
-3.154671 2.799215 22.215994 17 15 21
-3.116720 2.805048 22.262285 19 39 40
-3.082242 2.814221 22.335087 31 18 37
-3.045453 2.821523 22.393040 35 23 23
-3.008485 2.828874 22.451378 34 25 38
-2.973789 2.838617 22.528708 24 18 23
-2.935490 2.845167 22.580688 39 41 31
-2.898004 2.852723 22.640656 37 34 35
-2.856566 2.856566 22.671156 27 36 24
-2.814455 2.859850 22.697222 41 21 20
-6.799360 2.417550 18.887112 20 40 23
-6.757471 2.416079 18.875618 44 41 28
-6.716694 2.414991 18.867117 16 33 21
-6.678069 2.414669 18.864601 31 33 39
-6.641518 2.415097 18.867949 31 40 42
-6.606720 2.416172 18.876343 32 26 25
-6.572874 2.417609 18.887569 18 21 34
-6.537536 2.418510 18.894613 27 24 24
-6.502418 2.419504 18.902378 16 17 36
-6.468362 2.420907 18.913340 18 27 20
-6.433220 2.421918 18.921234 34 43 32
-6.400370 2.423809 18.936005 38 15 28
-6.366504 2.425335 18.947929 35 28 28
-6.333709 2.427290 18.963202 15 42 30
-6.303076 2.430102 18.985168 38 28 40
-6.270679 2.432263 19.002058 15 36 43
-6.242776 2.436205 19.032852 16 20 34
-6.213481 2.439649 19.059759 17 24 36
-6.184983 2.443450 19.089455 18 31 38
-6.158812 2.448223 19.126745 24 44 23
-6.128539 2.451416 19.151686 19 29 20
-6.101990 2.456147 19.188646 25 38 39
-6.072592 2.459784 19.217062 17 24 43
-6.042582 2.463218 19.243891 43 39 18
-6.014720 2.467578 19.277950 20 21 41
-5.982753 2.470298 19.299204 34 21 30
-5.952521 2.473775 19.326366 39 42 34
-5.919107 2.475966 19.343487 34 16 29
-5.884983 2.477888 19.358498 30 39 24
-5.853070 2.480771 19.381025 40 28 21
-5.818938 2.482747 19.396460 20 23 21
-5.787047 2.485712 19.419622 37 30 32
-5.753289 2.487909 19.436789 25 23 17
-5.719600 2.490166 19.454422 34 17 15
-5.687735 2.493254 19.478546 41 31 27
-5.653592 2.495379 19.495146 25 17 36
-5.622223 2.498766 19.521608 25 39 39
-5.589139 2.501433 19.542444 26 21 28
-5.556255 2.504228 19.564278 30 35 40
-5.525266 2.507922 19.593142 30 35 40
-5.491563 2.510429 19.612724 30 35 40
-5.460583 2.514225 19.642385 30 35 40
-5.427616 2.517155 19.665274 30 35 40
-5.394451 2.520036 19.687778 30 35 40
-5.363050 2.523788 19.717094 30 35 40
-5.328769 2.526231 19.736183 30 35 40
-5.296228 2.529542 19.762045 30 35 40
-5.261594 2.531895 19.780430 21 41 41
-5.226192 2.533911 19.796183 33 41 19
-5.191703 2.536404 19.815659 39 24 28
-5.154934 2.537813 19.826668 29 25 35
-5.119923 2.540117 19.844662 17 34 25
-5.084042 2.542021 19.859539 29 37 16
-5.048101 2.543925 19.874413 21 16 15
-5.012982 2.546276 19.892784 30 35 40
-4.976070 2.547748 19.904280 30 35 40
-4.940752 2.550066 19.922388 30 35 40
-4.904484 2.551927 19.936926 30 35 40
-4.868112 2.553764 19.951281 30 35 40
-4.832716 2.556147 19.969902 30 35 40
-4.795698 2.557706 19.982077 30 35 40
-4.759057 2.559493 19.996038 30 35 40
-4.720596 2.560323 20.002523 30 35 40
-4.682057 2.561125 20.008791 20 21 33
-4.644895 2.562701 20.021099 37 44 21
-4.607154 2.563981 20.031105 41 31 36
-4.572188 2.566843 20.053457 30 19 23
-4.536848 2.569542 20.074551 23 43 25
-4.502465 2.572837 20.100290 30 32 30
-4.469292 2.576889 20.131945 20 34 31
-4.433771 2.579649 20.153505 32 18 15
-4.402764 2.585109 20.196167 22 35 16
-4.370550 2.589956 20.234030 120 120 120
-4.339673 2.595692 20.278845 120 120 120
-4.311856 2.603385 20.338942 120 120 120
-4.280304 2.608947 20.382401 32 17 22
-4.252736 2.617068 20.445847 18 18 40
-4.221125 2.622835 20.490900 24 27 34
-4.189747 2.628861 20.537975 23 25 15
-4.162430 2.637579 20.606089 22 33 32
-4.131077 2.643889 20.655386 24 20 27
-4.104399 2.653349 20.729290 22 18 34
-4.074107 2.660641 20.786261 26 21 29
-4.043277 2.667729 20.841633 32 38 39
-4.015060 2.676707 20.911772 34 39 27
-3.981636 2.682365 20.955976 20 23 37
-3.951773 2.690569 21.020071 18 40 23
-3.918479 2.696587 21.067089 25 23 25
-3.884711 2.702408 21.112560 28 15 31
-3.853755 2.710333 21.174477 24 35 33
-3.818852 2.715628 21.215843 35 41 25
-3.787158 2.723350 21.276169 21 26 28
-3.752447 2.729052 21.320721 23 23 39
-3.717342 2.734596 21.364035 31 21 37
-3.684575 2.742009 21.421947 29 38 42
-3.648230 2.746903 21.460178 32 27 19
-3.614837 2.754161 21.516886 18 38 19
-3.578995 2.759707 21.560213 42 37 28
-3.542664 2.765006 21.601610 25 16 37
-3.507918 2.771688 21.653814 43 39 30
-3.469791 2.775833 21.686193 23 41 44
-3.434423 2.782317 21.736853 38 44 20
-3.397121 2.787381 21.776415 37 41 22
-3.359790 2.792553 21.816820 38 20 38
-3.324154 2.799288 21.869434 44 16 29
-3.285620 2.803729 21.904137 38 16 39
-3.250507 2.811250 21.962887 15 42 26
-3.213680 2.817473 22.011505 39 38 16
-3.177163 2.824145 22.063633 27 23 29
-3.142596 2.832763 22.130959 20 19 35
-3.104677 2.838562 22.176266 38 23 36
-3.070192 2.847714 22.247766 34 21 34
-3.033385 2.854951 22.304304 42 16 25
-2.996542 2.862369 22.362257 21 39 34
-2.962219 2.872455 22.441053 20 34 29
-2.924423 2.879432 22.495560 18 23 37
-2.887413 2.887413 22.557915 25 40 23
-2.846250 2.891428 22.589283 17 16 20
-2.804332 2.894794 22.615582 16 33 36
-6.790214 2.452022 18.861706 24 24 32
-6.749734 2.451021 18.854006 22 38 37
-6.710174 2.450345 18.848804 42 17 31
-6.672152 2.450225 18.847887 37 23 38
-6.635292 2.450534 18.850262 27 15 17
-6.599456 2.451227 18.855589 32 21 40
-6.564687 2.452326 18.864044 33 34 29
-6.529159 2.453152 18.870401 36 35 39
-6.493987 2.454123 18.877871 33 33 15
-6.459553 2.455386 18.887581 37 31 44
-6.424083 2.456267 18.894361 22 41 22
-6.390792 2.457997 18.907667 21 27 37
-6.356659 2.459422 18.918629 19 31 29
-6.323626 2.461292 18.933012 39 16 21
-6.292627 2.463980 18.953695 30 43 40
-6.259998 2.466060 18.969690 15 44 22
-6.231804 2.469922 18.999403 37 29 26
-6.202366 2.473336 19.025663 20 22 33
-6.173761 2.477126 19.054817 29 35 35
-6.147408 2.481873 19.091330 16 27 36
-6.117051 2.485052 19.115786 43 28 15
-6.090246 2.489723 19.151718 25 32 24
-6.060584 2.493278 19.179062 37 39 31
-6.030322 2.496630 19.204847 36 30 31
-6.002219 2.500924 19.237881 36 41 36
-5.970176 2.503622 19.258633 30 25 27
-5.939887 2.507095 19.285347 15 26 39
-5.906490 2.509293 19.302256 24 30 26
-5.872464 2.511251 19.317316 29 44 39
-5.840657 2.514190 19.339924 26 19 22
-5.806652 2.516216 19.355507 17 26 42
-5.774999 2.519295 19.379190 41 31 30
-5.741502 2.521606 19.396967 26 37 27
-5.708089 2.523985 19.415270 33 33 29
-5.676478 2.527199 19.439993 25 17 23
-5.642496 2.529395 19.456884 21 30 22
-5.611272 2.532866 19.483583 38 16 22
-5.578270 2.535577 19.504440 26 22 44
-5.545452 2.538411 19.526239 30 35 40
-5.514573 2.542179 19.555223 30 35 40
-5.480982 2.544741 19.574934 30 35 40
-5.450137 2.548625 19.604811 30 35 40
-5.417298 2.551626 19.627890 30 35 40
-5.384247 2.554570 19.650537 30 35 40
-5.352901 2.558372 19.679785 30 35 40
-5.318648 2.560831 19.698698 30 35 40
-5.286241 2.564221 19.724779 30 35 40
-5.251832 2.566685 19.743731 31 28 36
-5.216697 2.568828 19.760216 24 31 23
-5.182454 2.571446 19.780357 21 33 33
-5.145848 2.572924 19.791721 30 38 33
-5.111028 2.575324 19.810184 30 31 39
-5.075309 2.577305 19.825426 22 23 43
-5.039499 2.579271 19.840548 30 35 40
-5.004521 2.581697 19.859209 30 35 40
-4.967702 2.583205 19.870810 30 35 40
-4.932460 2.585564 19.888950 30 35 40
-4.896227 2.587437 19.903362 30 35 40
-4.859895 2.589288 19.917601 30 35 40
-4.824580 2.591716 19.936279 30 35 40
-4.787664 2.593318 19.948599 30 35 40
-4.751163 2.595173 19.962872 30 35 40
-4.712837 2.596054 19.969648 30 35 40
-4.674442 2.596912 19.976248 30 35 40
-4.637442 2.598567 19.988974 17 18 25
-4.599832 2.599905 19.999271 36 18 22
-4.564977 2.602838 20.021828 22 43 36
-4.529708 2.605584 20.042955 35 28 36
-4.495351 2.608909 20.068533 27 24 44
-4.462177 2.612987 20.099897 39 29 25
-4.426644 2.615744 20.121111 32 42 36
-4.395592 2.621225 20.163267 24 23 29
-4.363379 2.626108 20.200829 120 120 120
-4.332474 2.631877 20.245207 120 120 120
-4.304541 2.639577 20.304440 120 120 120
-4.272890 2.645123 20.347097 39 42 16
-4.245241 2.653276 20.409813 38 41 34
-4.213684 2.659121 20.454777 38 21 28
-4.182356 2.665227 20.501747 30 32 24
-4.154980 2.673997 20.569210 29 32 37
-4.123555 2.680310 20.617773 41 39 26
-4.096711 2.689760 20.690458 30 38 31
-4.066303 2.697038 20.746443 33 42 44
-4.035330 2.704087 20.800673 34 17 15
-4.006901 2.713006 20.869276 33 33 44
-3.973357 2.718613 20.912405 34 40 16
-3.943232 2.726703 20.974636 15 38 43
-3.909697 2.732584 21.019878 44 38 20
-3.875734 2.738290 21.063772 18 43 23
-3.844616 2.746154 21.124264 15 40 17
-3.809724 2.751467 21.165133 44 15 26
-3.778039 2.759242 21.224936 20 26 38
-3.743377 2.764995 21.269190 43 25 28
-3.708370 2.770621 21.312469 38 17 15
-3.675706 2.778150 21.370386 42 31 20
-3.639487 2.783137 21.408749 38 44 36
-3.606273 2.790569 21.465912 38 43 18
-3.570638 2.796282 21.509865 35 26 42
-3.534509 2.801745 21.551882 36 28 36
-3.499935 2.808590 21.604536 43 24 26
-3.461921 2.812811 21.637009 39 43 37
-3.426654 2.819399 21.687685 42 30 23
-3.389464 2.824553 21.727331 26 38 42
-3.352198 2.829778 21.767521 26 30 44
-3.316567 2.836538 21.819523 39 20 22
-3.278028 2.840958 21.853521 28 41 25
-3.242854 2.848453 21.911177 43 40 32
-3.205997 2.854655 21.958885 30 18 40
-3.169458 2.861317 22.010128 29 24 43
-3.134853 2.869936 22.076431 37 22 31
-3.096959 2.875748 22.121138 29 31 31
-3.062477 2.884942 22.191860 15 29 19
-3.025676 2.892190 22.247616 30 44 35
-2.988912 2.899691 22.305315 42 18 33
-2.954774 2.910005 22.384651 39 24 39
-2.917234 2.917234 22.440258 17 25 24
-2.880483 2.925491 22.503777 22 44 28
-2.839511 2.929654 22.535803 34 23 21
-2.797751 2.933126 22.562508 36 16 15
-6.774869 2.484119 18.819080 29 31 22
-6.735632 2.483529 18.814613 35 30 27
-6.697160 2.483217 18.812246 20 19 44
-6.659729 2.483289 18.812794 40 22 37
-6.622752 2.483532 18.814636 21 35 43
-6.586197 2.483937 18.817707 22 19 36
-6.550768 2.484774 18.824045 18 42 28
-6.515134 2.485543 18.829868 42 25 20
-6.479901 2.486474 18.836922 23 16 17
-6.445099 2.487582 18.845320 37 26 18
-6.409298 2.488316 18.850876 35 31 44
-6.375507 2.489843 18.862448 40 39 41
-6.341044 2.491124 18.872154 24 35 15
-6.307695 2.492862 18.885315 28 16 43
-6.276269 2.495384 18.904425 34 41 16
-6.243405 2.497362 18.919409 40 43 30
-6.214889 2.501114 18.947832 41 31 39
-6.185294 2.504475 18.973295 27 23 18
-6.156565 2.508230 19.001745 17 18 25
-6.129996 2.512918 19.037254 23 24 16
-6.099533 2.516057 19.061041 28 37 23
-6.072447 2.520638 19.095745 31 39 20
-6.042508 2.524086 19.121861 32 19 37
-6.011993 2.527335 19.146475 21 27 17
-5.983634 2.531537 19.178314 41 20 21
-5.951534 2.534202 19.198498 41 41 42
-5.921241 2.537675 19.224808 25 42 20
-5.887947 2.539899 19.241657 32 22 21
-5.854139 2.541929 19.257036 34 31 44
-5.822584 2.544970 19.280079 25 19 21
-5.788840 2.547090 19.296135 29 19 36
-5.757612 2.550352 19.320847 29 28 19
-5.724559 2.552844 19.339727 19 42 17
-5.691597 2.555411 19.359173 41 22 20
-5.660422 2.558821 19.385008 37 25 31
-5.626708 2.561122 19.402443 19 39 43
-5.595747 2.564717 19.429676 16 27 32
-5.562910 2.567497 19.450735 23 18 23
-5.530218 2.570383 19.472599 30 35 40
-5.499517 2.574242 19.501833 30 35 40
-5.466088 2.576870 19.521742 30 35 40
-5.435389 2.580832 19.551760 30 35 40
-5.402668 2.583884 19.574883 30 35 40
-5.369698 2.586862 19.597439 30 35 40
-5.338370 2.590680 19.626362 30 35 40
-5.304116 2.593123 19.644875 30 35 40
-5.271882 2.596598 19.671200 30 35 40
-5.237798 2.599208 19.690969 24 42 27
-5.203064 2.601532 19.708574 22 20 23
-5.169188 2.604324 19.729727 40 27 25
-5.132835 2.605901 19.741674 15 35 42
-5.098322 2.608444 19.760939 44 32 23
-5.062854 2.610534 19.776775 38 15 20
-5.027256 2.612590 19.792347 39 17 44
-4.992502 2.615120 19.811516 30 35 40
-4.955833 2.616680 19.823332 30 35 40
-4.920708 2.619087 19.841566 30 35 40
-4.884534 2.620969 19.855829 30 35 40
-4.848256 2.622827 19.869900 30 35 40
-4.813045 2.625297 19.888617 30 35 40
-4.776263 2.626945 19.901096 30 35 40
-4.739955 2.628883 19.915779 30 35 40
-4.701833 2.629839 19.923019 30 35 40
-4.663655 2.630780 19.930149 26 19 35
-4.626904 2.632549 19.943552 38 21 38
-4.589494 2.633971 19.954323 33 18 39
-4.554806 2.636993 19.977221 23 27 30
-4.519646 2.639793 19.998432 38 34 39
-4.485337 2.643145 20.023827 20 42 18
-4.452183 2.647244 20.054876 18 29 43
-4.416665 2.649999 20.075748 24 35 18
-4.385567 2.655481 20.117281 20 37 40
-4.353340 2.660374 20.154350 120 120 120
-4.322396 2.666151 20.198112 120 120 120
-4.294338 2.673833 20.256313 120 120 120
-4.262605 2.679351 20.298117 30 18 27
-4.234884 2.687523 20.360022 23 30 27
-4.203415 2.693451 20.404928 39 39 33
-4.172150 2.699626 20.451714 24 15 21
-4.144663 2.708393 20.518131 17 30 27
-4.113104 2.714649 20.565521 15 31 31
-4.085935 2.723957 20.636036 28 39 33
-4.055271 2.731101 20.690157 26 33 33
-4.023982 2.737967 20.742176 42 27 19
-3.995108 2.746637 20.807856 40 30 22
-3.961289 2.752054 20.848890 29 22 39
-3.930663 2.759827 20.907784 33 25 25
-3.896710 2.765407 20.950052 24 24 28
-3.862412 2.770860 20.991367 42 39 24
-3.830985 2.778516 21.049366 38 41 43
-3.796065 2.783781 21.089251 32 29 19
-3.764355 2.791544 21.148062 28 20 38
-3.729760 2.797320 21.191816 42 39 28
-3.694896 2.803025 21.235037 39 26 28
-3.662367 2.810653 21.292830 15 41 28
-3.626318 2.815729 21.331282 22 18 29
-3.593356 2.823351 21.389023 31 26 18
-3.558007 2.829259 21.433779 16 33 34
-3.522180 2.834926 21.476709 23 17 19
-3.487885 2.841981 21.530157 19 43 34
-3.450075 2.846312 21.562969 37 43 18
-3.415026 2.853060 21.614090 36 36 39
-3.378044 2.858345 21.654129 26 36 36
-3.340953 2.863674 21.694498 20 23 32
-3.305466 2.870536 21.746487 27 18 37
-3.267036 2.874992 21.780241 40 17 37
-3.231921 2.882524 21.837301 44 40 43
-3.195119 2.888737 21.884375 19 41 30
-3.158626 2.895407 21.934900 38 16 23
-3.124060 2.904056 22.000423 18 19 20
-3.086249 2.909892 22.044636 38 26 30
-3.051837 2.919148 22.114761 38 24 38
-3.015114 2.926434 22.169956 22 16 24
-2.978481 2.934026 22.227468 20 16 38
-2.944538 2.944538 22.307104 36 29 19
-2.907235 2.951962 22.363350 35 40 35
-2.870782 2.960494 22.427988 25 36 22
-2.830093 2.964859 22.461054 41 22 25
-2.788598 2.968508 22.488695 21 30 25
-6.723207 2.516508 18.779909 43 16 22
-6.685055 2.516285 18.778244 27 20 37
-6.647872 2.516426 18.779299 24 43 39
-6.611087 2.516721 18.781498 18 36 21
-6.574592 2.517130 18.784550 23 20 33
-6.539196 2.517966 18.790794 16 27 37
-6.503617 2.518742 18.796581 40 19 20
-6.468365 2.519654 18.803387 22 16 39
-6.433432 2.520701 18.811205 38 36 40
-6.397492 2.521364 18.816153 20 30 16
-6.363434 2.522782 18.826729 31 18 29
-6.328753 2.523967 18.835575 34 24 19
-6.295184 2.525613 18.847857 43 24 28
-6.263494 2.528037 18.865946 33 43 35
-6.230504 2.529962 18.880314 37 17 22
-6.201802 2.533663 18.907932 35 28 32
-6.172119 2.537006 18.932880 17 31 24
-6.143322 2.540756 18.960869 25 24 18
-6.116617 2.545424 18.995705 30 17 29
-6.086093 2.548552 19.019041 17 17 25
-6.058842 2.553097 19.052963 25 34 29
-6.028770 2.556504 19.078386 34 16 20
-5.998146 2.559719 19.102377 36 36 17
-5.969670 2.563897 19.133558 39 32 20
-5.937558 2.566557 19.153414 25 37 29
-5.907323 2.570069 19.179619 27 20 24
-5.874150 2.572340 19.196568 26 19 38
-5.840558 2.574456 19.212360 22 15 36
-5.809254 2.577616 19.235941 15 26 28
-5.775751 2.579835 19.252502 23 28 21
-5.744904 2.583279 19.278200 30 31 21
-5.712230 2.585942 19.298075 41 21 31
-5.679637 2.588678 19.318495 35 33 34
-5.648831 2.592272 19.345310 31 37 27
-5.615336 2.594673 19.363228 19 32 39
-5.584599 2.598390 19.390970 38 39 35
-5.551912 2.601246 19.412281 22 38 18
-5.519331 2.604191 19.434263 23 32 24
-5.488779 2.608143 19.463755 30 35 40
-5.455478 2.610836 19.483850 30 35 40
-5.424853 2.614857 19.513859 30 35 40
-5.392153 2.617929 19.536787 30 35 40
-5.359168 2.620907 19.559008 30 35 40
-5.327767 2.624709 19.587378 30 35 40
-5.293454 2.627122 19.605385 30 35 40
-5.261314 2.630657 19.631767 33 35 15
-5.227474 2.633389 19.652157 23 19 39
-5.193066 2.635875 19.670706 35 33 34
-5.159502 2.638829 19.692757 41 34 33
-5.123362 2.640502 19.705238 16 16 41
-5.089121 2.643187 19.725275 42 38 22
-5.053884 2.645393 19.741735 15 33 36
-5.018490 2.647550 19.757835 34 20 19
-4.983949 2.650195 19.777575 30 35 40
-4.947423 2.651819 19.789694 30 35 40
-4.912422 2.654293 19.808155 30 35 40
-4.876317 2.656205 19.822428 30 35 40
-4.840096 2.658086 19.836460 30 35 40
-4.804974 2.660605 19.855265 30 35 40
-4.768286 2.662293 19.867859 30 35 40
-4.732131 2.664309 19.882904 30 35 40
-4.694157 2.665327 19.890497 30 35 40
-4.656153 2.666344 19.898090 22 24 39
-4.619597 2.668215 19.912056 33 41 35
-4.582342 2.669712 19.923227 27 17 30
-4.547796 2.672828 19.946474 28 27 36
-4.512722 2.675685 19.967798 30 22 37
-4.478464 2.679081 19.993145 37 36 18
-4.445354 2.683232 20.024118 41 39 20
-4.409871 2.686012 20.044867 30 23 30
-4.378761 2.691532 20.086060 33 22 20
-4.346517 2.696450 20.122763 120 120 120
-4.315543 2.702256 20.166088 120 120 120
-4.287430 2.709979 20.223724 120 120 120
-4.255679 2.715529 20.265139 39 43 25
-4.227947 2.723774 20.326670 23 23 27
-4.196557 2.729799 20.371637 44 35 18
-4.165328 2.736049 20.418276 40 36 23
-4.137747 2.744842 20.483898 22 38 40
-4.106072 2.751068 20.530359 23 30 34
-4.078606 2.760269 20.599022 41 19 27
-4.047692 2.767299 20.651487 21 33 33
-4.016092 2.774002 20.701506 33 40 21
-3.986787 2.782445 20.764515 24 24 22
-3.952682 2.787681 20.803587 38 29 38
-3.921585 2.795173 20.859497 28 24 35
-3.887249 2.800491 20.899187 43 28 40
-3.852651 2.805735 20.938320 27 32 16
-3.820929 2.813212 20.994116 31 35 39
-3.785955 2.818433 21.033083 26 41 22
-3.754199 2.826195 21.091007 15 35 39
-3.719641 2.831999 21.134321 29 40 44
-3.684886 2.837785 21.177504 15 18 28
-3.652442 2.845507 21.235128 38 37 41
-3.616508 2.850659 21.273577 24 22 28
-3.583716 2.858440 21.331640 43 40 40
-3.548568 2.864507 21.376917 33 40 28
-3.512955 2.870342 21.420460 34 37 39
-3.478856 2.877572 21.474417 15 43 29
-3.441194 2.882000 21.507463 44 15 18
-3.406315 2.888900 21.558954 21 32 15
-3.369489 2.894305 21.599291 33 17 22
-3.332549 2.899750 21.639927 33 28 18
-3.297216 2.906757 21.692213 33 35 31
-3.258918 2.911300 21.726118 15 25 29
-3.223906 2.918942 21.783150 31 32 23
-3.187190 2.925229 21.830069 36 24 27
-3.150765 2.931962 21.880312 31 24 21
-3.116269 2.940705 21.945559 21 43 23
-3.078546 2.946608 21.989614 29 21 25
-3.044219 2.955981 22.059561 26 32 22
-3.007588 2.963359 22.114620 36 18 29
-2.971066 2.971066 22.172136 15 19 21
-2.937243 2.981747 22.251841 20 41 22
-2.900075 2.989308 22.308266 35 44 16
-2.863811 2.998052 22.373520 27 31 24
-2.823333 3.002592 22.407404 15 36 21
-6.710025 2.549060 18.743086 32 43 27
-6.671906 2.548818 18.741308 44 25 31
-6.634808 2.548966 18.742395 28 36 38
-6.598281 2.549336 18.745115 43 27 26
-6.562093 2.549842 18.748837 40 37 43
-6.526951 2.550762 18.755606 38 38 35
-6.491495 2.551570 18.761547 40 30 15
-6.456254 2.552473 18.768181 37 41 32
-6.421266 2.553486 18.775633 18 44 35
-6.385246 2.554099 18.780136 19 15 39
-6.350982 2.555425 18.789886 29 35 28
-6.316122 2.556525 18.797981 28 27 27
-6.282377 2.558094 18.809513 21 27 42
-6.250508 2.560449 18.826832 18 35 23
-6.217463 2.562348 18.840797 40 32 41
-6.188646 2.566024 18.867825 41 42 17
-6.158905 2.569359 18.892347 24 40 34
-6.130053 2.573109 18.919916 37 20 31
-6.103234 2.577764 18.954144 30 23 42
-6.072658 2.580880 18.977057 19 24 42
-6.045292 2.585408 19.010351 42 28 24
-6.015138 2.588793 19.035246 23 41 31
-5.984460 2.591995 19.058790 31 41 36
-5.955914 2.596168 19.089468 33 31 19
-5.923810 2.598833 19.109066 37 17 31
-5.893670 2.602400 19.135292 40 38 29
-5.860656 2.604736 19.152470 24 18 42
-5.827304 2.606952 19.168764 37 18 30
-5.796303 2.610256 19.193056 41 20 40
-5.763066 2.612590 19.210220 24 26 43
-5.732627 2.616232 19.237003 42 22 37
-5.700337 2.619074 19.257896 22 28 19
-5.668121 2.621988 19.279324 18 23 43
-5.637701 2.625779 19.307196 20 37 42
-5.604439 2.628289 19.325651 34 15 38
-5.573949 2.632143 19.353991 44 39 17
-5.541440 2.635090 19.375664 32 36 34
-5.508981 2.638103 19.397820 28 29 19
-5.478580 2.642152 19.427589 33 22 40
-5.445386 2.644902 19.447805 35 42 41
-5.414816 2.648975 19.477755 19 32 27
-5.382135 2.652067 19.500490 30 35 40
-5.349131 2.655043 19.522377 15 16 34
-5.317681 2.658840 19.550297 36 29 39
-5.283340 2.661238 19.567924 24 41 35
-5.251304 2.664841 19.594419 39 32 31
-5.217696 2.667694 19.615400 23 30 38
-5.183583 2.670331 19.634785 26 41 22
-5.150290 2.673433 19.657597 42 41 19
-5.114334 2.675190 19.670517 40 24 36
-5.080316 2.677996 19.691147 17 40 20
-5.045261 2.680295 19.708052 40 32 20
-5.010021 2.682531 19.724491 20 35 43
-4.975638 2.685265 19.744596 30 35 40
-4.939216 2.686934 19.756865 30 35 40
-4.904291 2.689450 19.775368 30 35 40
-4.868220 2.691373 19.789511 30 35 40
-4.832016 2.693255 19.803343 30 35 40
-4.796938 2.695800 19.822058 30 35 40
-4.760316 2.697512 19.834650 30 35 40
-4.724280 2.699588 19.849915 30 35 40
-4.686451 2.700667 19.857843 30 35 40
-4.648611 2.701757 19.865860 25 23 31
-4.612243 2.703729 19.880360 29 30 38
-4.575137 2.705298 19.891899 29 24 35
-4.540718 2.708498 19.915428 24 44 37
-4.505719 2.711406 19.936811 32 24 40
-4.471499 2.714838 19.962048 25 26 37
-4.438424 2.719035 19.992903 19 29 16
-4.402979 2.721841 20.013540 34 41 34
-4.371855 2.727396 20.054382 37 35 22
-4.339581 2.732328 20.090651 120 120 120
-4.308570 2.738156 20.133503 120 120 120
-4.280426 2.745933 20.190687 120 120 120
-4.248693 2.751534 20.231871 44 26 23
-4.220972 2.759867 20.293137 29 44 32
-4.189656 2.765987 20.338137 33 21 28
-4.158450 2.772300 20.384558 40 17 16
-4.130764 2.781108 20.449326 31 39 42
-4.098962 2.787294 20.494810 17 44 40
-4.071166 2.796356 20.561443 25 17 42
-4.039968 2.803243 20.612083 43 38 26
-4.008014 2.809742 20.659866 33 18 32
-3.978235 2.817917 20.719975 44 27 39
-3.943828 2.822951 20.756990 35 26 16
-3.912250 2.830138 20.809841 16 43 16
-3.877553 2.835200 20.847057 29 39 42
-3.842668 2.840233 20.884068 28 35 24
-3.810653 2.847521 20.937656 27 26 15
-3.775614 2.852686 20.975634 20 32 33
-3.743802 2.860433 21.032593 26 39 40
-3.709283 2.866264 21.075474 25 21 29
-3.674640 2.872132 21.118620 40 33 35
-3.642277 2.879940 21.176027 18 29 41
-3.606453 2.885162 21.214430 43 27 40
-3.573829 2.893100 21.272793 38 16 38
-3.538880 2.899323 21.318552 24 35 34
-3.503499 2.905341 21.362801 20 23 18
-3.469644 2.912787 21.417553 15 23 43
-3.432188 2.917360 21.451176 42 21 15
-3.397568 2.924489 21.503593 39 33 23
-3.360972 2.930078 21.544689 15 26 36
-3.324266 2.935715 21.586140 34 32 15
-3.289219 2.942985 21.639599 19 15 23
-3.251153 2.947712 21.674355 40 15 29
-3.216380 2.955593 21.732298 43 37 34
-3.179830 2.962034 21.779659 21 18 43
-3.143537 2.968896 21.830118 25 18 17
-3.109189 2.977815 21.895700 17 44 36
-3.071583 2.983824 21.939880 35 36 31
-3.037388 2.993368 22.010056 31 29 40
-3.000898 3.000898 22.065424 34 40 22
-2.964487 3.008733 22.123037 24 38 37
-2.930693 3.019502 22.202223 40 35 26
-2.893517 3.027064 22.257824 30 42 38
-2.857345 3.035929 22.323008 18 30 38
-2.817078 3.040656 22.357763 37 38 34
-6.693605 2.580217 18.697222 23 21 35
-6.655757 2.580041 18.695948 16 30 29
-6.618856 2.580232 18.697332 22 28 30
-6.582479 2.580631 18.700224 43 33 33
-6.546345 2.581130 18.703842 44 42 27
-6.511182 2.582020 18.710293 35 26 38
-6.475724 2.582803 18.715965 19 27 29
-6.440402 2.583650 18.722099 28 26 25
-6.405220 2.584563 18.728714 34 34 21
-6.369041 2.585081 18.732473 15 26 37
-6.334485 2.586269 18.741081 35 41 29
-6.299397 2.587252 18.748205 25 17 24
-6.265457 2.588722 18.758852 17 35 32
-6.233380 2.590983 18.775242 41 39 31
-6.200282 2.592845 18.788733 24 35 43
-6.171347 2.596481 18.815083 44 30 30
