ply
format ascii 1.0
element vertex 1289
property float x
property float y
property float z
property uchar red
property uchar green
property uchar blue
end_header
7.348267 2.199116 26.818491 30 35 40
7.394581 2.196941 26.791962 24 23 23
7.440370 2.194642 26.763922 25 39 21
7.489949 2.193485 26.749817 25 43 16
7.536046 2.191332 26.723566 33 40 17
7.582007 2.189171 26.697208 28 23 44
7.628725 2.187257 26.673864 29 25 38
7.675770 2.185462 26.651979 30 35 40
7.726524 2.184741 26.643187 30 35 40
7.778849 2.184471 26.639893 30 35 40
7.834287 2.185073 26.647234 30 35 40
7.889692 2.185658 26.654366 30 35 40
7.941799 2.185327 26.650331 30 35 40
7.992224 2.184541 26.640745 30 35 40
8.038382 2.182607 26.617159 30 35 40
8.084880 2.180790 26.595001 30 35 40
8.128993 2.178358 26.565338 33 21 37
8.170251 2.175197 26.526789 19 40 39
8.214544 2.172879 26.498528 43 26 22
8.251050 2.168545 26.445673 32 17 15
8.289204 2.164697 26.398739 42 25 43
8.325706 2.160468 26.347170 19 16 33
8.357734 2.155139 26.282183 29 32 31
8.396294 2.151550 26.238419 20 42 37
8.430617 2.146927 26.182041 44 37 24
8.471766 2.144089 26.147425 33 34 29
8.513241 2.141367 26.114235 37 16 41
8.548377 2.137094 26.062126 25 22 36
8.587896 2.133962 26.023926 16 25 33
8.619703 2.128963 25.962961 41 30 29
8.654510 2.124760 25.911707 29 39 15
8.689985 2.120770 25.863050 21 44 28
8.723457 2.116342 25.809044 43 28 40
8.765048 2.113923 25.779552 35 16 27
8.802075 2.110439 25.737061 44 20 39
8.845053 2.108414 25.712362 39 41 16
8.884994 2.105692 25.679174 28 42 16
8.913521 2.100312 25.613565 36 16 38
8.944210 2.095501 25.554886 37 40 17
4.787986 2.422836 28.843288 41 34 28
4.817839 2.408919 28.677612 24 16 34
4.853848 2.398372 28.552046 35 44 16
4.883919 2.385170 28.394880 29 22 27
4.921635 2.375962 28.285257 31 40 44
4.964387 2.369366 28.206743 44 24 25
5.007139 2.362919 28.129993 32 33 36
5.059115 2.360920 28.106195 29 34 42
5.109247 2.358114 28.072786 31 23 39
5.161677 2.356418 28.052591 32 24 19
5.213596 2.354527 28.030087 41 19 34
5.260922 2.350625 27.983629 41 42 33
5.309175 2.347214 27.943027 37 31 17
5.353846 2.342308 27.884617 37 17 17
5.401897 2.338966 27.844828 21 28 16
5.449052 2.335308 27.801287 23 16 34
5.491521 2.329736 27.734953 18 22 26
5.536898 2.325497 27.684490 16 23 19
5.578530 2.319785 27.616484 44 35 37
5.624603 2.316013 27.571585 33 39 17
5.670700 2.312324 27.527668 25 36 40
5.712451 2.306951 27.463705 19 20 38
5.757892 2.303157 27.418533 120 120 120
5.798363 2.297464 27.350767 120 120 120
5.841062 2.292753 27.294683 120 120 120
5.885193 2.288686 27.246265 32 34 44
5.929055 2.284590 27.197500 33 17 37
5.978783 2.282808 27.176289 35 27 36
6.026368 2.280247 27.145802 21 35 24
6.074960 2.278110 27.120356 32 22 28
6.124981 2.276542 27.101686 35 34 17
6.175167 2.275062 27.084066 34 17 25
6.228148 2.274628 27.078905 32 28 30
6.281152 2.274210 27.073933 33 31 37
6.335417 2.274252 27.074432 21 35 38
6.389192 2.274119 27.072847 38 21 30
6.440659 2.273174 27.061592 22 17 24
6.491648 2.272077 27.048534 21 33 23
6.539932 2.270059 27.024513 30 24 32
6.588451 2.268155 27.001846 25 28 41
6.636880 2.266252 26.979189 28 19 44
6.684988 2.264270 26.955595 32 24 16
6.735786 2.263224 26.943144 40 20 23
6.786257 2.262086 26.929590 30 43 20
6.838838 2.261663 26.924559 34 26 42
6.891336 2.261220 26.919281 35 22 42
6.941221 2.259932 26.903955 27 31 38
6.991217 2.258701 26.889296 30 35 40
7.039314 2.256879 26.867609 30 35 40
7.089174 2.255646 26.852932 30 35 40
7.138252 2.254185 26.835533 30 35 40
7.184650 2.251905 26.808397 30 35 40
7.232504 2.250112 26.787050 30 35 40
7.276955 2.247295 26.753510 30 35 40
7.322820 2.244952 26.725622 20 33 24
7.368980 2.242733 26.699203 27 40 24
7.414405 2.240324 26.670521 39 31 44
7.463525 2.239057 26.655445 31 19 43
7.509193 2.236781 26.628344 37 28 38
7.554837 2.234529 26.601538 38 25 31
7.601394 2.232577 26.578302 30 35 40
7.648444 2.230796 26.557098 30 35 40
7.699297 2.230141 26.549299 30 35 40
7.751749 2.229955 26.547087 30 35 40
7.807152 2.230615 26.554939 30 35 40
7.862526 2.231257 26.562588 30 35 40
7.914768 2.231008 26.559624 30 35 40
7.965285 2.230280 26.550949 30 35 40
8.011567 2.228383 26.528366 30 35 40
8.057962 2.226542 26.506453 30 35 40
8.102027 2.224086 26.477213 30 35 40
8.143484 2.220950 26.439882 17 38 16
8.187989 2.218681 26.412868 41 21 30
8.225041 2.214434 26.362312 18 33 21
8.263710 2.210674 26.317547 15 22 42
8.300728 2.206523 26.268127 30 26 23
8.333338 2.201259 26.205465 21 32 16
8.372162 2.197693 26.163008 31 33 42
8.406931 2.193112 26.108480 29 26 39
8.448555 2.190366 26.075787 27 20 15
8.490194 2.187657 26.043541 17 21 22
8.525060 2.183247 25.991035 43 25 27
8.563921 2.179907 25.951277 15 26 21
8.594896 2.174612 25.888241 38 41 17
8.629086 2.170189 25.835587 22 38 35
8.663963 2.165991 25.785604 32 18 25
8.696763 2.161326 25.730068 39 20 21
8.737898 2.158775 25.699699 32 26 19
8.774310 2.155094 25.655876 27 17 18
8.816645 2.152902 25.629782 27 43 17
8.856137 2.150045 25.595772 26 39 32
8.884540 2.144544 25.530289 38 21 28
8.915401 2.139696 25.472574 33 33 40
4.774426 2.473498 28.761602 29 29 33
4.804902 2.459652 28.600607 29 39 36
4.840915 2.448934 28.475971 44 18 39
4.870832 2.435416 28.318789 26 28 38
4.908309 2.425946 28.208670 28 42 16
4.950564 2.419026 28.128206 30 26 37
4.992585 2.412148 28.048233 26 19 43
5.043843 2.409836 28.021351 36 35 44
5.092992 2.406579 27.983473 23 32 30
5.144588 2.404536 27.959717 35 18 40
5.195751 2.402336 27.934143 29 28 42
5.242305 2.398076 27.884600 26 37 40
5.290099 2.394466 27.842627 17 28 41
5.334335 2.389338 27.782995 17 28 20
5.382044 2.385855 27.742496 16 31 25
5.429064 2.382140 27.699306 22 24 28
5.471594 2.376551 27.634314 41 22 18
5.517138 2.372369 27.585690 25 33 37
5.559056 2.366727 27.520077 20 43 18
5.605232 2.362990 27.476625 36 36 37
5.651466 2.359350 27.434303 32 38 42
5.693585 2.354078 27.373005 23 24 44
5.739300 2.350380 27.330000 120 120 120
5.780101 2.344758 27.264629 120 120 120
5.822942 2.340061 27.210011 120 120 120
5.867077 2.335966 27.162394 28 23 20
5.910901 2.331823 27.114223 29 33 27
5.960432 2.329987 27.092875 24 26 26
6.007823 2.327355 27.062267 41 28 18
6.056287 2.325182 27.036995 38 43 29
6.106111 2.323564 27.018188 41 35 27
6.155976 2.321991 26.999893 42 24 27
6.208604 2.321478 26.993931 17 30 40
6.261209 2.320965 26.987970 20 29 26
6.315161 2.320957 26.987867 35 15 37
6.368645 2.320777 26.985785 15 33 30
6.419806 2.319762 26.973976 21 33 19
6.470556 2.318616 26.960651 30 30 42
6.518636 2.316540 26.936512 20 36 34
6.567010 2.314602 26.913977 29 21 35
6.615333 2.312677 26.891598 27 31 29
6.663310 2.310664 26.868185 23 30 19
6.713962 2.309603 26.855846 44 44 32
6.764279 2.308444 26.842377 21 43 42
6.816738 2.308029 26.837551 29 25 37
6.869041 2.307568 26.832191 27 26 22
6.918614 2.306205 26.816332 27 37 42
6.968243 2.304880 26.800936 30 35 40
7.016012 2.302966 26.778673 30 35 40
7.065698 2.301705 26.764008 30 35 40
7.114636 2.300221 26.746754 30 35 40
7.160832 2.297879 26.719522 30 35 40
7.208458 2.296027 26.697992 30 35 40
7.252756 2.293151 26.664545 30 35 40
7.298580 2.290795 26.637154 22 21 38
7.344659 2.288553 26.611082 42 40 17
7.389798 2.286053 26.582006 23 38 25
7.438544 2.284696 26.566229 20 19 44
7.483946 2.282338 26.538815 27 31 15
7.529469 2.280050 26.512215 16 21 29
7.576046 2.278112 26.489672 30 35 40
7.623192 2.276370 26.469418 30 35 40
7.674141 2.275780 26.462555 30 35 40
7.726657 2.275659 26.461153 30 35 40
7.781939 2.276350 26.469181 30 35 40
7.837143 2.277008 26.476835 30 35 40
7.889370 2.276798 26.474396 30 35 40
7.939875 2.276098 26.466251 30 35 40
7.986053 2.274174 26.443884 30 35 40
8.032122 2.272245 26.421453 30 35 40
8.075930 2.269706 26.391928 30 35 40
8.117409 2.266549 26.355225 23 28 25
8.162052 2.264311 26.329201 35 25 23
8.199610 2.260149 26.280802 15 41 27
8.238794 2.256485 26.238197 41 28 27
8.276381 2.252433 26.191078 43 18 15
8.309548 2.247236 26.130655 38 29 18
8.348585 2.243682 26.089327 18 25 16
8.383771 2.239144 26.036556 27 27 34
8.425874 2.236498 26.005785 41 40 23
8.467707 2.233812 25.974562 39 25 38
8.502306 2.229263 25.921663 25 27 23
8.540519 2.225711 25.880362 15 30 43
8.570589 2.220092 25.815027 16 37 20
8.604022 2.215407 25.760546 31 31 38
8.638150 2.210955 25.708778 39 38 40
8.670204 2.206028 25.651491 28 41 23
8.710920 2.203350 25.620352 32 40 19
8.746500 2.199412 25.574560 16 32 29
8.787773 2.196943 25.545851 43 29 22
8.826431 2.193853 25.509916 41 40 31
8.854572 2.188199 25.444172 15 22 29
8.885729 2.183351 25.387798 43 33 31
4.754843 2.520640 28.643635 19 37 40
4.786823 2.507384 28.492996 40 16 43
4.824324 2.497297 28.378378 40 25 30
4.855184 2.484047 28.227812 18 41 23
4.892455 2.474345 28.117559 42 41 26
4.933798 2.466899 28.032946 39 28 22
4.974905 2.459503 27.948902 19 40 21
5.025291 2.456809 27.918282 20 39 37
5.073322 2.453035 27.875397 27 16 39
5.124036 2.450626 27.848022 30 22 42
5.174406 2.448106 27.819387 25 31 32
5.220079 2.443441 27.766378 23 42 42
5.267307 2.439595 27.722668 15 15 21
5.310934 2.434178 27.661116 31 41 24
5.358122 2.430488 27.619184 40 40 35
5.404815 2.426652 27.575586 34 15 40
5.447209 2.420982 27.511158 31 36 16
5.492786 2.416826 27.463932 17 31 20
5.534719 2.411165 27.399601 26 33 33
5.580683 2.407354 27.356291 15 21 35
5.626738 2.403655 27.314262 36 40 31
5.668935 2.398395 27.254494 27 28 32
5.714774 2.394762 27.213207 120 120 120
5.755719 2.389167 27.149620 120 120 120
5.798557 2.384453 27.096060 120 120 120
5.842559 2.380302 27.048885 16 31 27
5.886173 2.376070 27.000795 30 36 42
5.935373 2.374149 26.978970 21 28 24
5.982448 2.371421 26.947966 32 29 19
6.030724 2.369213 26.922876 18 20 42
6.080303 2.367552 26.903997 18 16 30
6.129731 2.365861 26.884785 41 22 24
6.181876 2.365239 26.877720 42 27 16
6.233938 2.364597 26.870422 27 24 34
6.287449 2.364511 26.869442 22 17 30
6.340564 2.364278 26.866798 37 23 41
6.391331 2.363181 26.854330 32 40 21
6.441787 2.361988 26.840778 42 44 17
6.489678 2.359883 26.816851 34 28 38
6.537933 2.357943 26.794806 37 31 27
6.586209 2.356042 26.773209 17 30 31
6.634175 2.354062 26.750704 42 33 39
6.684754 2.353033 26.739016 43 41 38
6.735080 2.351933 26.726507 29 36 41
6.787557 2.351595 26.722666 31 15 39
6.839778 2.351174 26.717882 38 28 35
6.889064 2.349758 26.701799 26 28 21
6.938259 2.348334 26.685610 18 35 34
6.985668 2.346331 26.662853 30 35 40
7.035148 2.345049 26.648287 30 35 40
7.083947 2.343561 26.631380 30 35 40
7.129956 2.341180 26.604313 30 35 40
7.177359 2.339287 26.582811 30 35 40
7.221555 2.336385 26.549835 24 26 42
7.267388 2.334052 26.523314 43 36 18
7.313427 2.331817 26.497925 25 19 34
7.358323 2.329253 26.468788 31 35 40
7.406650 2.327804 26.452320 38 23 37
7.451799 2.325384 26.424818 17 21 21
7.497246 2.323090 26.398754 40 27 24
7.543862 2.321188 26.377138 30 35 40
7.591133 2.319513 26.358101 30 35 40
7.642141 2.318994 26.352209 30 35 40
7.694659 2.318938 26.351572 30 35 40
7.749723 2.319645 26.359602 30 35 40
7.804660 2.320304 26.367094 30 35 40
7.856802 2.320129 26.365107 30 35 40
7.907289 2.319471 26.357630 30 35 40
7.953295 2.317517 26.335415 30 35 40
7.998917 2.315476 26.312225 30 35 40
8.042323 2.312825 26.282101 30 35 40
8.083698 2.309628 26.245773 22 19 38
8.128398 2.307416 26.220638 19 30 20
8.166384 2.303339 26.174309 27 38 17
8.206064 2.299789 26.133961 35 30 21
8.244145 2.295838 26.089066 33 33 20
8.277672 2.290676 26.030415 32 19 43
8.316677 2.287086 25.989616 21 23 38
8.352049 2.282548 25.938042 43 20 43
8.394510 2.279990 25.908981 20 35 27
8.436465 2.277328 25.878727 33 24 29
8.470723 2.272633 25.825377 38 21 34
8.508253 2.268867 25.782585 30 15 43
8.537369 2.262917 25.714968 28 35 34
8.569969 2.257956 25.658588 30 34 25
8.603341 2.253256 25.605183 40 38 38
8.634837 2.248123 25.546856 37 42 31
8.675350 2.245385 25.515736 25 32 30
8.710240 2.241231 25.468538 27 20 44
8.750328 2.238456 25.437000 42 42 15
8.788007 2.235100 25.398865 33 27 38
8.815977 2.229328 25.333267 30 32 24
8.847599 2.224539 25.278854 29 42 37
4.741473 2.570678 28.563089 39 30 20
4.775067 2.558072 28.423018 34 34 41
4.814546 2.548877 28.320860 39 23 39
4.846704 2.536066 28.178511 22 27 40
4.883768 2.526087 28.067631 18 23 39
4.924162 2.518038 27.978195 37 30 24
4.964480 2.510131 27.890339 19 39 21
5.014183 2.507091 27.856571 35 32 38
5.061506 2.502943 27.810474 24 36 29
5.111832 2.500353 27.781698 44 40 26
5.161917 2.497702 27.752243 38 31 42
5.207152 2.492786 27.697618 36 22 15
5.254022 2.488747 27.652746 33 35 43
5.297227 2.483075 27.589724 20 26 21
5.344049 2.479198 27.546642 34 33 27
5.390452 2.475207 27.502304 36 35 32
5.432645 2.469384 27.437601 42 24 27
5.478149 2.465167 27.390745 20 36 23
5.519863 2.459345 27.326056 20 42 44
5.565433 2.455338 27.281532 40 34 32
5.611101 2.451452 27.238354 32 20 19
5.653058 2.446035 27.178164 18 26 40
5.698811 2.442348 27.137196 120 120 120
5.739646 2.436642 27.073801 120 120 120
5.782349 2.431829 27.020321 120 120 120
5.826175 2.427573 26.973032 32 39 25
5.869513 2.423193 26.924370 42 34 24
5.918418 2.421171 26.901899 39 26 34
5.965224 2.418334 26.870378 29 32 22
6.013364 2.416084 26.845375 27 26 41
6.062787 2.414384 26.826492 31 16 31
6.111911 2.412596 26.806627 39 34 42
6.163707 2.411885 26.798725 38 35 44
6.215385 2.411141 26.790453 31 34 30
6.268580 2.410992 26.788803 22 39 36
6.321439 2.410718 26.785759 36 18 21
6.371959 2.409564 26.772936 34 20 41
6.422238 2.408339 26.759323 30 25 23
6.470070 2.406224 26.735826 27 19 26
6.518299 2.404291 26.714340 23 36 25
6.566643 2.402430 26.693672 44 24 29
6.614723 2.400504 26.672270 42 22 15
6.665351 2.399526 26.661404 17 23 40
6.715844 2.398516 26.650173 17 16 40
6.768477 2.398279 26.647547 16 29 43
6.820772 2.397928 26.643642 42 26 33
6.870003 2.396513 26.627918 18 21 37
6.918955 2.395023 26.611364 23 21 26
6.966167 2.392958 26.588425 32 20 44
7.015520 2.391654 26.573938 41 33 17
7.064226 2.390152 26.557240 30 35 40
7.110138 2.387733 26.530365 15 40 24
7.157448 2.385816 26.509068 21 22 44
7.201642 2.382896 26.476624 40 26 30
7.247537 2.380578 26.450865 38 42 21
7.293624 2.378356 26.426172 29 37 26
7.338455 2.375759 26.397320 26 37 31
7.386581 2.374258 26.380646 27 16 35
7.431684 2.371814 26.353489 23 37 17
7.477197 2.369534 26.328159 30 35 40
7.523922 2.367668 26.307421 30 35 40
7.571315 2.366036 26.289288 30 35 40
7.622342 2.365554 26.283937 30 35 40
7.674797 2.365520 26.283552 30 35 40
7.729648 2.366219 26.291319 30 35 40
7.784330 2.366857 26.298412 30 35 40
7.836342 2.366680 26.296450 30 35 40
7.886765 2.366030 26.289217 30 35 40
7.932541 2.364002 26.266691 30 35 40
7.977769 2.361839 26.242661 30 35 40
8.020789 2.359056 26.211729 30 35 40
8.061945 2.355763 26.175146 30 35 40
8.106596 2.353528 26.150309 20 30 24
8.144715 2.349437 26.104855 18 44 24
8.184634 2.345914 26.065714 19 44 20
8.222939 2.341976 26.021959 24 38 18
8.256496 2.336744 25.963825 40 15 24
8.295289 2.333050 25.922779 28 30 26
8.330587 2.328425 25.871387 42 16 20
8.373148 2.325875 25.843050 25 21 43
8.415121 2.323193 25.813255 16 28 37
8.449176 2.318372 25.759684 31 18 39
8.486319 2.314451 25.716118 34 28 22
8.514898 2.308255 25.647282 37 30 33
8.546953 2.303071 25.589680 37 38 16
8.579877 2.298181 25.535347 17 20 39
8.611169 2.292915 25.476831 32 30 40
8.651745 2.290168 25.446308 26 31 29
8.686279 2.285863 25.398478 24 43 17
8.725507 2.282836 25.364845 43 36 34
8.762447 2.279249 25.324991 23 25 35
8.790326 2.273360 25.259558 36 44 23
8.822347 2.268603 25.206705 25 21 36
4.756374 2.604681 28.311750 44 33 31
4.798076 2.596606 28.223974 27 22 43
4.831935 2.584523 28.092644 40 25 20
4.869171 2.574504 27.983740 27 40 24
4.908851 2.565990 27.891197 34 25 24
4.948395 2.557598 27.799974 38 17 35
4.997193 2.554121 27.762182 36 26 18
5.043498 2.549460 27.711527 35 21 27
5.093139 2.546570 27.680105 30 28 29
5.142703 2.543702 27.648939 32 22 25
5.187392 2.538511 27.592510 29 39 39
5.233949 2.534333 27.547098 37 37 20
5.276654 2.528397 27.482574 21 37 34
5.322900 2.524262 27.437630 41 38 21
5.368742 2.520022 27.391541 34 21 28
5.410473 2.513957 27.325623 20 26 43
5.455726 2.509634 27.278629 39 31 30
5.496936 2.503555 27.212557 26 37 32
5.541863 2.499272 27.165995 40 15 38
5.586881 2.495112 27.120783 21 26 30
5.628300 2.489440 27.059134 18 15 39
5.673752 2.485644 27.017866 120 120 120
5.714299 2.479790 26.954243 120 120 120
5.756774 2.474875 26.900814 120 120 120
5.800389 2.470536 26.853653 18 34 42
5.843428 2.466034 26.804716 40 20 24
5.892006 2.463930 26.781843 30 18 20
5.938574 2.461031 26.750332 38 24 30
5.986619 2.458790 26.725979 22 37 38
6.035935 2.457106 26.707676 31 40 34
6.084783 2.455263 26.687645 20 38 18
6.136193 2.454477 26.679102 32 17 17
6.187438 2.453639 26.669992 35 40 43
6.240243 2.453429 26.667704 39 31 34
6.292742 2.453103 26.664162 21 22 26
6.342917 2.451884 26.650913 41 33 33
6.392914 2.450617 26.637140 34 16 27
6.440615 2.448498 26.614113 36 37 21
6.488783 2.446590 26.593374 38 28 38
6.537175 2.444797 26.573883 41 15 24
6.585429 2.442982 26.554150 35 16 34
6.636151 2.442104 26.544605 35 41 37
6.686840 2.441227 26.535080 39 38 38
6.739525 2.441088 26.533562 33 21 32
6.791817 2.440809 26.530535 19 25 40
6.841117 2.439468 26.515957 44 16 31
6.890012 2.438004 26.500046 24 16 18
6.937213 2.435968 26.477913 32 15 33
6.986473 2.434680 26.463913 31 41 25
7.035066 2.433181 26.447617 23 39 35
7.080915 2.430762 26.421326 22 17 30
7.128108 2.428837 26.400398 40 29 41
7.172296 2.425924 26.368736 40 18 30
7.218227 2.423638 26.343893 18 16 31
7.264308 2.421436 26.319956 34 29 21
7.309002 2.418806 26.291374 21 40 27
7.356834 2.417246 26.274408 36 31 43
7.401841 2.414785 26.247662 38 32 16
7.447443 2.412552 26.223391 19 20 41
7.494280 2.410748 26.203777 30 35 40
7.541707 2.409156 26.186483 30 35 40
7.592617 2.408692 26.181437 30 35 40
7.644796 2.408634 26.180807 30 35 40
7.699238 2.409285 26.187883 30 35 40
7.753433 2.409851 26.194029 30 35 40
7.805015 2.409602 26.191324 30 35 40
7.855126 2.408905 26.183754 30 35 40
7.900348 2.406729 26.160093 30 35 40
7.944857 2.404365 26.134398 30 35 40
7.987260 2.401398 26.102158 30 35 40
8.028060 2.397992 26.065128 15 33 39
8.072656 2.395756 26.040827 27 34 39
8.111016 2.391710 25.996847 26 40 21
8.151282 2.388274 25.959496 16 24 31
8.189942 2.384413 25.917538 39 19 22
8.223642 2.379167 25.860510 32 19 17
8.262255 2.375398 25.819548 30 31 38
8.297560 2.370731 25.768820 33 15 25
8.340298 2.368233 25.741659 16 24 25
8.382359 2.365574 25.712759 38 30 16
8.416233 2.360651 25.659246 42 36 44
8.452966 2.356584 25.615047 42 24 22
8.481015 2.350161 25.545225 31 37 16
8.512485 2.344756 25.486483 27 43 29
8.545010 2.339705 25.431578 18 42 39
8.576477 2.334426 25.374193 25 32 29
8.617542 2.331806 25.345713 26 34 29
8.651812 2.327388 25.297697 23 37 35
8.689639 2.323973 25.260578 22 16 28
8.725308 2.320024 25.217653 26 33 33
8.753165 2.314055 25.152773 19 21 29
4.741405 2.652929 28.222651 37 15 34
4.784511 2.645553 28.144182 21 42 44
4.819537 2.633933 28.020563 31 41 26
4.857022 2.623908 27.913918 41 33 25
4.896378 2.615111 27.820332 28 38 36
4.935494 2.606384 27.727493 19 17 33
4.983666 2.602581 27.687035 22 38 38
5.029261 2.597531 27.633305 44 39 35
5.078384 2.594392 27.599911 21 32 40
5.127549 2.591342 27.567467 18 22 30
5.171947 2.585973 27.510355 29 29 20
5.218416 2.581743 27.465347 29 41 24
5.260836 2.575618 27.400188 28 19 16
5.306632 2.571255 27.353775 43 16 42
5.351984 2.566768 27.306042 33 35 37
5.393291 2.560451 27.238842 38 19 30
5.438281 2.555992 27.191406 38 31 33
5.479064 2.549663 27.124079 34 33 30
5.523495 2.545140 27.075956 17 29 27
5.568028 2.540750 27.029261 38 24 36
5.608995 2.534834 26.966324 33 27 26
5.654148 2.530904 26.924515 120 120 120
5.694464 2.524904 26.860678 120 120 120
5.736794 2.519900 26.807447 120 120 120
5.780314 2.515507 26.760712 40 37 38
5.823216 2.510928 26.712000 21 36 25
5.871614 2.508781 26.689156 43 22 18
5.918099 2.505862 26.658104 35 40 23
5.966135 2.503646 26.634529 16 32 16
6.015411 2.501985 26.616861 41 31 41
6.064118 2.500119 26.597010 15 39 20
6.115282 2.499289 26.588184 39 31 28
6.166248 2.498394 26.578657 19 29 30
6.218791 2.498147 26.576029 21 30 28
6.271036 2.497785 26.572186 34 33 36
6.320945 2.496508 26.558594 27 22 43
6.370716 2.495197 26.544649 34 20 17
6.418298 2.493058 26.521893 22 35 18
6.466399 2.491154 26.501635 15 27 16
6.514836 2.489409 26.483074 16 16 40
6.563252 2.487684 26.464725 31 41 21
6.614105 2.486904 26.456421 36 43 38
6.664930 2.486125 26.448135 18 15 44
6.717531 2.486016 26.446974 29 38 31
6.769752 2.485768 26.444344 27 35 28
6.819228 2.484525 26.431118 21 24 37
6.868318 2.483161 26.416609 44 27 36
6.915739 2.481220 26.395952 43 35 29
6.965042 2.479977 26.382734 16 21 36
7.013614 2.478495 26.366970 18 17 19
7.059520 2.476100 26.341492 41 26 29
7.106691 2.474181 26.321079 16 30 19
7.150953 2.471285 26.290268 29 42 38
7.196941 2.469024 26.266209 44 43 42
7.243039 2.466832 26.242893 24 30 43
7.287686 2.464182 26.214699 36 16 23
7.335354 2.462583 26.197693 33 19 33
7.380321 2.460107 26.171350 35 19 26
7.426008 2.457904 26.147917 29 24 21
7.472915 2.456133 26.129072 30 35 40
7.520311 2.454546 26.112190 30 35 40
7.571052 2.454065 26.107077 30 35 40
7.622940 2.453960 26.105959 30 35 40
7.677056 2.454569 26.112434 30 35 40
7.730839 2.455064 26.117701 30 35 40
7.781957 2.454711 26.113949 30 35 40
7.831694 2.453931 26.105646 30 35 40
7.876350 2.451579 26.080629 30 35 40
7.920227 2.449018 26.053379 30 35 40
7.962114 2.445878 26.019981 30 35 40
8.002606 2.442354 25.982487 25 40 41
8.047172 2.440110 25.958620 15 30 28
8.085701 2.436077 25.915709 29 30 24
8.126210 2.432687 25.879650 33 20 15
8.165100 2.428859 25.838924 22 19 31
8.198900 2.423574 25.782705 35 26 26
8.237386 2.419732 25.741833 39 29 22
8.272684 2.415007 25.691565 16 27 31
8.315512 2.412525 25.665161 34 43 42
8.357583 2.409855 25.636759 18 15 17
8.391285 2.404819 25.583185 38 16 35
8.427694 2.400616 25.538465 17 22 29
8.455382 2.393994 25.468019 31 36 19
8.486377 2.388381 25.408314 36 40 15
8.518759 2.383224 25.353451 15 31 27
8.551002 2.378089 25.298822 40 34 18
8.593199 2.375767 25.274115 40 18 17
8.627627 2.371336 25.226978 34 15 19
8.664061 2.367505 25.186224 29 24 36
8.698268 2.363113 25.139503 36 22 38
8.726060 2.357039 25.074886 27 17 34
4.726307 2.700747 28.132780 40 42 33
4.770217 2.693770 28.060101 35 17 27
4.806265 2.682567 27.943403 21 30 18
4.844504 2.672830 27.841974 23 32 25
4.884219 2.664119 27.751242 25 24 26
4.923289 2.655257 27.658926 16 25 16
4.970898 2.651146 27.616102 42 22 28
5.015766 2.645679 27.559155 31 33 40
5.064257 2.642221 27.523138 31 39 37
5.112894 2.638913 27.488680 27 20 33
5.157004 2.633364 27.430872 29 36 39
5.203486 2.629130 27.386770 25 31 43
5.245668 2.622834 27.321188 25 29 35
5.291009 2.618231 27.273241 40 20 21
5.335793 2.613450 27.223433 21 43 15
5.376550 2.606812 27.154295 32 37 27
5.421154 2.602154 27.105772 40 16 15
5.461337 2.595487 27.036322 27 38 36
5.505171 2.590669 26.986134 32 37 36
5.549103 2.585990 26.937395 38 43 35
5.589411 2.579728 26.872169 44 15 42
5.634098 2.575588 26.829039 120 120 120
5.674009 2.569362 26.764193 120 120 120
5.716114 2.564238 26.710814 120 120 120
5.759517 2.559785 26.664431 27 34 35
5.802287 2.555136 26.615997 41 42 41
5.850555 2.552969 26.593431 25 25 23
5.897054 2.550077 26.563307 30 26 20
5.945158 2.547925 26.540886 20 16 36
5.994514 2.546342 26.524397 29 18 24
6.043240 2.544522 26.505440 18 34 33
6.094281 2.543700 26.496874 15 32 37
6.145106 2.542802 26.487524 43 42 40
6.197454 2.542545 26.484844 30 23 26
6.249463 2.542154 26.480774 39 26 26
6.299148 2.540833 26.467009 35 18 40
6.348701 2.539480 26.452921 35 18 29
6.396151 2.537316 26.430378 24 26 31
6.444151 2.535404 26.410454 39 16 24
6.492571 2.533686 26.392567 25 16 44
6.541092 2.532036 26.375372 27 15 19
6.592035 2.531341 26.368139 36 21 26
6.642939 2.530643 26.360868 44 36 17
6.695381 2.530538 26.359768 18 39 41
6.747500 2.530312 26.357420 24 16 31
6.797190 2.529187 26.345697 17 29 19
6.846555 2.527959 26.332905 25 23 26
6.894246 2.526136 26.313915 42 29 18
6.943559 2.524931 26.301361 19 31 34
6.992053 2.523448 26.285913 17 41 32
7.037953 2.521058 26.261019 40 17 31
7.085053 2.519130 26.240938 38 44 20
7.129262 2.516210 26.210522 16 22 22
7.175168 2.513927 26.186745 29 17 41
7.221145 2.511703 26.163570 20 23 27
7.265610 2.508987 26.135286 33 32 36
7.313048 2.507331 26.118029 28 43 16
7.357900 2.504817 26.091845 24 34 43
7.403631 2.502636 26.069124 25 16 38
7.450544 2.500882 26.050854 30 35 40
7.497794 2.499265 26.034006 30 35 40
7.548251 2.498731 26.028450 30 35 40
7.599698 2.498531 26.026363 30 35 40
7.653396 2.499068 26.031960 30 35 40
7.706688 2.499466 26.036108 30 35 40
7.757217 2.498969 26.030930 30 35 40
7.806474 2.498072 26.021580 30 35 40
7.850472 2.495514 25.994942 30 35 40
7.893679 2.492741 25.966049 30 35 40
7.935056 2.489429 25.931557 30 35 40
7.975255 2.485794 25.893684 28 29 24
8.019811 2.483554 25.870358 42 38 15
8.058562 2.479557 25.828724 32 29 17
8.099324 2.476226 25.794025 20 18 36
8.138513 2.472460 25.754787 24 32 30
8.172567 2.467190 25.699898 24 36 30
8.211077 2.463323 25.659615 29 34 29
8.246563 2.458603 25.610443 38 27 39
8.289579 2.456172 25.585121 19 17 33
8.331805 2.453538 25.557684 44 40 38
8.365630 2.448477 25.504969 35 21 30
8.401977 2.444211 25.460535 32 32 36
8.429670 2.437495 25.390572 38 28 40
8.460578 2.431783 25.331072 27 27 25
8.492987 2.426568 25.276747 17 30 28
8.525695 2.421499 25.223949 36 35 30
8.568422 2.419319 25.201242 20 26 28
8.602798 2.414820 25.154379 28 22 30
8.638225 2.410668 25.111120 23 42 29
8.671527 2.405973 25.062216 40 39 31
8.699533 2.399871 24.998657 19 27 37
4.751480 2.739089 27.949884 20 39 23
4.788782 2.728492 27.841757 15 37 31
4.828588 2.719549 27.750504 23 22 35
4.869501 2.711427 27.667620 31 16 42
4.908852 2.702627 27.577822 24 42 33
4.955698 2.698102 27.531654 43 30 42
4.999443 2.692008 27.469469 37 44 22
5.046876 2.688010 27.428675 15 29 17
5.094553 2.684227 27.390070 27 17 15
5.138082 2.678362 27.330223 17 37 31
5.184507 2.674114 27.286877 15 26 15
5.226333 2.667607 27.220484 22 34 43
5.271082 2.662712 27.170527 20 31 15
5.315152 2.657576 27.118120 31 23 24
5.355172 2.650540 27.046324 26 38 32
5.399243 2.645629 26.996216 33 30 29
5.438576 2.638517 26.923645 16 31 19
5.481572 2.633304 26.870453 15 29 39
5.524639 2.628226 26.818634 33 23 32
5.564000 2.621500 26.750002 17 15 19
5.608013 2.617073 26.704824 120 120 120
5.647293 2.610541 26.638176 120 120 120
5.688991 2.605239 26.584070 120 120 120
5.732171 2.600707 26.537828 18 31 38
5.774690 2.595961 26.489403 27 36 20
5.822764 2.593777 26.467108 19 21 31
5.869291 2.590948 26.438248 39 42 41
5.917514 2.588913 26.417475 43 38 30
5.967035 2.587475 26.402811 42 28 43
6.015895 2.585780 26.385506 27 37 44
6.066876 2.585017 26.377724 39 28 17
6.117615 2.584165 26.369028 34 36 20
6.169760 2.583917 26.366497 40 18 26
6.221506 2.583507 26.362312 42 42 36
6.270960 2.582160 26.348572 15 35 35
6.320267 2.580776 26.334444 42 41 26
6.367549 2.578594 26.312185 33 19 21
6.415409 2.576681 26.292660 15 39 40
6.463759 2.574994 26.275444 31 18 21
6.512309 2.573412 26.259310 17 18 38
6.563256 2.572796 26.253023 44 26 34
6.614178 2.572180 26.246737 17 41 22
6.666451 2.572095 26.245871 22 15 17
6.718431 2.571899 26.243872 29 30 16
6.768272 2.570894 26.233612 33 31 34
6.817810 2.569790 26.222345 25 17 44
6.865613 2.568054 26.204628 18 42 44
6.914789 2.566854 26.192383 18 33 35
6.963015 2.565321 26.176748 24 17 37
7.008694 2.562881 26.151842 27 27 27
7.055554 2.560905 26.131681 32 31 27
7.099457 2.557893 26.100945 31 20 34
7.145049 2.555528 26.076820 17 30 37
7.190658 2.553205 26.053108 31 36 21
7.234647 2.550343 26.023911 35 21 38
7.281620 2.548567 26.005785 30 35 33
7.326151 2.545967 25.979259 40 25 33
7.371827 2.543800 25.957138 30 34 28
7.418700 2.542072 25.939510 34 15 41
7.465667 2.540401 25.922455 30 35 40
7.515716 2.539794 25.916262 30 35 40
7.566544 2.539456 25.912821 30 35 40
7.619633 2.539878 25.917120 30 35 40
7.672251 2.540137 25.919767 30 35 40
7.722045 2.539464 25.912903 30 35 40
7.770733 2.538439 25.902443 30 35 40
7.813952 2.535653 25.874012 30 35 40
7.856320 2.532629 25.843157 30 35 40
7.897079 2.529130 25.807447 22 21 39
7.936964 2.525398 25.769363 18 30 20
7.981546 2.523198 25.746922 20 15 41
8.020702 2.519323 25.707378 27 18 32
8.061894 2.516133 25.674822 39 25 35
8.101627 2.512530 25.638062 39 34 38
8.136260 2.507401 25.585724 27 40 25
8.175023 2.503601 25.546947 42 42 17
8.211084 2.499026 25.500261 29 20 16
8.254599 2.496761 25.477158 37 30 18
8.297300 2.494280 25.451839 42 33 21
8.331653 2.489335 25.401381 31 29 34
8.368175 2.485094 25.358105 40 21 27
8.396316 2.478431 25.290108 27 35 44
8.427835 2.472838 25.233040 26 33 38
8.460444 2.467630 25.179893 35 42 44
8.492468 2.462313 25.125645 36 17 20
8.533944 2.459784 25.099836 35 31 22
8.567310 2.454960 25.050613 21 44 41
8.602269 2.450646 25.006596 19 37 15
8.635683 2.445945 24.958620 31 38 36
4.738714 2.787479 27.874790 24 36 33
4.776746 2.777178 27.771776 36 43 18
4.818139 2.769045 27.690453 25 43 34
4.860539 2.761670 27.616699 22 27 16
4.900429 2.753050 27.530502 18 43 30
4.946771 2.748206 27.482061 39 18 21
4.989675 2.741580 27.415798 35 18 41
5.036228 2.737080 27.370802 16 19 38
5.083058 2.732827 27.328266 36 36 25
5.126097 2.726648 27.266476 35 19 32
5.172489 2.722363 27.223625 40 21 17
5.214072 2.715662 27.156624 25 39 17
5.258437 2.710534 27.105345 25 16 31
5.302014 2.705109 27.051094 30 31 40
5.341493 2.697724 26.977236 40 34 41
5.385138 2.692569 26.925688 24 16 20
5.423797 2.685048 26.850479 24 33 20
5.466160 2.679490 26.794903 32 38 15
5.508573 2.674065 26.740646 27 17 36
5.547166 2.666907 26.669067 39 33 42
5.590630 2.662205 26.622047 120 120 120
5.629360 2.655359 26.553587 120 120 120
5.670706 2.649863 26.498627 120 120 120
5.713689 2.645226 26.452263 40 21 21
5.756004 2.640369 26.403690 24 30 38
5.803960 2.638164 26.381636 31 42 21
5.850552 2.635384 26.353836 28 25 31
5.898909 2.633442 26.334415 15 43 41
5.948620 2.632133 26.321329 20 22 36
5.997691 2.630566 26.305664 24 35 22
6.048737 2.629886 26.298857 32 20 18
6.099528 2.629107 26.291071 18 26 41
6.151606 2.628892 26.288916 33 38 28
6.203209 2.628478 26.284782 28 19 34
6.252557 2.627125 26.271246 32 40 35
6.301728 2.625720 26.257198 39 35 20
6.348904 2.623514 26.235140 30 27 16
6.396649 2.621577 26.215773 21 24 24
6.444903 2.619879 26.198792 40 17 15
6.493404 2.618308 26.183083 20 38 18
6.544290 2.617716 26.177158 26 34 21
6.595156 2.617126 26.171255 21 36 29
6.647304 2.617049 26.170486 33 42 34
6.699188 2.616870 26.168705 36 22 24
6.749067 2.615918 26.159176 41 27 37
6.798661 2.614869 26.148695 33 32 28
6.846439 2.613145 26.131447 26 20 40
6.895433 2.611907 26.119066 34 26 32
6.943380 2.610293 26.102934 38 39 27
6.988770 2.607750 26.077501 41 22 43
7.035366 2.605691 26.056910 36 17 31
7.078883 2.602531 26.025307 42 21 33
7.124118 2.600043 26.000429 30 20 17
7.169325 2.597582 25.975817 44 33 30
7.212807 2.594535 25.945351 38 43 24
7.259364 2.592630 25.926300 16 31 34
7.303558 2.589914 25.899143 18 34 22
7.349136 2.587724 25.877239 27 25 17
7.395921 2.585987 25.859865 21 24 29
7.442614 2.584241 25.842409 18 25 38
7.492312 2.583556 25.835558 30 35 40
7.542642 2.583097 25.830967 30 35 40
7.595265 2.583424 25.834236 30 35 40
7.647380 2.583574 25.835745 30 35 40
7.696634 2.582763 25.827631 30 35 40
7.744940 2.581647 25.816467 30 35 40
7.787642 2.578689 25.786894 30 35 40
7.829459 2.575480 25.754799 15 31 26
7.869828 2.571839 25.718393 31 38 34
7.909543 2.568034 25.680336 25 27 21
7.954158 2.565858 25.658575 28 20 33
7.993665 2.562072 25.620720 36 38 42
8.035201 2.558981 25.589811 33 21 28
8.075406 2.555508 25.555082 29 36 21
8.110626 2.550511 25.505114 37 17 37
8.149729 2.546790 25.467903 28 16 27
8.186441 2.542373 25.423729 16 26 40
8.230461 2.540266 25.402658 29 39 44
8.273679 2.537938 25.379383 16 23 28
8.308697 2.533139 25.331392 36 20 34
8.345583 2.528965 25.289646 38 18 37
8.374415 2.522414 25.224142 15 23 26
8.406926 2.517044 25.170437 25 25 21
8.439845 2.511859 25.118587 42 41 26
8.470609 2.506097 25.060972 23 34 35
8.509942 2.502924 25.029242 16 32 29
8.542036 2.497671 24.976713 21 19 26
8.577291 2.493399 24.933987 37 37 31
8.611690 2.488928 24.889277 27 29 41
4.721575 2.832945 27.773968 20 39 36
4.760240 2.822933 27.675816 42 17 37
4.802942 2.815518 27.603113 21 43 19
4.846537 2.808789 27.537144 40 35 15
4.886843 2.800326 27.454172 34 40 17
4.932709 2.795202 27.403940 27 19 40
4.974797 2.788073 27.334049 28 16 32
5.020473 2.783088 27.285179 35 33 32
5.066433 2.778367 27.238888 20 25 20
5.108912 2.771856 27.175062 42 39 19
5.155166 2.767510 27.132454 28 17 25
5.196318 2.760544 27.064157 25 29 15
5.240087 2.755097 27.010759 25 29 25
5.282949 2.749290 26.953821 20 24 37
5.321620 2.741440 26.876867 25 17 33
5.364645 2.735969 26.823225 41 28 25
5.402356 2.727922 26.744337 15 22 31
5.443829 2.721915 26.685438 44 29 28
5.485313 2.716029 26.627735 15 36 43
5.522797 2.708295 26.551908 22 20 26
5.565447 2.703217 26.502127 120 120 120
5.603389 2.695970 26.431078 120 120 120
5.644237 2.690244 26.374941 120 120 120
5.686943 2.685501 26.328440 36 25 40
5.728959 2.680522 26.279627 36 36 32
5.776709 2.678292 26.257767 43 40 38
5.823342 2.675590 26.231272 23 16 34
5.871862 2.673794 26.213669 38 41 22
5.921799 2.672670 26.202650 26 18 15
5.971121 2.671291 26.189129 36 24 22
6.022222 2.670725 26.183575 37 33 37
6.072996 2.670024 26.176708 25 37 19
6.124859 2.669810 26.174610 43 32 18
6.176147 2.669352 26.170116 39 39 32
6.225213 2.667948 26.156357 30 20 41
6.274099 2.666492 26.142078 43 31 29
6.320956 2.664205 26.119654 33 35 19
6.368394 2.662198 26.099976 37 17 35
6.416334 2.660431 26.082657 30 19 38
6.464519 2.658794 26.066610 44 42 34
6.515124 2.658171 26.060497 28 40 32
6.565766 2.657572 26.054628 22 33 38
6.617734 2.657515 26.054071 23 24 26
6.669499 2.657378 26.052729 16 21 24
6.719321 2.656476 26.043880 44 37 17
6.768846 2.655470 26.034021 15 17 19
6.816434 2.653726 26.016924 37 16 42
6.865099 2.652425 26.004162 32 35 25
6.912609 2.650700 25.987253 15 36 17
6.957579 2.648034 25.961115 36 23 43
7.003798 2.645879 25.939993 22 41 29
7.046742 2.642528 25.907141 38 39 19
7.091395 2.639862 25.881004 15 41 23
7.135968 2.637206 25.854958 44 24 37
7.178717 2.633918 25.822721 37 25 32
7.224690 2.631851 25.802465 30 39 19
7.268403 2.628997 25.774479 20 16 37
7.313798 2.626787 25.752811 23 44 21
7.360439 2.625052 25.735802 41 36 29
7.406718 2.623213 25.717772 27 35 32
7.455903 2.622421 25.710009 44 35 39
7.505574 2.621810 25.704021 34 19 34
7.557615 2.622030 25.706175 23 15 39
7.609149 2.622072 25.706585 30 35 40
7.657786 2.621121 25.697269 26 30 37
7.705652 2.619922 25.685507 32 21 24
7.747856 2.616825 25.655151 15 23 33
7.789174 2.613473 25.622282 44 29 26
7.829227 2.609742 25.585711 44 33 35
7.868870 2.605924 25.548279 40 23 42
7.913565 2.603818 25.527630 25 19 20
7.953513 2.600187 25.492029 27 32 23
7.995443 2.597246 25.463194 31 27 22
8.036157 2.593950 25.430878 40 17 40
8.072066 2.589153 25.383854 30 39 42
8.111557 2.585559 25.348616 30 23 41
8.148975 2.581352 25.307377 21 27 16
8.193440 2.579416 25.288395 37 42 44
8.237162 2.577272 25.267368 16 23 40
8.273160 2.572751 25.223047 22 17 39
8.310801 2.568793 25.184244 31 21 32
8.340079 2.562313 25.120720 37 25 24
8.372522 2.556878 25.067430 32 41 31
8.404742 2.551440 25.014114 27 25 43
8.434086 2.545198 24.952917 20 21 44
8.471781 2.541534 24.917002 27 21 42
8.503227 2.536050 24.863235 41 24 36
8.539096 2.531941 24.822954 41 34 33
8.574838 2.527842 24.782768 42 19 33
4.748926 2.871443 27.610033 36 18 31
4.791862 2.864101 27.539434 36 17 32
4.835644 2.857426 27.475250 28 34 24
4.875964 2.848878 27.393057 44 18 17
4.921631 2.843609 27.342392 40 20 42
4.963408 2.836233 27.271473 41 28 27
5.008752 2.831033 27.221476 28 22 40
5.054366 2.826097 27.174011 28 35 17
5.096581 2.819385 27.109474 27 42 36
5.142707 2.814956 27.066881 19 29 22
5.183517 2.807739 26.997486 19 25 26
5.226852 2.802024 26.942535 41 37 24
5.269177 2.795890 26.883556 27 33 22
5.307248 2.787646 26.804285 16 29 16
5.349826 2.781910 26.749130 20 32 18
5.386827 2.773416 26.667461 25 18 44
5.427655 2.767040 26.606153 35 40 22
5.468444 2.760768 26.545845 23 32 42
5.505068 2.752534 26.466673 44 16 22
5.547072 2.747121 26.414627 120 120 120
5.584382 2.739508 26.341423 120 120 120
5.624852 2.733573 26.284353 120 120 120
5.667337 2.728718 26.237673 20 35 40
5.709093 2.723604 26.188499 41 16 28
5.756664 2.721332 26.166653 39 18 30
5.803274 2.718651 26.140875 33 35 26
5.851860 2.716935 26.124374 33 44 21
5.901916 2.715926 26.114672 44 18 40
5.951341 2.714647 26.102373 25 28 32
6.002418 2.714137 26.097469 24 22 39
6.053077 2.713448 26.090849 18 33 43
6.104695 2.713198 26.088442 38 30 17
6.155638 2.712654 26.083214 40 20 21
6.204364 2.711151 26.068758 16 24 33
6.252964 2.709618 26.054018 37 22 31
6.299455 2.707204 26.030807 42 39 31
6.346554 2.705088 26.010466 30 35 40
6.394164 2.703224 25.992535 32 32 26
6.441962 2.701468 25.975655 41 43 15
6.492254 2.700778 25.969017 31 36 16
6.542666 2.700148 25.962961 44 30 18
6.594534 2.700124 25.962732 26 24 33
6.646242 2.700036 25.961882 30 28 28
6.695961 2.699147 25.953339 21 21 19
6.745329 2.698132 25.943573 24 19 34
6.792666 2.696325 25.926207 22 16 20
6.841020 2.694947 25.912956 29 36 24
6.888170 2.693119 25.895374 26 30 43
6.932760 2.690325 25.868509 26 44 17
6.978670 2.688080 25.846926 17 27 44
7.021133 2.684551 25.812990 23 34 17
7.065292 2.681717 25.785736 34 38 41
7.109336 2.678880 25.758463 22 29 15
7.151494 2.675379 25.724798 25 30 27
7.197018 2.673178 25.703636 43 19 25
7.240341 2.670197 25.674967 16 42 40
7.285570 2.667955 25.653414 34 36 36
7.332054 2.666201 25.636551 23 41 23
7.377973 2.664268 25.617962 37 44 34
7.426747 2.663385 25.609472 44 20 38
7.475940 2.662664 25.602535 40 20 23
7.527573 2.662815 25.603991 29 25 31
7.578746 2.662803 25.603872 19 32 25
7.627020 2.661779 25.594028 29 43 19
7.674609 2.660531 25.582031 39 23 21
7.716602 2.657373 25.551662 15 23 25
7.757718 2.653956 25.518808 20 24 23
7.797686 2.650194 25.482635 30 25 41
7.837383 2.646389 25.446049 26 30 31
7.882153 2.644335 25.426300 32 40 15
7.922389 2.640796 25.392273 42 35 30
7.964554 2.637941 25.364820 31 25 24
8.005544 2.634736 25.334000 23 25 16
8.041807 2.630025 25.288702 41 36 44
8.081450 2.626471 25.254530 20 23 24
8.119151 2.622334 25.214754 35 26 21
8.163647 2.620430 25.196442 27 19 24
8.207542 2.618357 25.176508 36 20 38
8.244448 2.614093 25.135511 30 23 37
8.283059 2.610418 25.100178 42 19 21
8.312384 2.603879 25.037302 30 30 38
8.343573 2.597999 24.980757 34 39 31
8.374278 2.592038 24.923447 33 18 31
8.402846 2.585491 24.860491 25 30 32
8.440467 2.581790 24.824902 20 24 25
8.472460 2.576421 24.773275 36 37 41
8.509071 2.572510 24.735670 44 39 20
4.738101 2.919992 27.547098 24 38 34
4.780912 2.912509 27.476503 19 41 42
4.824527 2.905681 27.412085 18 39 22
4.864780 2.897004 27.330223 34 28 16
4.910397 2.891678 27.279984 41 43 17
4.952057 2.884165 27.209105 24 27 44
4.997199 2.878821 27.158691 22 39 40
5.042556 2.873715 27.110518 17 42 20
5.084503 2.866794 27.045227 37 26 43
5.130398 2.862222 27.002092 27 43 26
5.170782 2.854703 26.931156 41 39 40
5.213666 2.848704 26.874567 16 26 39
5.255466 2.842242 26.813601 23 16 26
5.292946 2.833597 26.732052 35 29 23
5.335077 2.827591 26.675386 32 16 34
5.371410 2.818661 26.591139 23 35 28
5.411652 2.811937 26.527704 34 34 31
5.451823 2.805307 26.465160 22 24 31
5.487684 2.796608 26.383097 28 17 28
5.529097 2.790878 26.329035 120 120 120
5.565854 2.782927 26.254028 120 120 120
5.606010 2.776809 26.196308 120 120 120
5.648325 2.771863 26.149652 27 25 43
5.689866 2.766632 26.100304 40 19 20
5.737266 2.764319 26.078480 44 36 44
5.783874 2.761670 26.053488 26 44 18
5.832544 2.760043 26.038141 39 28 27
5.882736 2.759159 26.029804 23 32 28
5.932306 2.758002 26.018887 17 40 43
5.983400 2.757567 26.014784 29 32 16
6.033963 2.756897 26.008463 31 37 18
6.085344 2.756609 26.005745 36 32 23
6.135948 2.755977 25.999781 28 29 34
6.184346 2.754372 25.984646 33 41 17
6.232664 2.752760 25.969435 18 27 22
6.278762 2.750202 25.945299 30 35 40
6.325479 2.747954 25.924095 30 35 40
6.372665 2.745945 25.905142 30 35 40
6.419951 2.744011 25.886900 31 28 23
6.469805 2.743197 25.879221 20 28 19
6.519866 2.742483 25.872484 33 38 19
6.571605 2.742481 25.872459 24 30 26
6.623236 2.742434 25.872017 22 33 28
6.672763 2.741523 25.863424 44 15 26
6.721900 2.740467 25.853462 29 38 26
6.768930 2.738575 25.835611 24 26 33
6.816980 2.737121 25.821896 27 29 37
6.863813 2.735204 25.803808 16 21 26
6.908098 2.732307 25.776484 31 31 33
6.953767 2.729998 25.754694 18 25 36
6.995824 2.726314 25.719942 40 17 35
7.039514 2.723316 25.691658 17 32 37
7.083061 2.720306 25.663263 26 38 43
7.124711 2.716616 25.628456 28 16 32
7.169845 2.714298 25.606588 15 21 18
7.212852 2.711214 25.577490 42 40 24
7.257929 2.708945 25.556089 24 34 28
7.304292 2.707185 25.539484 21 35 39
7.349916 2.705177 25.520540 17 18 23
7.398332 2.704218 25.511490 42 30 38
7.447155 2.703419 25.503956 43 29 31
7.498488 2.703536 25.505060 22 29 38
7.549432 2.703513 25.504839 22 26 32
7.597481 2.702460 25.494904 24 34 40
7.644888 2.701194 25.482962 44 25 31
7.686851 2.698034 25.453148 34 27 42
7.727960 2.694618 25.420921 39 43 43
7.768008 2.690879 25.385647 36 39 31
7.807865 2.687122 25.350212 40 40 40
7.852704 2.685118 25.331303 15 38 31
7.893173 2.681655 25.298632 27 16 24
7.935478 2.678856 25.272224 26 42 22
7.976648 2.675711 25.242558 28 22 42
8.013260 2.671087 25.198931 42 18 31
8.053113 2.667594 25.165977 41 26 40
8.091112 2.663534 25.127678 34 39 41
8.135659 2.661666 25.110060 39 30 30
8.179647 2.659640 25.090942 42 33 17
8.217186 2.655554 25.052395 25 39 24
8.256451 2.652072 25.019548 41 41 25
8.285451 2.645355 24.956179 39 37 24
8.315055 2.638910 24.895374 31 17 34
8.344113 2.632369 24.833670 34 25 36
8.372073 2.625561 24.769445 35 33 16
8.409999 2.621941 24.735291 43 43 33
8.442728 2.616752 24.686340 44 23 35
8.479942 2.613005 24.650993 16 29 35
4.766168 2.958311 27.391768 42 19 34
4.809998 2.951590 27.329536 41 31 30
4.850427 2.942956 27.249590 39 26 16
4.895984 2.937591 27.199913 23 36 25
4.937356 2.929860 27.128332 39 17 31
4.982049 2.924246 27.076353 44 28 36
5.026839 2.918810 27.026016 21 22 42
5.068266 2.911557 26.958864 28 24 20
5.113810 2.906797 26.914787 24 44 43
5.153573 2.898885 26.841528 42 35 26
5.195819 2.892518 26.782574 29 32 40
5.236903 2.885641 26.718895 31 23 30
5.273553 2.876483 26.634104 24 41 35
5.315073 2.870139 26.575363 17 30 32
5.350562 2.860696 26.487928 38 42 15
5.390079 2.853571 26.421955 40 35 39
5.429540 2.846555 26.356989 38 29 37
5.464520 2.837347 26.271730 23 23 44
5.505266 2.831280 26.215551 120 120 120
5.541445 2.823000 26.138893 120 120 120
5.581298 2.816730 26.080833 120 120 120
5.623495 2.811747 26.034698 41 44 31
5.664891 2.806460 25.985739 17 42 17
5.712163 2.804153 25.964376 38 38 43
5.758894 2.801624 25.940962 43 40 31
5.807768 2.800174 25.927536 20 33 23
5.858232 2.799509 25.921381 31 18 43
5.908148 2.798596 25.912930 23 18 19
5.959390 2.798322 25.910393 43 37 43
6.010008 2.797763 25.905209 23 43 43
6.061204 2.797479 25.902580 25 16 26
6.111463 2.796771 25.896030 22 30 31
6.159567 2.795098 25.880535 40 35 26
6.207607 2.793423 25.865030 30 35 40
6.253256 2.790709 25.839899 30 35 40
6.299511 2.788308 25.817667 30 35 40
6.346159 2.786119 25.797394 30 35 40
6.392749 2.783939 25.777214 30 35 40
6.442012 2.782949 25.768047 15 28 40
6.491530 2.782084 25.760040 40 24 30
6.542970 2.782050 25.759724 18 31 20
6.594408 2.782016 25.759405 23 29 34
6.643654 2.781064 25.750595 23 39 30
6.692511 2.779966 25.740427 18 29 40
6.739231 2.778004 25.722258 30 27 24
6.786989 2.776495 25.708290 25 29 19
6.833532 2.774517 25.689968 24 17 34
6.877564 2.771556 25.662554 37 17 42
6.923033 2.769213 25.640862 44 44 40
6.964724 2.765405 25.605602 25 37 42
7.007946 2.762256 25.576445 39 40 22
7.050975 2.759077 25.547012 39 16 16
7.092082 2.755197 25.511087 39 19 39
7.136786 2.752760 25.488522 27 41 44
7.179494 2.749594 25.459200 30 28 23
7.224486 2.747340 25.438332 15 17 42
7.270790 2.745613 25.422344 18 29 43
7.316148 2.743556 25.403292 24 23 42
7.364182 2.742523 25.393730 35 30 15
7.412628 2.741657 25.385712 22 40 26
7.463653 2.741750 25.386574 32 44 15
7.514342 2.741719 25.386292 22 25 36
7.562147 2.740644 25.376331 24 30 28
7.609334 2.739360 25.364447 33 34 28
7.651233 2.736202 25.335207 42 20 26
7.692313 2.732795 25.303661 24 31 25
7.732433 2.729094 25.269388 18 16 42
7.772471 2.725412 25.235294 24 29 19
7.817393 2.723479 25.217398 25 32 23
7.858177 2.720138 25.186464 35 37 15
7.900638 2.717417 25.161266 22 37 41
7.942099 2.714388 25.133224 38 16 42
7.979364 2.709973 25.092340 31 26 34
8.019749 2.706665 25.061714 19 29 22
8.058480 2.702844 25.026335 15 38 18
8.103499 2.701166 25.010799 35 27 24
8.147778 2.699264 24.993183 29 24 38
8.185635 2.695270 24.956203 19 38 27
8.224910 2.691789 24.923969 17 41 27
8.253412 2.684845 24.859674 26 36 27
8.282067 2.678034 24.796608 29 33 30
8.310075 2.671096 24.732367 43 26 15
8.337277 2.663982 24.666500 29 32 36
8.374875 2.660254 24.631985 20 18 35
8.407599 2.655031 24.583624 33 41 26
4.800316 3.000198 27.274523 20 41 21
4.840984 2.991619 27.196539 38 20 22
4.886565 2.986234 27.147585 28 19 26
4.927771 2.978323 27.075663 43 29 25
4.972131 2.972470 27.022453 28 39 18
5.016462 2.966725 26.970224 42 20 17
5.057459 2.959151 26.901377 34 44 38
5.102706 2.954198 26.856350 24 21 42
5.141987 2.945930 26.781181 35 20 39
5.183779 2.939256 26.720509 28 33 39
5.224373 2.932046 26.654963 36 24 34
5.260448 2.922471 26.567921 35 16 22
5.301541 2.915847 26.507704 39 35 19
5.336490 2.906010 26.418268 28 15 39
5.375582 2.898598 26.350891 21 42 35
5.414657 2.891321 26.284740 44 31 26
5.449149 2.881762 26.197832 21 25 15
5.489523 2.875465 26.140587 120 120 120
5.525433 2.866970 26.063362 120 120 120
5.565163 2.860598 26.005434 120 120 120
5.607371 2.855606 25.960051 16 17 31
5.648761 2.850292 25.911747 15 17 18
5.696000 2.848000 25.890909 22 17 26
5.742895 2.845579 25.868898 28 22 31
5.791957 2.844265 25.856951 17 18 15
5.842671 2.843778 25.852526 31 27 23
5.892919 2.843075 25.846136 26 21 34
5.944350 2.842950 25.844999 28 22 26
5.995107 2.842508 25.840981 36 26 29
6.046249 2.842254 25.838669 35 26 19
6.096335 2.841512 25.831928 32 17 17
6.144316 2.839810 25.816456 19 35 18
6.192215 2.838098 25.800894 30 24 15
6.237584 2.835265 25.775141 30 35 40
6.283533 2.832740 25.752186 30 35 40
6.329779 2.830389 25.730810 30 35 40
6.375843 2.827995 25.709044 15 37 42
6.424641 2.826842 25.698563 29 44 27
6.473702 2.825822 25.689295 19 19 39
6.524862 2.825728 25.688435 35 18 29
6.576104 2.825670 25.687908 17 29 42
6.625098 2.824654 25.678673 26 43 35
6.673761 2.823514 25.668310 20 36 15
6.720294 2.821498 25.649979 36 22 32
6.767900 2.819958 25.635986 40 22 37
6.814336 2.817959 25.617805 24 29 27
6.858308 2.814977 25.590700 30 17 40
6.903733 2.812632 25.569380 21 27 16
6.945303 2.808762 25.534201 28 42 44
6.988294 2.805519 25.504723 31 29 16
7.031051 2.802230 25.474821 39 32 42
7.071889 2.798229 25.438448 19 36 36
7.116378 2.795720 25.415636 16 41 20
7.158974 2.792508 25.386433 22 19 18
7.203978 2.790273 25.366121 41 15 15
7.250304 2.788578 25.350712 35 41 36
7.295574 2.786504 25.331856 40 20 28
7.343422 2.785436 25.322144 36 28 32
7.391715 2.784550 25.314093 33 40 36
7.442630 2.784657 25.315067 18 29 38
7.493229 2.784646 25.314962 19 29 42
7.540950 2.783572 25.305201 16 32 25
7.588046 2.782283 25.293486 31 15 29
7.629959 2.779124 25.264765 34 18 27
7.671096 2.775725 25.233868 21 21 24
7.711324 2.772045 25.200405 41 34 39
7.751499 2.768393 25.167206 27 23 39
7.796477 2.766492 25.149925 32 32 44
7.837444 2.763202 25.120014 32 31 28
7.879968 2.760498 25.095440 44 42 18
7.921626 2.757528 25.068436 21 33 44
7.959427 2.753261 25.029644 35 19 29
8.000322 2.750111 25.001005 34 32 15
8.039735 2.746493 24.968121 31 29 20
8.085302 2.745010 24.954636 24 44 19
8.129835 2.743196 24.938143 31 27 32
8.167534 2.739112 24.901018 17 26 16
8.206251 2.735417 24.867426 43 19 33
8.234238 2.728211 24.801922 34 39 33
