ply
format ascii 1.0
element vertex 1289
property float x
property float y
property float z
property uchar red
property uchar green
property uchar blue
end_header
5.659419 2.027959 23.580914 40 21 24
5.697494 2.024729 23.543362 41 16 18
5.737650 2.022286 23.514957 24 34 23
5.777527 2.019786 23.485882 33 32 36
5.815212 2.016565 23.448435 23 21 24
5.855935 2.014442 23.423738 39 35 17
5.893801 2.011377 23.388100 23 43 44
5.934376 2.009277 23.363684 15 31 18
5.974410 2.007028 23.337538 35 26 36
6.010919 2.003640 23.298136 29 17 26
6.049881 2.001115 23.268774 17 23 29
6.084060 1.997058 23.221603 30 35 40
6.120406 1.993769 23.183357 30 35 40
6.156428 1.990424 23.144464 30 35 40
6.189772 1.986270 23.096163 30 35 40
6.227637 1.983618 23.065323 30 35 40
6.261764 1.979823 23.021193 30 35 40
6.298146 1.976790 22.985935 30 35 40
6.336182 1.974318 22.957182 30 35 40
6.373656 1.971707 22.926821 30 35 40
6.415694 1.970535 22.913193 15 22 25
6.458686 1.969670 22.903141 44 33 20
6.504158 1.969569 22.901964 43 15 29
6.551375 1.969994 22.906906 39 19 44
6.597840 1.970188 22.909168 23 15 31
6.644195 1.970347 22.911016 25 20 27
6.692135 1.970971 22.918272 33 38 15
6.740646 1.971754 22.927368 31 34 16
6.789515 1.972629 22.937550 44 28 32
6.838618 1.973561 22.948383 34 21 25
6.886464 1.974120 22.954880 44 39 15
6.933163 1.974345 22.957495 27 32 17
6.978721 1.974244 22.956320 16 43 24
7.022445 1.973628 22.949165 40 29 28
7.065276 1.972772 22.939207 41 23 24
7.108302 1.971981 22.930008 35 19 34
7.146249 1.969799 22.904644 43 35 42
7.183802 1.967538 22.878351 20 33 18
7.219254 1.964734 22.845739 32 26 16
7.251367 1.961061 22.803040 22 25 26
7.286963 1.958371 22.771759 43 24 30
7.322336 1.955655 22.740173 36 40 36
7.362298 1.954190 22.723143 30 40 21
7.406144 1.953768 22.718233 15 36 27
7.451872 1.953844 22.719122 42 18 18
7.500642 1.954713 22.729219 39 17 18
7.546634 1.954851 22.730825 39 28 28
7.588171 1.953841 22.719076 31 44 43
7.629901 1.952891 22.708038 19 38 31
7.674113 1.952585 22.704475 38 43 24
7.720581 1.952853 22.707592 28 23 27
7.776356 1.955458 22.737883 28 19 40
7.835009 1.958752 22.776190 22 43 26
7.899080 1.963355 22.829712 19 36 29
7.968145 1.969139 22.896969 31 22 21
8.031359 1.973420 22.946739 21 21 43
8.100725 1.979154 23.013424 23 38 28
8.159747 1.982311 23.050133 42 44 15
4.644975 2.270877 25.805416 43 35 21
4.666455 2.256308 25.639860 25 40 20
4.697326 2.246547 25.528944 31 40 33
4.731022 2.238333 25.435600 35 37 43
4.759124 2.227675 25.314491 18 33 33
4.796037 2.221323 25.242302 43 24 17
4.827059 2.212402 25.140930 25 32 24
4.863934 2.206321 25.071825 20 32 17
4.900442 2.200199 25.002256 31 32 15
4.930373 2.191277 24.900873 41 22 23
4.965742 2.184927 24.828711 33 41 28
4.990932 2.174267 24.707582 31 24 26
5.020325 2.165630 24.609434 18 41 21
5.047669 2.156286 24.503246 33 40 21
5.067829 2.144082 24.364565 38 20 31
5.096607 2.135721 24.269556 120 120 120
5.115743 2.123516 24.130865 120 120 120
5.140814 2.113980 24.022497 120 120 120
5.168034 2.105495 23.926083 25 28 32
5.191646 2.095710 23.814888 36 16 24
5.225804 2.090321 23.753653 21 30 32
5.257630 2.084105 23.683016 16 34 21
5.294988 2.080174 23.638338 41 31 20
5.336502 2.077930 23.612843 28 21 27
5.377694 2.075601 23.586376 31 31 19
5.423616 2.075123 23.580938 24 39 41
5.468344 2.074200 23.570450 40 29 42
5.513958 2.073625 23.563921 27 18 38
5.558423 2.072632 23.552639 21 43 35
5.599510 2.070407 23.527353 39 33 37
5.640737 2.068270 23.503073 44 38 21
5.678890 2.065051 23.466488 17 32 28
5.719100 2.062626 23.438936 19 23 34
5.758989 2.060126 23.410522 26 24 26
5.796606 2.056860 23.373413 44 32 43
5.837145 2.054675 23.348581 34 44 33
5.874836 2.051530 23.312840 41 41 27
5.915241 2.049375 23.288349 16 31 34
5.955124 2.047074 23.262203 21 26 26
5.991517 2.043618 23.222933 17 39 44
6.030374 2.041050 23.193745 30 35 40
6.064576 2.036957 23.147236 30 35 40
6.100961 2.033654 23.109701 30 35 40
6.137103 2.030320 23.071815 30 35 40
6.170693 2.026198 23.024973 30 35 40
6.208730 2.023586 22.995296 30 35 40
6.243087 2.019822 22.952524 30 35 40
6.279585 2.016801 22.918194 30 35 40
6.317610 2.014310 22.889891 30 35 40
6.355027 2.011663 22.859808 30 35 40
6.396885 2.010450 22.846018 30 35 40
6.439442 2.009471 22.834900 42 25 17
6.484410 2.009254 22.832430 27 26 23
6.530968 2.009529 22.835552 40 38 33
6.576648 2.009531 22.835583 36 42 23
6.622382 2.009550 22.835800 32 26 31
6.669454 2.009973 22.840597 29 38 24
6.717268 2.010611 22.847849 23 18 25
6.765430 2.011344 22.856182 37 34 44
6.813666 2.012089 22.864653 26 44 21
6.860888 2.012527 22.869627 31 18 33
6.906583 2.012514 22.869480 35 24 32
6.950963 2.012121 22.865011 17 42 31
6.993861 2.011306 22.855755 18 19 41
7.036442 2.010412 22.845591 41 24 23
7.079809 2.009752 22.838093 21 42 34
7.118974 2.007916 22.817225 29 40 37
7.158066 2.006082 22.796389 31 38 28
7.195019 2.003676 22.769047 44 29 38
7.228041 2.000213 22.729689 35 35 21
7.263562 1.997480 22.698631 36 40 21
7.299267 1.994831 22.668530 35 34 22
7.339887 1.993549 22.653971 22 31 32
7.384195 1.993280 22.650906 22 29 22
7.429807 1.993363 22.651852 23 34 32
7.477940 1.994117 22.660423 20 40 41
7.523694 1.994232 22.661730 28 19 16
7.565397 1.993278 22.650890 18 44 33
7.607675 1.992486 22.641890 31 32 15
7.652756 1.992433 22.641289 30 40 28
7.699997 1.992940 22.647049 19 26 20
7.756692 1.995874 22.680386 15 19 35
7.815877 1.999410 22.720572 40 22 19
7.880273 2.004231 22.775356 35 25 19
7.949995 2.010344 22.844814 30 43 20
8.013655 2.014862 22.896158 23 22 33
8.082202 2.020550 22.960800 30 16 30
4.636681 2.318340 25.759336 17 20 32
4.658394 2.303601 25.595570 44 18 19
4.689427 2.293742 25.486017 28 32 17
4.723085 2.285364 25.392931 28 38 42
4.751088 2.274457 25.271744 20 32 31
4.787778 2.267895 25.198833 42 41 15
4.818345 2.258599 25.095545 30 22 28
4.854744 2.252201 25.024456 31 21 26
4.890688 2.245724 24.952492 25 16 31
4.919982 2.236355 24.848392 34 42 32
4.954887 2.229699 24.774437 29 18 36
4.979536 2.218605 24.651171 30 27 29
5.008501 2.209633 24.551474 23 26 24
5.035541 2.199993 24.444372 38 40 25
5.055436 2.187448 24.304983 35 16 20
5.084098 2.178899 24.209991 120 120 120
5.103290 2.166491 24.072121 120 120 120
5.128489 2.156841 23.964901 120 120 120
5.155919 2.148300 23.869997 22 28 43
5.179781 2.138442 23.760462 33 38 43
5.214079 2.133032 23.700357 40 20 17
5.246108 2.126801 23.631117 35 35 20
5.283570 2.122863 23.587368 15 39 21
5.325146 2.120633 23.562592 23 27 26
5.366445 2.118333 23.537039 16 44 43
5.412391 2.117892 23.532133 29 29 44
5.457058 2.116962 23.521803 30 35 40
5.502461 2.116331 23.514791 41 22 23
5.546712 2.115271 23.503016 29 37 36
5.587734 2.113009 23.477875 20 31 44
5.628988 2.110870 23.454115 22 28 39
5.667203 2.107638 23.418196 22 40 36
5.707450 2.105207 23.391188 41 15 27
5.747315 2.102676 23.363068 40 37 16
5.784837 2.099336 23.325956 44 21 29
5.825202 2.097073 23.300806 34 24 41
5.862691 2.093818 23.264647 15 34 17
5.902927 2.091588 23.239870 38 39 34
5.942653 2.089214 23.213490 28 40 26
5.978886 2.085658 23.173977 33 35 39
6.017612 2.083020 23.144663 30 35 40
6.051766 2.078851 23.098343 30 35 40
6.088127 2.075498 23.061087 30 35 40
6.124327 2.072141 23.023785 30 35 40
6.158067 2.068008 22.977861 30 35 40
6.196230 2.065410 22.949001 30 35 40
6.230757 2.061648 22.907196 30 35 40
6.267342 2.058616 22.873512 30 35 40
6.305387 2.056105 22.845606 30 35 40
6.342815 2.053429 22.815880 30 35 40
6.384602 2.052194 22.802151 30 35 40
6.426944 2.051152 22.790583 25 29 26
6.471640 2.050872 22.787464 38 31 33
6.517822 2.051063 22.789587 35 16 34
6.563037 2.050949 22.788322 37 35 31
6.608389 2.050879 22.787550 30 25 21
6.654904 2.051169 22.790768 32 39 22
6.702258 2.051712 22.796797 17 36 33
6.749937 2.052346 22.803843 16 24 34
6.797592 2.052964 22.810713 38 31 30
6.844399 2.053320 22.814665 25 39 33
6.889344 2.053116 22.812399 18 19 42
6.932838 2.052485 22.805387 42 36 35
6.975042 2.051483 22.794256 41 30 44
7.017194 2.050479 22.783098 35 24 43
7.060540 2.049834 22.775934 21 41 36
7.100649 2.048264 22.758490 22 36 44
7.141252 2.046856 22.742840 39 34 22
7.179834 2.044889 22.720993 40 20 42
7.214019 2.041704 22.685595 34 18 35
7.249783 2.039002 22.655573 27 23 36
7.285904 2.036433 22.627031 32 30 34
7.326950 2.035264 22.614044 27 37 40
7.371478 2.035071 22.611895 26 32 35
7.417087 2.035176 22.613071 22 16 39
7.464928 2.035889 22.620993 33 17 34
7.510452 2.035966 22.621843 17 26 17
7.551956 2.034958 22.610647 22 29 26
7.594292 2.034185 22.602060 22 41 36
7.639930 2.034301 22.603342 15 43 15
7.687891 2.035030 22.611444 35 17 16
7.745176 2.038204 22.646713 34 30 31
7.804413 2.041852 22.687246 20 32 24
7.868666 2.046763 22.741810 28 31 35
7.938543 2.053071 22.811905 38 19 31
8.002390 2.057757 22.863972 21 26 18
8.070409 2.063457 22.927298 41 27 26
4.624886 2.363830 25.693810 20 21 32
4.646809 2.348936 25.531916 28 39 20
4.677933 2.338967 25.423552 20 39 34
4.711340 2.330340 25.329784 34 31 42
4.738928 2.319050 25.207066 24 41 40
4.775084 2.312146 25.132021 20 25 19
4.804776 2.302289 25.024876 36 30 26
4.840380 2.295438 24.950411 44 25 42
4.875459 2.288481 24.874790 42 28 18
4.903757 2.278513 24.766449 15 44 29
4.937972 2.271467 24.689861 43 42 25
4.961821 2.259839 24.563471 26 37 41
4.990166 2.250467 24.461599 33 38 42
5.016795 2.240510 24.353374 33 20 23
5.036372 2.227626 24.213329 30 27 44
5.064937 2.218925 24.118750 120 120 120
5.084245 2.206371 23.982288 120 120 120
5.109609 2.196654 23.876678 120 120 120
5.137288 2.188104 23.783739 31 18 23
5.161438 2.178221 23.676319 27 17 42
5.195859 2.172814 23.617540 32 25 27
5.228091 2.166596 23.549961 27 26 25
5.265647 2.162676 23.507351 40 34 41
5.307250 2.160473 23.483406 40 29 19
5.348623 2.158216 23.458874 23 32 40
5.394531 2.157812 23.454481 30 35 40
5.439105 2.156886 23.444416 30 35 40
5.484268 2.156208 23.437042 30 35 40
5.528308 2.155103 23.425035 29 24 35
5.569329 2.152850 23.400541 31 19 23
5.610664 2.150754 23.377766 36 33 33
5.649046 2.147571 23.343164 16 40 15
5.689400 2.145183 23.317211 43 42 16
5.729298 2.142664 23.289831 32 30 25
5.766780 2.139289 23.253143 15 39 41
5.806964 2.136963 23.227856 32 23 38
5.844264 2.133620 23.191523 16 42 41
5.884322 2.131329 23.166620 39 39 22
5.923875 2.128892 23.140135 39 38 24
5.959949 2.125253 23.100578 35 21 34
5.998534 2.122558 23.071285 30 35 40
6.032673 2.118343 23.025471 30 35 40
6.069052 2.114973 22.988832 30 35 40
6.105369 2.111632 22.952517 30 35 40
6.139339 2.107534 22.907982 30 35 40
6.177673 2.104985 22.880270 30 35 40
6.212436 2.101265 22.839838 30 35 40
6.249155 2.098256 22.807135 30 35 40
6.287241 2.095747 22.779860 30 35 40
6.324713 2.093070 22.750765 30 35 40
6.366418 2.091823 22.737206 30 35 40
6.408493 2.090714 22.725151 43 24 15
6.452838 2.090356 22.721262 23 28 44
6.498520 2.090433 22.722099 27 43 35
6.543125 2.090165 22.719183 37 42 29
6.587961 2.089974 22.717106 35 28 30
6.633708 2.090073 22.718180 27 43 44
6.680426 2.090473 22.722536 27 31 33
6.727386 2.090944 22.727655 37 37 37
6.774095 2.091331 22.731861 44 17 15
6.820160 2.091516 22.733866 17 27 38
6.863882 2.090984 22.728085 38 27 41
6.906007 2.089976 22.717129 28 31 44
6.947169 2.088691 22.703165 17 15 16
6.988746 2.087547 22.690733 34 18 18
7.032178 2.086969 22.684446 36 44 35
7.073398 2.085746 22.671148 19 36 33
7.115424 2.084774 22.660585 29 40 17
7.155875 2.083356 22.645174 40 34 41
7.192267 2.080782 22.617191 31 25 26
7.229495 2.078480 22.592173 18 39 22
7.267017 2.076290 22.568375 28 30 35
7.308747 2.075323 22.557861 17 30 15
7.353183 2.075131 22.555775 44 26 38
7.398205 2.075106 22.555502 41 36 33
7.444972 2.075568 22.560522 40 20 44
7.489589 2.075428 22.559002 26 18 24
7.530549 2.074283 22.546555 16 18 19
7.573016 2.073564 22.538738 23 31 39
7.619638 2.073984 22.543306 44 31 19
7.668940 2.075125 22.555706 44 30 27
7.727914 2.078854 22.596239 27 36 25
7.788590 2.082995 22.641251 16 20 16
7.853478 2.088208 22.697912 23 18 40
7.922701 2.094507 22.766382 36 31 42
7.984859 2.098877 22.813883 16 28 27
8.051474 2.104362 22.873505 26 39 33
4.616449 2.410812 25.646936 44 16 20
4.638111 2.395508 25.484127 42 27 33
4.669176 2.385340 25.375956 24 33 41
4.702337 2.376450 25.281380 25 16 41
4.729437 2.364718 25.156578 30 42 27
4.765051 2.357446 25.079216 21 27 19
4.793966 2.347046 24.968573 28 44 31
4.828925 2.339788 24.891367 43 15 29
4.863359 2.332427 24.813055 38 22 44
4.890909 2.321947 24.701561 24 17 40
4.924606 2.314565 24.623032 32 36 19
4.947888 2.302483 24.494497 43 25 31
4.975795 2.292768 24.391151 34 24 43
5.002164 2.282541 24.282349 18 37 42
5.021584 2.269370 24.142233 42 23 15
5.050149 2.260543 24.048328 120 120 120
5.069601 2.247842 23.913212 120 120 120
5.095099 2.238034 23.808872 120 120 120
5.122945 2.229430 23.717339 39 40 22
5.147282 2.219470 23.611385 19 25 20
5.181760 2.214025 23.553455 43 19 32
5.214106 2.207775 23.486963 20 24 35
5.251708 2.203842 23.445126 36 25 38
5.293315 2.201644 23.421749 43 27 15
5.334721 2.199402 23.397898 30 35 40
5.380579 2.199019 23.393824 30 35 40
5.425089 2.198096 23.384005 30 35 40
5.470089 2.197386 23.376450 30 35 40
5.514013 2.196260 23.364464 30 35 40
5.555107 2.194034 23.340784 42 21 27
5.596571 2.191990 23.319046 34 22 21
5.635183 2.188873 23.285881 33 32 34
5.675699 2.186540 23.261061 23 36 19
5.715715 2.184054 23.234615 34 23 31
5.753288 2.180682 23.198742 44 33 31
5.793412 2.178323 23.173649 22 39 36
5.830689 2.174939 23.137653 44 16 34
5.870705 2.172623 23.113010 23 27 17
5.910210 2.170155 23.086760 43 44 26
5.946256 2.166465 23.047503 30 35 40
5.984782 2.163729 23.018391 30 35 40
6.018968 2.159477 22.973162 30 35 40
6.055416 2.156095 22.937183 30 35 40
6.091844 2.152757 22.901669 30 35 40
6.125996 2.148670 22.858192 30 35 40
6.164445 2.146140 22.831276 30 35 40
6.199368 2.142429 22.791796 30 35 40
6.236166 2.139415 22.759729 30 35 40
6.274267 2.136888 22.732851 30 35 40
6.311755 2.134190 22.704153 30 35 40
6.353397 2.132926 22.690702 30 35 40
6.395246 2.131749 22.678177 30 35 40
6.439305 2.131319 22.673609 35 21 37
6.484578 2.131295 22.673349 28 42 44
6.528689 2.130891 22.669058 42 43 17
6.573119 2.130597 22.665928 38 33 43
6.618254 2.130534 22.665255 42 24 28
6.664485 2.130822 22.668318 37 18 24
6.710859 2.131151 22.671822 36 34 39
6.756749 2.131324 22.673655 43 20 36
6.802154 2.131341 22.673845 38 26 15
6.844833 2.130511 22.665010 37 33 24
6.885854 2.129179 22.650837 37 27 24
6.926200 2.127656 22.634642 38 30 37
6.967408 2.126417 22.621456 28 28 25
7.011016 2.125921 22.616180 44 24 44
7.052984 2.124938 22.605719 16 17 41
7.095574 2.124153 22.597368 39 29 22
7.137217 2.123096 22.586128 18 44 31
7.176079 2.121231 22.566286 25 29 38
7.215693 2.119610 22.549040 18 44 31
7.255188 2.117974 22.531639 33 31 21
7.297536 2.117186 22.523260 33 32 15
7.341472 2.116866 22.519854 36 40 22
7.385400 2.116547 22.516462 20 19 15
7.430659 2.116612 22.517149 28 28 20
7.473755 2.116063 22.511311 39 37 24
7.513681 2.114629 22.496050 17 37 15
7.555920 2.113858 22.487856 23 15 38
7.603096 2.114470 22.494366 18 15 39
7.653536 2.115978 22.510401 15 40 34
7.714770 2.120434 22.557808 39 43 20
7.778311 2.125469 22.611370 31 30 31
7.845098 2.131327 22.673695 39 44 26
7.913617 2.137586 22.740280 21 39 39
7.973013 2.141323 22.780037 42 33 30
8.037711 2.146434 22.834406 36 34 16
4.630187 2.442297 25.440590 28 30 22
4.661172 2.431916 25.332455 35 28 32
4.693883 2.422649 25.235931 25 19 20
4.720376 2.410405 25.108381 34 22 41
4.755370 2.402713 25.028261 19 32 17
4.783410 2.391705 24.913593 28 39 33
4.817664 2.383999 24.833319 42 21 34
4.851414 2.376203 24.752111 38 43 37
4.878159 2.365168 24.637165 16 26 36
4.911321 2.357434 24.556606 39 16 16
4.934012 2.344877 24.425802 16 34 22
4.961471 2.334810 24.320934 35 27 29
4.987569 2.324304 24.211500 29 43 16
5.006817 2.310838 24.071234 25 18 24
5.035371 2.301884 23.977955 120 120 120
5.054922 2.289021 23.843973 120 120 120
5.080509 2.279107 23.740698 120 120 120
5.108460 2.270427 23.650276 36 19 22
5.132895 2.260357 23.545389 43 18 23
5.167368 2.254852 23.488037 26 33 35
5.199737 2.248535 23.422239 22 26 22
5.237325 2.244568 23.380917 39 33 31
5.278884 2.242358 23.357893 43 28 28
5.320226 2.240095 23.334326 23 33 37
5.365965 2.239707 23.330282 30 35 40
5.410403 2.238787 23.320702 30 35 40
5.455320 2.238080 23.313334 30 35 40
5.499225 2.236973 23.301800 34 42 38
5.540406 2.234786 23.279018 36 30 28
5.581958 2.232783 23.258160 29 30 26
5.620741 2.229716 23.226204 22 41 24
5.661375 2.227426 23.202356 28 44 16
5.701458 2.224959 23.176659 42 18 38
5.739077 2.221578 23.141441 29 25 25
5.779136 2.219188 23.116545 24 15 16
5.816357 2.215755 23.080780 34 31 26
5.856286 2.213399 23.056244 17 21 32
5.895712 2.210892 23.030127 35 42 15
5.931700 2.207144 22.991087 37 25 44
5.970155 2.204365 22.962133 30 35 40
6.004385 2.200080 22.917500 30 35 40
6.040893 2.196688 22.882170 30 35 40
6.077439 2.193361 22.847513 30 35 40
6.111763 2.189288 22.805086 30 35 40
6.150314 2.186778 22.778942 30 35 40
6.185410 2.183086 22.740479 30 35 40
6.222323 2.180084 22.709209 30 35 40
6.260483 2.177559 22.682911 30 35 40
6.298058 2.174869 22.654886 30 35 40
6.339691 2.173608 22.641752 30 35 40
6.381439 2.172405 22.629215 22 39 17
6.425335 2.171944 22.624420 37 34 37
6.470347 2.171865 22.623592 31 35 19
6.514143 2.171381 22.618551 18 35 18
6.558293 2.171021 22.614803 26 28 37
6.602970 2.170839 22.612911 21 20 40
6.648813 2.171041 22.615009 27 40 24
6.694671 2.171245 22.617130 15 26 29
6.739808 2.171213 22.616804 29 27 31
6.784553 2.171057 22.615177 38 19 33
6.826216 2.169923 22.603365 42 17 31
6.866188 2.168270 22.586143 28 24 24
6.905742 2.166507 22.567785 29 20 39
6.946573 2.165166 22.553808 18 17 18
6.990329 2.164747 22.549448 29 36 43
7.032758 2.163925 22.540890 31 24 19
7.075510 2.163213 22.533472 40 33 21
7.117858 2.162387 22.524866 33 40 18
7.158630 2.161096 22.511415 27 23 28
7.200258 2.160077 22.500805 20 23 18
7.241426 2.158935 22.488901 33 23 37
7.284291 2.158308 22.482380 30 16 29
7.327802 2.157880 22.477921 33 22 18
7.370781 2.157302 22.471893 31 16 16
7.414712 2.157007 22.468824 21 18 31
7.456779 2.156177 22.460178 33 22 23
7.496271 2.154617 22.443924 32 32 43
7.538847 2.153956 22.437046 44 21 21
7.587086 2.154912 22.447001 25 37 20
7.638862 2.156855 22.467241 31 30 44
7.701991 2.161962 22.520441 18 21 34
7.767576 2.167696 22.580164 21 25 20
7.835251 2.173943 22.645235 39 15 22
7.902053 2.179877 22.707048 43 39 16
7.958079 2.182787 22.737368 30 38 37
4.620799 2.488122 25.389004 42 15 31
4.651708 2.477540 25.281019 28 31 32
4.683479 2.467640 25.179996 27 19 38
4.709145 2.454767 25.048645 26 43 18
4.743371 2.446581 24.965109 18 21 25
4.770287 2.434834 24.845247 26 41 24
4.803604 2.426563 24.760845 29 27 41
4.836432 2.418216 24.675674 35 31 21
4.862123 2.406505 24.556177 25 19 16
4.894594 2.398351 24.472969 20 33 35
4.916489 2.385227 24.339052 16 41 36
4.943331 2.374737 24.232014 16 32 23
4.969016 2.363901 24.121439 28 16 26
4.987928 2.350082 23.980425 34 27 18
5.016370 2.340973 23.887476 120 120 120
5.035943 2.327936 23.754448 120 120 120
5.061582 2.317921 23.652252 120 120 120
5.089627 2.309183 23.563089 20 15 22
5.114132 2.299014 23.459322 43 16 25
5.148551 2.293445 23.402504 34 17 22
5.180903 2.287065 23.337402 39 28 33
5.218439 2.283067 23.296604 31 19 29
5.259892 2.280838 23.273859 15 33 23
5.301085 2.278536 23.250372 37 30 20
5.346609 2.278120 23.246124 25 15 38
5.390911 2.277195 23.236685 30 35 40
5.435757 2.276514 23.229731 30 19 38
5.479643 2.275445 23.218824 27 21 35
5.520849 2.273291 23.196846 40 23 39
5.562381 2.271305 23.176586 20 15 35
5.601188 2.268250 23.145405 20 32 44
5.641807 2.265972 23.122160 33 25 30
5.681818 2.263488 23.096821 43 22 28
5.719306 2.260048 23.061718 28 40 16
5.759150 2.257587 23.036600 33 16 16
5.796116 2.254045 23.000462 29 36 32
5.835787 2.251603 22.975538 17 17 43
5.874968 2.249011 22.949095 35 19 33
5.910756 2.245171 22.909908 20 44 26
5.949057 2.242337 22.880987 30 35 40
5.983282 2.238022 22.836956 30 35 40
6.019827 2.234633 22.802374 30 35 40
6.056505 2.231344 22.768814 30 35 40
6.091059 2.227327 22.727831 30 35 40
6.129757 2.224875 22.702805 30 35 40
6.165141 2.221264 22.665958 30 35 40
6.202244 2.218321 22.635927 30 35 40
6.240566 2.215853 22.610746 30 35 40
6.278337 2.213227 22.583946 30 35 40
6.320004 2.212001 22.571442 30 35 40
6.361773 2.210829 22.559479 36 33 38
6.405601 2.210383 22.554934 42 20 30
6.450439 2.210290 22.553982 25 24 23
6.494039 2.209777 22.548746 21 37 43
6.537962 2.209380 22.544697 44 44 43
6.582229 2.209104 22.541880 16 16 34
6.627694 2.209231 22.543179 18 26 20
6.673007 2.209306 22.543941 35 24 16
6.717343 2.209059 22.541418 38 41 17
6.761363 2.208712 22.537878 40 31 18
6.801860 2.207226 22.522717 27 35 22
6.840567 2.205183 22.501865 42 36 21
6.879137 2.203122 22.480841 27 31 19
6.919483 2.201654 22.465853 26 21 18
6.963397 2.201332 22.462570 43 31 30
7.006285 2.200692 22.456041 32 26 19
7.049433 2.200141 22.450422 33 33 37
7.092294 2.199509 22.443968 19 29 19
7.133687 2.198432 22.432978 33 24 23
7.175666 2.197548 22.423956 37 24 25
7.217378 2.196593 22.414217 22 34 38
7.260697 2.196137 22.409559 42 42 34
7.304444 2.195814 22.406269 21 41 39
7.347231 2.195209 22.400095 30 35 44
7.390567 2.194775 22.395658 34 26 18
7.433135 2.194118 22.388962 17 20 22
7.473848 2.192925 22.376789 32 18 22
7.518269 2.192828 22.375799 42 44 37
7.569030 2.194571 22.393579 27 35 18
7.622812 2.197163 22.420034 40 18 27
7.686774 2.202643 22.475946 21 35 21
7.751737 2.208344 22.534121 38 23 42
7.817246 2.214133 22.593197 34 34 24
7.880150 2.219123 22.644108 20 28 40
7.932156 2.221004 22.663301 24 34 29
4.646352 2.525191 25.251915 39 40 34
4.677207 2.514627 25.146275 34 35 38
4.702237 2.501190 25.011900 39 33 15
4.735934 2.492597 24.925968 19 22 19
4.762068 2.480244 24.802439 20 36 42
4.794729 2.471510 24.715096 28 44 37
4.826921 2.462715 24.627150 15 22 18
4.851892 2.450451 24.504505 31 34 40
4.883907 2.441953 24.419535 26 26 15
4.905256 2.428344 24.283443 20 24 40
4.931673 2.417487 24.174866 25 29 19
4.957052 2.406336 24.063358 26 28 40
4.975684 2.392156 23.921558 37 18 35
5.003994 2.382854 23.828541 120 120 120
5.023506 2.369578 23.695784 120 120 120
5.049134 2.359408 23.594084 120 120 120
5.077190 2.350551 23.505510 32 25 25
5.101676 2.340219 23.402185 44 26 15
5.136011 2.334550 23.345505 23 41 33
5.168288 2.328057 23.280575 20 39 40
5.205745 2.323993 23.239935 15 24 18
5.247088 2.321720 23.217203 27 31 32
5.288104 2.319344 23.193439 44 35 30
5.333423 2.318880 23.188797 31 15 44
5.377613 2.317937 23.179365 40 15 30
5.422460 2.317291 23.172907 29 35 32
5.466374 2.316260 23.162601 41 16 27
5.507551 2.314097 23.140972 22 15 36
5.548985 2.312077 23.120770 37 37 37
5.587674 2.308956 23.089563 40 19 17
5.628180 2.306631 23.066311 18 44 22
5.668035 2.304079 23.040794 23 43 28
5.705319 2.300532 23.005320 32 31 25
5.744953 2.297981 22.979813 32 39 41
5.781644 2.294303 22.943031 26 25 42
5.821039 2.291748 22.917477 25 20 41
5.859979 2.289054 22.890545 26 43 17
5.895549 2.285097 22.850965 23 36 22
5.933716 2.282199 22.821985 30 35 40
5.967905 2.277826 22.778263 30 35 40
6.004450 2.274413 22.744129 30 35 40
6.041208 2.271131 22.711309 30 35 40
6.075917 2.267133 22.671333 30 35 40
6.114714 2.264709 22.647087 30 35 40
6.150323 2.261148 22.611483 30 35 40
6.187598 2.258248 22.582476 30 35 40
6.226082 2.255827 22.558270 30 35 40
6.264058 2.253258 22.532581 30 35 40
6.305799 2.252071 22.520712 30 35 40
6.347710 2.250961 22.509609 18 34 37
6.391624 2.250572 22.505718 43 23 18
6.436497 2.250524 22.505236 15 26 31
6.480156 2.250054 22.500542 36 33 33
6.524055 2.249674 22.496742 41 24 28
6.568214 2.249389 22.493885 17 43 16
6.613543 2.249504 22.495043 24 38 35
6.658583 2.249521 22.495214 25 36 18
6.702512 2.249165 22.491652 43 26 39
6.746132 2.248711 22.487106 17 20 16
6.785941 2.247000 22.470003 36 42 26
6.823879 2.244697 22.446970 22 19 19
6.861822 2.242426 22.424255 40 33 29
6.901859 2.240863 22.408634 16 32 21
6.945854 2.240598 22.405979 29 37 15
6.988862 2.240020 22.400200 35 43 27
7.032209 2.239557 22.395571 32 22 44
7.074991 2.238921 22.389214 22 38 28
7.115570 2.237601 22.376007 30 25 32
7.156418 2.236381 22.363806 15 21 35
7.197498 2.235248 22.352478 16 21 17
7.240950 2.234861 22.348610 42 34 40
7.285313 2.234759 22.347586 19 32 34
7.328594 2.234328 22.343275 17 15 40
7.372216 2.234005 22.340050 20 35 27
7.416316 2.233830 22.338301 41 35 27
7.459058 2.233251 22.332510 23 35 30
7.505718 2.233845 22.338448 19 41 27
7.559011 2.236394 22.363939 40 43 24
7.614375 2.239522 22.395220 34 35 22
7.677862 2.244989 22.449890 15 40 33
7.740318 2.250093 22.500925 37 43 29
7.802156 2.254958 22.549583 42 17 42
7.861073 2.258929 22.589291 39 21 20
4.636386 2.570170 25.197748 17 30 31
4.667042 2.559346 25.091625 41 37 16
4.691885 2.545597 24.956833 38 42 28
4.725113 2.536640 24.869015 25 35 30
4.750345 2.523621 24.741383 25 20 39
4.782115 2.514308 24.650080 17 23 18
4.813276 2.504868 24.557529 23 15 36
4.837039 2.491808 24.429489 36 23 33
4.868196 2.482780 24.340981 41 25 23
4.888547 2.468474 24.200729 17 43 40
4.914251 2.457126 24.089466 43 42 18
4.939121 2.445584 23.976316 31 39 44
4.957237 2.430953 23.832869 27 28 34
4.985283 2.421423 23.739441 120 120 120
5.004606 2.407876 23.606630 120 120 120
5.030133 2.397540 23.505297 120 120 120
5.058138 2.388565 23.417307 29 37 32
5.082539 2.378069 23.314400 42 31 16
5.116740 2.372307 23.257910 27 24 24
5.148878 2.365701 23.193146 18 27 27
5.186190 2.361569 23.152634 26 32 15
5.227350 2.359246 23.129868 37 37 16
5.268071 2.356769 23.105576 20 42 15
5.313053 2.356224 23.100231 36 41 37
5.357168 2.355307 23.091242 41 31 25
5.402224 2.354815 23.086426 25 29 36
5.446390 2.353948 23.077923 28 19 32
5.487615 2.351835 23.057207 37 17 31
5.528861 2.349766 23.036922 32 39 22
5.567366 2.346576 23.005644 29 21 29
5.607731 2.344216 22.982506 21 39 42
5.647402 2.341606 22.956917 30 18 16
5.684438 2.337954 22.921120 17 17 40
5.723802 2.335311 22.895208 37 19 39
5.760124 2.331479 22.857634 24 39 44
5.799130 2.328785 22.831221 29 33 36
5.837708 2.325962 22.803549 22 32 20
5.872959 2.321868 22.763409 30 35 15
5.910927 2.318902 22.734333 30 24 16
5.945021 2.314474 22.690918 30 35 40
5.981506 2.311037 22.657221 30 35 40
6.018308 2.307772 22.625219 30 35 40
6.053142 2.303808 22.586349 30 35 40
6.092011 2.301426 22.563004 30 35 40
6.127889 2.297959 22.529005 30 35 40
6.165381 2.295142 22.501390 30 35 40
6.204097 2.292818 22.478611 30 35 40
6.242363 2.290363 22.454542 30 35 40
6.284221 2.289252 22.443647 31 31 27
6.326363 2.288259 22.433912 18 30 42
6.370429 2.287971 22.431087 39 43 24
6.415404 2.288011 22.431482 31 27 20
6.459206 2.287635 22.427797 44 29 18
6.503116 2.287303 22.424540 15 23 23
6.547182 2.287029 22.421856 33 33 41
6.592346 2.287141 22.422947 23 42 28
6.637042 2.287089 22.422440 15 15 32
6.680447 2.286596 22.417606 15 42 36
6.723535 2.286002 22.411783 32 39 18
6.762582 2.284051 22.392656 22 25 35
6.799842 2.281526 22.367903 28 43 44
6.837152 2.279051 22.343634 19 23 29
6.876542 2.277296 22.326435 32 43 31
6.920152 2.276953 22.323072 36 17 36
6.962754 2.276285 22.316521 26 39 17
7.005910 2.275805 22.311815 15 37 22
7.048396 2.275115 22.305050 16 23 31
7.088155 2.273559 22.289795 41 19 43
7.128074 2.272074 22.275230 18 22 32
7.168581 2.270793 22.262674 40 40 37
7.212031 2.270454 22.259354 30 28 34
7.256756 2.270519 22.259987 21 16 28
7.300288 2.270211 22.256975 32 38 23
7.344000 2.269964 22.254545 23 24 24
7.389194 2.270174 22.256607 34 43 16
7.433522 2.270118 22.256054 36 35 26
7.481867 2.271281 22.267462 25 20 34
7.536901 2.274449 22.298523 37 31 42
7.593190 2.277957 22.332911 25 30 17
7.655792 2.283306 22.385357 19 28 36
7.715152 2.287632 22.427767 40 17 15
7.773974 2.291750 22.468134 37 36 30
7.832194 2.295643 22.506306 17 42 32
4.658937 2.604997 25.048050 30 27 17
4.684255 2.591290 24.916250 40 42 34
4.717337 2.582121 24.828087 29 40 37
4.741991 2.568579 24.697872 21 34 44
4.773072 2.558760 24.603462 31 16 43
4.803252 2.548664 24.506388 41 18 19
4.825789 2.534758 24.372673 26 32 40
4.855974 2.525106 24.279869 33 42 26
4.875312 2.510062 24.135210 33 24 17
4.900432 2.498259 24.021725 25 22 31
4.924954 2.486385 23.907545 21 16 34
4.942680 2.471340 23.762886 18 42 20
4.970530 2.461596 23.669191 120 120 120
4.989707 2.447781 23.536354 120 120 120
5.015138 2.437263 23.435225 120 120 120
5.043095 2.428157 23.347660 17 32 34
5.067436 2.417492 23.245119 23 38 26
5.101546 2.411640 23.188845 35 24 30
5.133599 2.404929 23.124321 30 24 28
5.170810 2.400733 23.083971 20 18 42
5.211840 2.398369 23.061237 37 25 33
5.252345 2.395806 23.036600 29 38 16
5.297062 2.395193 23.030703 42 19 43
5.341222 2.394341 23.022509 29 31 24
5.386643 2.394063 23.019840 41 22 24
5.431175 2.393399 23.013454 43 17 39
5.472447 2.391321 22.993475 42 40 43
5.513421 2.389149 22.972589 38 34 33
5.551709 2.385858 22.940945 38 19 21
5.591990 2.383471 22.917992 38 41 32
5.631578 2.380830 22.892591 18 22 40
5.668474 2.377102 22.856749 19 39 41
5.707670 2.374391 22.830679 42 33 21
5.743740 2.370432 22.792620 16 24 36
5.782473 2.367627 22.765642 23 16 41
5.820776 2.364690 22.737406 41 30 43
5.855791 2.360474 22.696863 23 35 40
5.893596 2.357438 22.667675 15 44 41
5.927592 2.352937 22.624397 38 15 33
5.964005 2.349457 22.590929 30 35 40
6.000801 2.346178 22.559402 30 35 40
6.035678 2.342203 22.521187 30 35 40
6.074567 2.339833 22.498398 30 35 40
6.110606 2.336408 22.465464 30 35 40
6.148251 2.333643 22.438871 30 35 40
6.187150 2.331390 22.417212 30 35 40
6.225649 2.329020 22.394423 37 19 25
6.267614 2.327971 22.384336 26 41 25
6.309963 2.327079 22.375755 17 29 29
6.354167 2.326878 22.373829 18 25 24
6.399251 2.327000 22.375004 34 27 16
6.443212 2.326716 22.372265 20 39 36
6.487164 2.326431 22.369530 20 20 24
6.531212 2.326185 22.367165 19 42 33
6.576274 2.326301 22.368280 36 40 22
6.620729 2.326202 22.367329 39 39 39
6.663759 2.325607 22.361607 24 42 28
6.706441 2.324900 22.354803 15 30 21
6.745027 2.322791 22.334526 43 35 23
6.782057 2.320177 22.309399 39 31 44
6.819033 2.317580 22.284420 36 37 16
6.857707 2.315589 22.265282 24 22 29
6.900580 2.315033 22.259935 15 30 25
6.942309 2.314103 22.250992 44 20 20
6.984855 2.313455 22.244762 38 29 16
7.026855 2.312636 22.236883 41 44 26
7.066090 2.310922 22.220407 16 32 24
7.105711 2.309356 22.205347 16 18 31
7.145911 2.307996 22.192270 19 36 30
7.189139 2.307625 22.188700 36 19 31
7.233678 2.307676 22.189196 34 19 38
7.276922 2.307317 22.185738 42 31 18
7.320354 2.307021 22.182892 31 33 42
7.365476 2.307257 22.185167 32 18 39
7.410024 2.307313 22.185699 36 33 17
7.458536 2.308594 22.198023 25 25 42
7.513606 2.311879 22.229605 25 28 26
7.569767 2.315458 22.264021 32 16 21
7.630697 2.320446 22.311979 42 17 40
7.685962 2.323663 22.342913 16 20 30
7.742655 2.327272 22.377615 24 29 26
4.676412 2.636700 24.874531 32 24 24
4.709507 2.627409 24.786880 20 36 41
4.733819 2.613463 24.655308 21 24 39
4.764389 2.603223 24.558704 30 17 29
4.793787 2.592558 24.458097 27 34 18
4.815411 2.577947 24.320257 42 18 40
4.844885 2.567789 24.224424 38 23 30
4.863358 2.552059 24.076031 22 20 27
4.887857 2.539769 23.960081 34 18 20
4.911897 2.527481 23.844160 44 19 21
4.929096 2.511943 23.697578 36 40 39
4.956645 2.501926 23.603071 120 120 120
4.975531 2.487765 23.469484 120 120 120
5.000773 2.477018 23.368097 120 120 120
5.028596 2.467737 23.280535 34 39 19
5.052779 2.456856 23.177887 17 38 19
5.086758 2.450893 23.121628 21 41 27
5.118653 2.444041 23.056993 15 20 24
5.155710 2.439756 23.016563 22 42 27
5.196561 2.437325 22.993631 29 44 25
5.236791 2.434648 22.968380 34 31 41
5.281211 2.433950 22.961788 23 17 39
5.325398 2.433156 22.954302 26 33 16
5.371163 2.433091 22.953690 41 33 26
5.416095 2.432653 22.949556 28 36 38
5.457532 2.430665 22.930805 31 43 40
5.498369 2.428446 22.909870 21 30 37
5.536542 2.425097 22.878273 16 18 30
5.576738 2.422681 22.855484 24 29 30
5.616208 2.419992 22.830114 31 35 41
5.652974 2.416190 22.794249 33 30 34
5.692015 2.413414 22.768061 35 24 34
5.727852 2.409335 22.729572 33 39 36
5.766308 2.406412 22.702002 18 16 26
5.804334 2.403357 22.673182 41 34 26
5.839115 2.399016 22.632227 23 33 43
5.876768 2.395913 22.602955 24 15 27
5.910643 2.391329 22.559706 43 37 38
5.946943 2.387788 22.526299 44 24 24
5.983677 2.384473 22.495028 22 34 17
6.018528 2.380463 22.457195 17 23 43
6.057385 2.378084 22.434759 30 35 40
6.093527 2.374683 22.402674 26 41 30
6.131289 2.371959 22.376968 41 39 20
6.170344 2.369770 22.356318 44 16 34
6.209042 2.367476 22.334682 44 36 42
6.251086 2.366483 22.325308 28 16 16
6.293629 2.365690 22.317833 33 20 39
6.337985 2.365586 22.316847 35 38 18
6.383201 2.365802 22.318884 28 30 35
6.427346 2.365620 22.317173 39 25 23
6.471360 2.365394 22.315035 25 41 31
6.515430 2.365191 22.313118 37 23 24
6.560431 2.365325 22.314390 36 33 18
6.604703 2.365198 22.313185 39 38 17
6.647473 2.364537 22.306957 31 39 17
6.689865 2.363752 22.299551 26 21 43
6.728222 2.361561 22.278881 30 38 41
6.765291 2.358950 22.254246 43 40 23
6.802160 2.356304 22.229280 23 15 33
6.840227 2.354104 22.208529 41 33 43
6.882314 2.353307 22.201012 26 26 19
6.923182 2.352107 22.189686 34 20 18
6.965120 2.351283 22.181911 18 31 30
7.006754 2.350367 22.173273 26 27 32
7.045817 2.348606 22.156658 33 19 43
7.085540 2.347085 22.142311 23 17 37
7.125731 2.345737 22.129599 39 44 24
7.168766 2.345337 22.125822 21 33 21
7.213042 2.345345 22.125896 39 36 18
7.256063 2.344947 22.122143 44 42 23
7.299328 2.344633 22.119177 29 29 34
7.344114 2.344808 22.120827 32 43 37
7.388339 2.344802 22.120775 19 29 25
7.436349 2.345991 22.131992 32 32 41
7.490472 2.349083 22.161160 44 28 33
7.545666 2.352472 22.193134 15 20 36
7.606182 2.357472 22.240299 37 25 38
7.661046 2.360671 22.270483 25 31 19
4.698194 2.670552 24.727337 29 37 28
4.722218 2.656247 24.594883 44 22 42
4.752382 2.645656 24.496815 39 21 36
4.781293 2.634590 24.394352 25 44 31
4.802537 2.619565 24.255236 43 38 43
4.831802 2.609173 24.159012 34 26 24
4.849679 2.592898 24.008314 37 15 41
4.873410 2.580041 23.889265 22 20 16
4.896612 2.567156 23.769962 35 18 44
4.913012 2.550987 23.620251 35 29 19
4.940086 2.540616 23.524220 120 120 120
4.958470 2.526013 23.389009 120 120 120
4.983374 2.514974 23.286793 120 120 120
5.010947 2.505474 23.198830 15 41 15
5.034822 2.494315 23.095512 36 21 43
5.068557 2.488201 23.038895 18 24 42
5.100153 2.481156 22.973663 31 19 35
5.136942 2.476740 22.932775 38 22 38
5.177503 2.474205 22.909307 35 26 41
5.217312 2.471358 22.882946 41 17 28
5.261330 2.470537 22.875347 26 35 19
5.305425 2.469767 22.868212 19 44 24
5.351400 2.469877 22.869230 29 29 24
5.396700 2.469676 22.867373 36 26 33
5.438480 2.467882 22.850756 38 17 18
5.479460 2.465757 22.831081 35 23 39
5.517722 2.462455 22.800505 36 36 22
5.557819 2.460018 22.777948 21 42 17
5.597072 2.457251 22.752327 34 18 27
5.633659 2.453368 22.716368 33 42 29
5.672521 2.450529 22.690084 21 20 37
5.708067 2.446314 22.651058 40 32 42
5.746173 2.443254 22.622726 15 29 43
5.783853 2.440063 22.593174 34 37 23
5.818356 2.435591 22.551767 26 31 18
5.855848 2.432429 22.522491 18 25 24
5.889586 2.427768 22.479338 28 30 19
5.925743 2.424168 22.445997 27 24 36
5.962382 2.420817 22.414970 20 40 28
5.997193 2.416779 22.377584 32 37 21
6.036009 2.414404 22.355589 18 18 17
6.072271 2.411049 22.324524 40 24 29
6.110166 2.408387 22.299877 40 42 18
6.149390 2.406283 22.280399 33 18 25
6.188281 2.404080 22.260002 33 25 33
6.230383 2.403148 22.251368 41 38 42
6.273120 2.402472 22.245108 20 29 27
6.317634 2.402480 22.245190 33 39 32
6.362991 2.402808 22.248219 21 22 22
6.407328 2.402748 22.247667 20 26 41
6.451393 2.402588 22.246181 18 28 32
6.495471 2.402434 22.244762 16 36 27
6.540373 2.402586 22.246166 15 20 26
6.584452 2.402435 22.244770 44 38 23
6.626972 2.401721 22.238161 15 39 37
6.669086 2.400871 22.230286 42 34 20
6.707204 2.398603 22.209284 30 33 44
6.744198 2.395965 22.184860 16 39 18
6.780929 2.393269 22.159899 32 20 22
6.818558 2.390923 22.138174 42 33 31
6.860112 2.389975 22.129395 25 41 24
6.900561 2.388656 22.117184 42 38 29
6.942298 2.387797 22.109228 32 17 41
6.983965 2.386925 22.101154 41 35 38
7.023289 2.385268 22.085814 43 32 25
7.063342 2.383878 22.072943 26 34 30
7.103862 2.382662 22.061682 24 30 31
7.146877 2.382292 22.058262 33 40 39
7.191156 2.382346 22.058760 23 15 15
7.234648 2.382140 22.056852 18 25 25
7.278432 2.382032 22.055855 18 17 34
7.323347 2.382294 22.058275 25 15 33
7.367252 2.382225 22.057640 16 37 31
7.414465 2.383221 22.066860 16 36 39
7.466358 2.385700 22.089815 38 41 34
7.518985 2.388384 22.114662 39 22 23
7.582660 2.394524 22.171520 29 24 15
4.714115 2.700795 24.552683 23 33 27
4.744236 2.690031 24.454826 32 43 28
4.773197 2.678835 24.353048 31 30 23
4.794752 2.663751 24.215918 16 34 38
4.824369 2.653403 24.121845 37 41 38
4.842198 2.636840 23.971277 33 23 29
4.865427 2.623515 23.850134 41 20 41
4.887908 2.610048 23.727707 26 38 20
4.903674 2.593289 23.575354 38 38 19
4.930340 2.582559 23.477810 120 120 120
4.948272 2.567500 23.340906 120 120 120
4.972864 2.556145 23.237680 120 120 120
5.000198 2.546397 23.149065 18 37 38
5.023764 2.534927 23.044788 32 15 19
5.057283 2.528641 22.987648 33 33 23
5.088602 2.521379 22.921629 21 15 18
5.125153 2.516816 22.880146 31 34 25
5.165476 2.514170 22.856089 39 31 40
5.204952 2.511161 22.828735 32 20 42
5.248678 2.510237 22.820337 31 21 15
5.292642 2.509442 22.813110 44 27 24
5.338626 2.509611 22.814642 32 22 18
5.384111 2.509543 22.814032 20 22 21
5.426239 2.507926 22.799324 44 22 33
5.467540 2.505956 22.781416 36 41 42
5.506026 2.502739 22.752172 44 37 30
5.546066 2.500276 22.729780 27 21 29
5.585129 2.497416 22.703777 28 20 40
5.621610 2.493456 22.667782 31 37 36
5.660364 2.490560 22.641457 15 20 18
5.695736 2.486234 22.602127 33 39 36
5.733617 2.483063 22.573296 22 21 27
5.771073 2.479758 22.543255 19 24 29
5.805415 2.475177 22.501610 37 39 36
5.842821 2.471963 22.472387 24 20 17
5.876471 2.467221 22.429277 24 29 38
5.912517 2.463549 22.395897 21 33 16
5.949069 2.460141 22.364920 42 42 34
5.983824 2.456047 22.327702 21 42 31
6.022589 2.453647 22.305885 15 43 27
6.058898 2.450290 22.275362 16 30 40
6.096854 2.447642 22.251293 34 23 29
6.136163 2.445572 22.232475 23 27 42
6.175143 2.443402 22.212744 35 26 22
6.217243 2.442488 22.204439 29 19 23
6.260080 2.441875 22.198866 42 18 35
6.304688 2.441956 22.199604 28 23 19
6.350134 2.442359 22.203266 36 27 37
6.394587 2.442377 22.203428 35 34 18
6.438678 2.442257 22.202337 41 22 42
6.482774 2.442141 22.201283 23 23 41
6.527629 2.442310 22.202820 23 27 15
6.571625 2.442158 22.201437 25 26 32
6.614079 2.441439 22.194897 37 24 43
6.656112 2.440574 22.187038 23 36 35
6.694194 2.438282 22.166204 16 32 31
6.731183 2.435625 22.142050 19 30 38
6.767912 2.432910 22.117359 44 21 34
6.805479 2.430528 22.095711 26 39 44
6.846913 2.429550 22.086815 44 18 19
6.887449 2.428267 22.075157 39 17 37
6.929349 2.427479 22.067989 22 37 23
6.971347 2.426735 22.061226 37 38 31
7.011236 2.425270 22.047913 32 15 17
7.051777 2.424048 22.036802 36 31 18
7.092810 2.423010 22.027361 35 31 27
7.135928 2.422692 22.024469 22 33 36
7.180358 2.422820 22.025639 18 34 43
7.224615 2.422889 22.026264 34 19 38
7.269227 2.423076 22.027960 28 29 29
7.314412 2.423450 22.031363 29 29 41
7.357888 2.423256 22.029604 25 33 34
7.404125 2.423970 22.036087 15 21 15
7.453413 2.425667 22.051517 22 23 21
7.503104 2.427475 22.067953 44 24 29
4.733470 2.732725 24.399332 21 33 20
4.762196 2.721255 24.296919 21 43 30
4.783958 2.706077 24.161406 17 16 22
4.813985 2.695832 24.069925 15 31 32
4.831595 2.678904 23.918787 18 34 32
4.853996 2.664939 23.794100 27 15 28
4.875351 2.650676 23.666752 16 44 36
4.890046 2.633102 23.509838 26 16 24
4.916025 2.621880 23.409643 120 120 120
4.933245 2.606242 23.270021 120 120 120
4.957430 2.594543 23.165560 120 120 120
4.984498 2.584555 23.076380 24 23 38
5.007696 2.572761 22.971085 21 18 17
5.040950 2.566302 22.913410 18 29 38
5.071914 2.558803 22.846458 42 25 42
5.108140 2.554070 22.804197 15 19 32
5.148116 2.551279 22.779274 39 17 39
5.187134 2.548066 22.750589 25 43 38
5.230462 2.547008 22.741140 33 31 24
5.274093 2.546114 22.733160 44 32 16
5.319796 2.546227 22.734173 16 24 21
5.365274 2.546232 22.734211 41 40 19
5.407846 2.544869 22.722044 43 19 32
5.449742 2.543213 22.707256 22 35 33
5.488582 2.540170 22.680090 42 34 27
5.528418 2.537634 22.657450 16 21 40
5.567034 2.534584 22.630219 28 34 36
5.603210 2.530482 22.593590 42 22 19
5.641735 2.527497 22.566938 41 15 18
5.676768 2.523008 22.526855 26 25 32
5.714268 2.519677 22.497118 30 32 22
5.751370 2.516224 22.466290 30 42 15
5.785437 2.511507 22.424173 25 33 38
5.822693 2.508237 22.394974 26 29 36
5.856168 2.503400 22.351788 40 26 35
5.892002 2.499637 22.318188 23 19 36
5.928375 2.496158 22.287123 25 33 37
5.963002 2.492001 22.250008 25 20 23
6.001676 2.489584 22.228430 26 29 15
6.037986 2.486229 22.198477 26 36 28
6.075956 2.483602 22.175020 19 33 21
6.115292 2.481568 22.156855 39 40 31
6.154269 2.479418 22.137657 19 31 30
6.196277 2.478511 22.129562 16 17 44
6.239107 2.477943 22.124493 25 17 22
6.283738 2.478094 22.125837 24 44 23
6.329200 2.478568 22.130072 18 27 15
6.373643 2.478639 22.130705 28 41 21
6.417637 2.478536 22.129782 39 37 18
6.461578 2.478413 22.128691 30 29 15
6.506188 2.478548 22.129890 32 28 17
6.549952 2.478360 22.128218 44 33 30
6.592268 2.477631 22.121706 42 32 31
6.634220 2.476776 22.114067 24 18 19
6.672445 2.474549 22.094189 25 31 30
6.709637 2.471972 22.071175 27 33 27
6.746646 2.469361 22.047863 26 40 42
6.784474 2.467081 22.027512 18 29 35
6.825980 2.466160 22.019289 17 34 37
6.867030 2.465088 22.009710 41 40 25
6.909449 2.464517 22.004616 18 26 36
6.952251 2.464089 22.000795 27 23 20
6.993411 2.463088 21.991859 25 25 23
7.034984 2.462244 21.984324 39 31 40
7.077292 2.461667 21.979168 19 44 35
7.121311 2.461688 21.979355 25 28 29
7.166215 2.462012 21.982254 26 28 40
7.210431 2.462099 21.983023 34 44 18
7.254381 2.462093 21.982973 41 16 29
7.299935 2.462629 21.987757 30 19 40
7.344172 2.462716 21.988539 34 32 20
7.392374 2.464125 22.001112 19 15 21
7.445808 2.467250 22.029018 42 30 33
4.754542 2.765397 24.257866 26 16 26
4.776334 2.750011 24.122900 31 33 39
4.806687 2.739812 24.033436 23 23 20
4.824041 2.722478 23.881390 26 34 17
4.845649 2.707863 23.753183 35 42 32
4.865977 2.692822 23.621246 42 27 23
4.879730 2.674467 23.460239 22 22 20
4.905137 2.662789 23.357796 120 120 120
4.921816 2.646637 23.216114 120 120 120
4.945736 2.634644 23.110916 120 120 120
4.972673 2.624466 23.021633 29 35 42
4.995652 2.612405 22.915836 35 26 25
5.028739 2.605801 22.857906 41 21 26
5.059468 2.598105 22.790398 22 21 29
5.095470 2.593230 22.747635 41 20 19
5.135189 2.590317 22.722076 40 19 19
5.173887 2.586943 22.692486 37 38 32
5.216943 2.585789 22.682360 40 35 22
5.260238 2.584772 22.673441 17 25 36
5.305537 2.584749 22.673235 32 32 20
5.350835 2.584725 22.673029 39 38 37
5.393742 2.583557 22.662783 26 23 40
5.436223 2.582206 22.650928 23 23 18
5.475373 2.579308 22.625507 21 24 34
5.514965 2.576664 22.602316 27 29 15
5.553105 2.573390 22.573599 34 31 42
5.588941 2.569110 22.536051 27 26 30
5.627233 2.566018 22.508932 33 20 33
5.661938 2.561353 22.468006 31 28 17
5.699105 2.557866 22.437422 37 41 33
5.735910 2.554272 22.405897 40 40 16
5.769726 2.549414 22.363277 40 22 15
5.806854 2.546082 22.334053 17 37 29
5.840174 2.541144 22.290739 19 18 35
5.875818 2.537285 22.256887 39 34 15
5.912040 2.533731 22.225714 28 22 40
5.946565 2.529509 22.188677 44 26 30
5.985174 2.527074 22.167313 29 44 19
6.021465 2.523702 22.137737 19 35 41
6.059417 2.521071 22.114662 43 34 15
6.098720 2.519037 22.096813 31 16 39
6.137630 2.516870 22.077806 43 39 28
6.179516 2.515946 22.069698 32 17 21
6.222260 2.515382 22.064751 18 33 17
6.266849 2.515566 22.066370 30 18 38
6.312251 2.516072 22.070807 27 43 19
6.356574 2.516144 22.071436 31 37 18
6.400399 2.516019 22.070343 40 31 33
6.444086 2.515842 22.068787 24 33 20
6.488379 2.515902 22.069315 24 39 33
6.531862 2.515649 22.067101 29 40 29
6.573991 2.514883 22.060373 32 38 31
6.615872 2.514031 22.052906 41 42 15
6.654230 2.511862 22.033875 20 29 23
6.691608 2.509353 22.011869 26 40 35
6.728900 2.506845 21.989868 18 19 27
6.767007 2.504671 21.970802 30 36 20
6.808623 2.503816 21.963301 37 15 25
6.850164 2.502945 21.955654 19 29 33
6.892994 2.502552 21.952209 30 19 17
6.936507 2.502411 21.950972 37 36 33
6.978900 2.501870 21.946226 37 16 42
7.021524 2.501418 21.942263 32 31 31
7.065538 2.501464 21.942663 15 43 37
7.111268 2.502113 21.948359 29 41 44
7.157334 2.502871 21.955011 24 36 40
7.201488 2.502956 21.955755 21 39 16
7.244218 2.502548 21.952175 40 40 25
7.289905 2.503160 21.957546 41 18 15
7.334036 2.503234 21.958191 19 18 15
7.385371 2.505751 21.980272 21 27 29
4.769288 2.794128 24.087311 44 19 21
4.799791 2.783879 23.998957 25 28 32
4.816853 2.766114 23.845808 39 25 24
4.837827 2.750921 23.714840 17 43 26
4.857323 2.735191 23.579237 20 31 36
4.870182 2.716063 23.414335 31 31 17
4.894964 2.703885 23.309351 120 120 120
4.911068 2.687188 23.165417 120 120 120
4.934733 2.674902 23.059498 120 120 120
4.961569 2.664546 22.970228 36 30 21
4.984362 2.652230 22.864048 44 18 41
5.017316 2.645494 22.805983 38 42 36
5.047841 2.637611 22.738022 41 37 17
5.083631 2.632595 22.694782 41 18 23
5.123100 2.629556 22.668583 30 41 23
5.161497 2.626025 22.638144 19 17 21
5.204290 2.624773 22.627350 40 33 17
5.247178 2.623589 22.617146 17 16 34
5.291934 2.623352 22.615101 19 32 17
5.336898 2.623221 22.613976 39 34 24
5.380025 2.622197 22.605148 37 26 35
5.423068 2.621150 22.596117 27 43 27
5.462490 2.618384 22.572273 29 33 29
5.501805 2.615612 22.548382 27 27 22
5.539449 2.612098 22.518084 39 38 27
5.574913 2.607621 22.479488 26 35 31
5.612961 2.604414 22.451845 22 28 44
5.647341 2.599569 22.410082 39 23 44
5.684192 2.595930 22.378708 23 29 33
5.720722 2.592202 22.346571 41 24 36
5.754308 2.587208 22.303520 26 40 24
5.791305 2.583813 22.274248 21 36 37
5.824447 2.578763 22.230713 23 23 44
5.859876 2.574794 22.196501 18 15 42
5.895892 2.571141 22.165007 23 26 37
5.930259 2.566828 22.127831 27 15 37
5.968776 2.564363 22.106577 40 17 20
6.004971 2.560943 22.077099 43 20 18
6.042839 2.558282 22.054155 17 15 41
6.082032 2.556216 22.036348 23 25 19
6.120781 2.553995 22.017199 36 42 39
6.162479 2.553027 22.008854 33 25 28
6.205035 2.552426 22.003672 44 32 27
6.249507 2.552616 22.005306 32 41 17
6.294776 2.553126 22.009705 33 18 35
6.338888 2.553163 22.010027 32 16 31
6.382495 2.552998 22.008602 36 26 36
6.425873 2.552744 22.006414 41 25 32
6.469801 2.552711 22.006126 30 41 28
6.513017 2.552398 22.003435 42 21 39
6.555035 2.551624 21.996761 27 33 39
6.596948 2.550820 21.989826 23 29 21
6.635689 2.548808 21.972479 29 39 40
6.673513 2.546472 21.952347 40 41 20
6.711402 2.544192 21.932688 25 29 44
6.750203 2.542284 21.916245 31 35 25
6.792231 2.541609 21.910421 26 21 31
6.834701 2.541107 21.906094 25 16 38
6.878345 2.541045 21.905558 33 25 16
6.922857 2.541302 21.907776 37 41 37
6.966713 2.541317 21.907904 24 30 34
7.010440 2.541285 21.907625 44 17 31
7.055758 2.541826 21.912291 43 31 39
7.102693 2.542939 21.921892 22 27 28
7.149028 2.543826 21.929535 37 43 22
7.191402 2.543301 21.925005 19 19 43
7.231240 2.541890 21.912848 24 16 23
7.277248 2.542653 21.919422 32 30 42
7.324436 2.543816 21.929449 36 36 35
4.790126 2.826175 23.950632 24 29 43
4.806748 2.807902 23.795782 38 22 37
4.827245 2.792230 23.662966 36 27 20
4.846099 2.775921 23.524754 17 31 38
4.858026 2.755995 23.355892 32 38 29
4.882010 2.743225 23.247665 120 120 120
4.897363 2.725891 23.100769 120 120 120
4.920668 2.713265 22.993774 120 120 120
4.947333 2.702710 22.904318 38 21 24
4.969880 2.690119 22.797617 15 20 17
5.002676 2.683253 22.739435 23 27 22
5.032943 2.675168 22.670914 37 29 21
5.068467 2.669996 22.627085 15 37 17
5.107607 2.666804 22.600033 24 43 22
5.145600 2.663074 22.568420 35 43 25
5.188040 2.661690 22.556696 30 16 40
5.230436 2.660308 22.544983 20 36 25
5.274595 2.659838 22.541004 30 25 26
5.319198 2.659599 22.538973 42 19 37
5.362530 2.658733 22.531639 33 22 15
5.406122 2.658010 22.525507 15 40 21
5.445772 2.655376 22.503189 29 32 20
