ply
format ascii 1.0
element vertex 1289
property float x
property float y
property float z
property uchar red
property uchar green
property uchar blue
end_header
6.338900 1.817151 21.129665 32 41 16
6.379660 1.816724 21.124702 40 17 39
6.419672 1.816091 21.117342 44 35 23
6.458063 1.815011 21.104780 33 35 42
6.495326 1.813630 21.088722 31 19 37
6.533634 1.812557 21.076239 31 29 15
6.567985 1.810406 21.051235 19 24 41
6.603168 1.808511 21.029198 30 21 40
6.636813 1.806221 21.002573 35 18 27
6.667245 1.803092 20.966181 22 15 15
6.700566 1.800777 20.939270 18 35 24
6.730791 1.797665 20.903076 17 36 24
6.764496 1.795514 20.878073 20 24 33
6.798907 1.793577 20.855543 41 20 23
6.830792 1.791000 20.825586 42 41 40
6.866175 1.789367 20.806591 38 31 36
6.899292 1.787166 20.781000 24 36 17
6.934412 1.785507 20.761713 38 27 23
6.970958 1.784233 20.746899 24 20 43
7.006991 1.782844 20.730743 44 27 18
7.046026 1.782230 20.723606 39 23 37
7.086119 1.781890 20.719646 36 32 28
7.128960 1.782240 20.723721 24 34 35
7.171555 1.782525 20.727037 22 25 20
7.210854 1.781993 20.720846 36 43 18
7.248835 1.781142 20.710958 35 39 30
7.283522 1.779497 20.691824 23 27 28
7.317842 1.777781 20.671869 19 44 35
3.642298 1.930857 21.941557 36 33 15
3.677951 1.926546 21.892567 41 32 40
3.716193 1.923676 21.859957 37 20 29
3.751177 1.919207 21.809166 34 22 40
3.787291 1.915411 21.766039 32 21 33
3.824098 1.912049 21.727829 23 32 15
3.860673 1.908647 21.689173 15 37 33
3.900923 1.907118 21.671793 16 33 42
3.939361 1.904746 21.644840 28 43 22
3.978719 1.902866 21.623474 23 36 23
4.018176 1.901073 21.603098 41 37 19
4.056336 1.898711 21.576256 41 22 44
4.096184 1.897180 21.558863 30 37 24
4.134486 1.894973 21.533783 20 40 37
4.174311 1.893502 21.517067 25 36 22
4.213677 1.891855 21.498352 24 26 31
4.250780 1.889235 21.468584 17 34 35
4.289078 1.887194 21.445391 35 21 35
4.324508 1.883944 21.408457 28 19 38
4.361474 1.881420 21.379774 23 36 16
4.397897 1.878713 21.349012 39 23 44
4.432110 1.875124 21.308222 35 29 36
4.468839 1.872656 21.280186 120 120 120
4.502075 1.868786 21.236202 120 120 120
4.536750 1.865580 21.199768 120 120 120
4.571759 1.862569 21.165552 42 28 18
4.605533 1.859114 21.126299 40 29 19
4.642914 1.857166 21.104156 29 21 38
4.678823 1.854669 21.075781 30 35 41
4.716485 1.852905 21.055737 28 26 30
4.755307 1.851624 21.041183 41 18 16
4.793660 1.850185 21.024826 32 26 24
4.834099 1.849568 21.017822 37 28 19
4.874039 1.848773 21.008787 24 28 44
4.914662 1.848249 21.002831 32 25 27
4.955526 1.847823 20.997992 42 44 26
4.995760 1.847172 20.990587 27 30 15
5.036555 1.846737 20.985645 43 25 43
5.076618 1.846043 20.977758 16 36 41
5.116950 1.845457 20.971107 38 22 18
5.157346 1.844904 20.964821 30 27 16
5.197309 1.844206 20.956890 20 25 31
5.237973 1.843766 20.951891 23 25 41
5.279184 1.843525 20.949144 23 36 38
5.321337 1.843613 20.950144 35 16 18
5.364088 1.843905 20.953470 38 23 27
5.406697 1.844145 20.956190 19 27 30
5.449119 1.844317 20.958149 30 35 40
5.491807 1.844576 20.961096 30 35 40
5.534222 1.844741 20.962961 30 35 40
5.576804 1.844958 20.965427 30 35 40
5.620031 1.845383 20.970266 30 35 40
5.663168 1.845773 20.974697 19 23 44
5.705910 1.846030 20.977612 44 17 21
5.747558 1.845931 20.976490 43 41 21
5.789121 1.845807 20.975077 33 35 27
5.831495 1.845941 20.976601 28 31 31
5.874195 1.846176 20.979267 31 22 18
5.917650 1.846642 20.984573 32 28 30
5.960985 1.847066 20.989384 42 16 25
6.004580 1.847563 20.995033 33 30 25
6.048454 1.848139 21.001575 28 18 30
6.091670 1.848507 21.005760 40 18 20
6.136135 1.849246 21.014160 42 22 33
6.180845 1.850049 21.023281 41 22 27
6.225227 1.850743 21.031172 15 23 38
6.269250 1.851322 21.037750 31 21 33
6.311935 1.851501 21.039783 22 19 26
6.352546 1.851073 21.034920 19 23 39
6.392160 1.850362 21.026842 24 32 31
6.430142 1.849191 21.013535 35 39 18
6.467196 1.847770 20.997389 22 44 20
6.505441 1.846706 20.985292 26 40 24
6.539896 1.844586 20.961206 31 42 32
6.575215 1.842735 20.940176 40 17 38
6.609013 1.840484 20.914597 20 23 43
6.639484 1.837341 20.878880 22 20 37
6.672655 1.834980 20.852047 33 21 32
6.703192 1.831928 20.817366 43 32 34
6.737543 1.829950 20.794886 22 40 28
6.772570 1.828178 20.774754 33 26 36
6.804743 1.825663 20.746168 37 43 30
6.839939 1.823984 20.727089 39 42 41
6.872742 1.821691 20.701031 39 31 17
6.907478 1.819934 20.681072 20 42 25
6.943604 1.818563 20.665489 32 34 31
6.979359 1.817111 20.648993 31 22 40
7.018274 1.816495 20.641983 39 39 44
7.057979 1.816088 20.637365 26 37 28
7.100132 1.816313 20.639919 40 21 27
7.142183 1.816509 20.642147 18 35 43
7.181544 1.816023 20.636621 15 41 26
7.219977 1.815309 20.628506 31 25 36
7.254806 1.813702 20.610245 30 41 35
7.288756 1.811894 20.589706 15 23 16
3.630587 1.968390 21.871004 41 23 33
3.666238 1.964056 21.822844 21 31 19
3.704454 1.961181 21.790905 20 28 37
3.739544 1.956738 21.741537 26 15 27
3.775834 1.953018 21.700197 42 22 16
3.812736 1.949694 21.663271 40 20 15
3.849171 1.946210 21.624557 29 41 21
3.889077 1.944538 21.605982 20 44 25
3.927291 1.942067 21.578520 18 27 15
3.966624 1.940197 21.557741 38 22 21
4.006112 1.938441 21.538239 39 20 21
4.044232 1.936069 21.511873 39 32 26
4.083965 1.934510 21.494553 43 15 42
4.122178 1.932271 21.469675 22 23 26
4.161908 1.930782 21.453133 19 41 42
4.201200 1.929122 21.434692 37 38 37
4.238288 1.926495 21.405497 41 20 17
4.276565 1.924454 21.382826 26 27 20
4.311932 1.921158 21.346199 27 43 15
4.348727 1.918556 21.317289 16 41 41
4.384975 1.915766 21.286285 44 26 23
4.419108 1.912114 21.245710 38 37 17
4.455799 1.909628 21.218092 120 120 120
4.489041 1.905725 21.174723 120 120 120
4.523677 1.902481 21.138678 120 120 120
4.558681 1.899450 21.105003 30 19 34
4.592530 1.895999 21.066652 16 24 38
4.629956 1.894073 21.045254 17 28 18
4.666059 1.891646 21.018286 31 36 29
4.703918 1.889967 20.999636 28 19 39
4.742923 1.888775 20.986385 41 35 41
4.781434 1.887408 20.971203 19 28 25
4.821872 1.886819 20.964659 30 17 31
4.861810 1.886047 20.956079 29 24 41
4.902394 1.885536 20.950401 38 30 24
4.943165 1.885105 20.945616 21 17 25
4.983282 1.884434 20.938160 39 22 31
5.023927 1.883973 20.933031 29 44 40
5.063854 1.883251 20.925016 36 34 33
5.104095 1.882658 20.918421 18 34 34
5.144389 1.882094 20.912151 22 33 26
5.184212 1.881367 20.904079 42 19 37
5.224716 1.880898 20.898865 15 39 27
5.265715 1.880613 20.895695 26 42 37
5.307656 1.880665 20.896282 43 36 25
5.350189 1.880926 20.899176 18 21 38
5.392566 1.881128 20.901417 22 40 44
5.434805 1.881279 20.903097 27 32 43
5.477256 1.881500 20.905556 23 19 16
5.519460 1.881634 20.907047 30 35 40
5.561797 1.881811 20.909012 41 16 15
5.604690 1.882172 20.913023 40 26 44
5.647523 1.882508 20.916752 31 23 34
5.689876 1.882680 20.918661 31 42 42
5.731171 1.882501 20.916681 20 16 29
5.772423 1.882312 20.914576 40 29 39
5.814511 1.882396 20.915506 39 20 29
5.857041 1.882620 20.918005 25 41 31
5.900326 1.883083 20.923143 19 25 28
5.943506 1.883505 20.927837 28 23 16
5.986968 1.884011 20.933455 40 20 42
6.030673 1.884585 20.939838 28 27 39
6.073732 1.884951 20.943905 36 36 22
6.118046 1.885699 20.952213 43 27 29
6.162620 1.886516 20.961294 29 24 34
6.206880 1.887227 20.969191 39 24 37
6.250820 1.887831 20.975904 17 35 33
6.293429 1.888029 20.978096 39 19 37
6.333843 1.887569 20.972990 40 24 38
6.373110 1.886776 20.964176 18 30 29
6.410778 1.885523 20.950254 15 33 23
6.447697 1.884067 20.934080 17 33 26
6.485955 1.883019 20.922436 17 17 41
6.520581 1.880937 20.899300 21 26 21
6.556100 1.879137 20.879299 40 16 36
6.590102 1.876928 20.854753 43 39 26
6.620665 1.873773 20.819702 31 42 16
6.653744 1.871365 20.792950 27 17 22
6.684526 1.868346 20.759398 16 38 33
6.719370 1.866492 20.738796 30 25 23
6.754865 1.864840 20.720446 18 27 16
6.787278 1.862363 20.692921 27 34 35
6.822372 1.860647 20.673855 27 24 24
6.854941 1.858267 20.647411 18 32 27
6.889339 1.856409 20.626762 18 22 17
6.925118 1.854942 20.610472 16 23 39
6.960731 1.853449 20.593878 37 22 28
6.999660 1.852851 20.587236 20 40 43
7.039187 1.852418 20.582418 26 38 17
7.080893 1.852559 20.583990 15 34 30
7.122576 1.852693 20.585480 27 26 28
7.161960 1.852231 20.580345 28 41 23
7.200673 1.851602 20.573353 43 20 37
7.235747 1.850049 20.556101 31 44 41
7.269740 1.848239 20.535988 30 24 36
3.613398 2.002606 21.767460 32 24 28
3.649029 1.998278 21.720411 30 30 31
3.687197 1.995424 21.689392 34 31 30
3.722438 1.991071 21.642080 21 26 35
3.758975 1.987504 21.603302 17 20 33
3.796036 1.984291 21.568384 24 31 19
3.832356 1.980768 21.530092 28 37 25
3.871865 1.978953 21.510363 41 35 35
3.909830 1.976398 21.482582 33 31 19
3.949133 1.974566 21.462677 35 17 39
3.988646 1.972879 21.444334 24 44 39
4.026729 1.970527 21.418770 43 33 30
4.066330 1.968960 21.401737 26 22 19
4.104411 1.966697 21.377142 32 29 37
4.143964 1.965179 21.360638 44 23 23
4.183082 1.963487 21.342255 44 39 32
4.220071 1.960841 21.313492 42 28 30
4.258265 1.958802 21.291327 22 28 42
4.293479 1.955446 21.254847 31 40 27
4.330002 1.952746 21.225500 23 15 37
4.365975 1.949853 21.194052 34 19 36
4.399925 1.946121 21.153484 26 16 19
4.436498 1.943608 21.126179 120 120 120
4.469706 1.939684 21.083519 120 120 120
4.504287 1.936423 21.048071 120 120 120
4.539303 1.933407 21.015293 28 15 35
4.573264 1.930002 20.978277 44 24 32
4.610756 1.928134 20.957981 32 30 40
4.647118 1.925833 20.932964 33 36 25
4.685222 1.924288 20.916170 44 33 29
4.724458 1.923231 20.904682 30 39 25
4.763209 1.921997 20.891270 40 44 29
4.803683 1.921473 20.885580 18 33 24
4.843679 1.920769 20.877928 29 16 44
4.884249 1.920303 20.872858 34 37 18
4.924920 1.919884 20.868303 40 19 23
4.964917 1.919212 20.860996 23 29 36
5.005369 1.918725 20.855703 32 37 39
5.045097 1.917971 20.847509 16 31 29
5.085176 1.917361 20.840883 40 22 30
5.125289 1.916775 20.834507 38 44 16
5.164874 1.916002 20.826105 30 34 21
5.205139 1.915491 20.820555 19 37 42
5.245811 1.915137 20.816710 28 15 31
5.287429 1.915132 20.816650 36 24 29
5.329629 1.915336 20.818865 20 25 37
5.371652 1.915473 20.820358 33 35 30
5.413620 1.915589 20.821615 27 40 18
5.455705 1.915744 20.823303 17 35 44
5.497587 1.915826 20.824192 30 26 22
5.539550 1.915935 20.825377 35 17 29
5.581928 1.916184 20.828091 43 43 26
5.624299 1.916428 20.830736 41 36 40
5.666088 1.916471 20.831205 29 39 23
5.706921 1.916192 20.828178 28 35 21
5.747762 1.915921 20.825224 22 43 31
5.789391 1.915913 20.825146 40 34 30
5.831597 1.916096 20.827131 38 27 40
5.874546 1.916519 20.831724 38 29 28
5.917472 1.916928 20.836170 26 23 38
5.960704 1.917429 20.841621 32 24 40
6.004106 1.917978 20.847589 27 30 35
6.046873 1.918318 20.851286 22 31 35
6.090870 1.919041 20.859142 33 32 29
6.135183 1.919853 20.867970 34 32 23
6.179190 1.920559 20.875643 25 34 33
6.222858 1.921151 20.882072 23 35 31
6.265232 1.921338 20.884106 21 25 40
6.305248 1.920804 20.878305 25 36 15
6.343956 1.919881 20.868275 39 20 38
6.381185 1.918526 20.853544 25 39 17
6.417990 1.917062 20.837629 27 21 34
6.456370 1.916084 20.827002 32 43 24
6.491423 1.914137 20.805841 26 21 17
6.527350 1.912472 20.787739 32 30 24
6.561792 1.910395 20.765165 35 43 38
6.592752 1.907337 20.731926 31 15 30
6.625903 1.904947 20.705946 19 23 23
6.657220 1.902063 20.674595 23 43 39
6.692812 1.900428 20.656826 21 16 25
6.728946 1.898966 20.640940 16 29 39
6.761664 1.896564 20.614828 41 21 18
6.796546 1.894795 20.595594 17 31 42
6.828737 1.892301 20.568485 15 25 36
6.862638 1.890307 20.546820 32 30 27
6.897948 1.888724 20.529608 24 42 20
6.933381 1.887193 20.512962 21 16 19
6.972362 1.886639 20.506948 24 18 35
7.011839 1.886226 20.502453 17 29 25
7.053260 1.886337 20.503664 41 36 44
7.094678 1.886446 20.504848 25 20 20
7.133972 1.885993 20.499920 34 44 38
7.172688 1.885392 20.493395 19 33 39
7.207923 1.883889 20.477053 17 41 31
7.242240 1.882164 20.458305 24 27 37
3.636031 2.034446 21.643040 43 44 40
3.674139 2.031583 21.612583 21 21 33
3.709489 2.027279 21.566797 24 40 26
3.746223 2.023821 21.530016 31 16 20
3.783435 2.020698 21.496790 23 29 32
3.819731 2.017162 21.459166 23 38 39
3.859002 2.015256 21.438898 23 37 23
3.896836 2.012652 21.411188 39 15 43
3.936127 2.010848 21.391996 36 40 19
3.975666 2.009208 21.374548 33 44 22
4.013760 2.006880 21.349787 40 42 40
4.053304 2.005319 21.333181 26 15 17
4.091306 2.003035 21.308887 26 28 19
4.130718 2.001482 21.292360 36 31 38
4.169674 1.999741 21.273846 34 32 33
4.206560 1.997054 21.245253 37 32 39
4.244662 1.994991 21.223310 29 20 17
4.279738 1.991561 21.186823 15 29 40
4.316050 1.988768 21.157106 43 20 37
4.351803 1.985774 21.125259 21 39 20
4.385577 1.981943 21.084503 35 28 18
4.422020 1.979380 21.057236 120 120 120
4.455175 1.975408 21.014977 120 120 120
4.489720 1.972120 20.980000 120 120 120
4.524764 1.969110 20.947983 32 33 38
4.558814 1.965727 20.911989 38 33 39
4.596351 1.963895 20.892504 32 35 44
4.632889 1.961674 20.868868 41 21 34
4.671138 1.960209 20.853292 43 23 16
4.710515 1.959241 20.842987 27 33 25
4.749442 1.958103 20.830887 26 38 37
4.789966 1.957638 20.825939 19 22 16
4.830042 1.957000 20.819147 38 42 21
4.870622 1.956575 20.814623 21 29 34
4.911244 1.956173 20.810354 21 43 36
4.951177 1.955507 20.803263 28 42 41
4.991497 1.955003 20.797903 26 41 25
5.031086 1.954223 20.789610 24 40 23
5.071043 1.953599 20.782965 33 29 23
5.111012 1.952988 20.776472 27 32 40
5.150427 1.952178 20.767853 27 22 31
5.190522 1.951636 20.762087 36 39 16
5.230972 1.951235 20.757824 35 24 40
5.272371 1.951192 20.757366 43 20 26
5.314339 1.951359 20.759138 32 25 26
5.356126 1.951457 20.760180 29 26 18
5.397908 1.951551 20.761183 30 35 40
5.439731 1.951659 20.762331 27 31 20
5.481380 1.951704 20.762804 28 39 17
5.523054 1.951756 20.763359 32 43 31
5.565015 1.951908 20.764980 36 30 42
5.606994 1.952065 20.766645 15 19 18
5.648344 1.952001 20.765970 41 22 28
5.688869 1.951656 20.762297 19 18 21
5.729425 1.951326 20.758787 43 26 40
5.770697 1.951243 20.757904 44 22 43
5.812611 1.951377 20.759325 41 25 42
5.855255 1.951752 20.763315 34 22 39
5.897978 1.952148 20.767529 20 17 26
5.941017 1.952642 20.772785 29 42 32
5.984144 1.953158 20.778276 23 30 37
6.026657 1.953468 20.781574 15 21 35
6.070368 1.954160 20.788933 41 31 20
6.114462 1.954964 20.797491 36 21 18
6.158243 1.955658 20.804876 26 26 20
6.201623 1.956217 20.810816 42 25 21
6.243738 1.956371 20.812460 26 15 43
6.283386 1.955756 20.805914 41 15 37
6.321634 1.954716 20.794849 44 18 18
6.358559 1.953283 20.779606 15 27 39
6.395348 1.951827 20.764118 33 15 43
6.433923 1.950932 20.754591 16 15 43
6.469439 1.949126 20.735382 17 19 33
6.505769 1.947587 20.719009 33 15 44
6.540653 1.945637 20.698269 35 15 39
6.572067 1.942686 20.666876 20 44 16
6.605398 1.940336 20.641869 17 39 31
6.637259 1.937585 20.612606 40 19 28
6.673533 1.936148 20.597324 32 39 36
6.710195 1.934841 20.583420 28 24 30
6.743119 1.932479 20.558290 43 29 25
6.777745 1.930630 20.538622 26 41 40
6.809511 1.927994 20.510574 23 15 22
6.842894 1.925844 20.487705 41 36 17
6.877749 1.924132 20.469490 40 28 22
6.912970 1.922542 20.452574 40 18 29
6.951986 1.922020 20.447018 23 34 33
6.991666 1.921686 20.443468 20 36 37
7.033369 1.921909 20.445841 34 22 44
7.074979 1.922104 20.447916 19 27 33
7.114174 1.921645 20.443029 19 19 42
7.152521 1.920963 20.435774 38 21 22
7.187639 1.919426 20.419428 30 19 28
3.623706 2.070689 21.569677 25 33 43
3.661772 2.067824 21.539837 19 34 18
3.697231 2.063571 21.495529 41 31 19
3.734124 2.060207 21.460485 15 43 38
3.771470 2.057165 21.428804 24 41 16
3.807783 2.053636 21.392040 37 22 20
3.846898 2.051679 21.371658 41 22 42
3.884651 2.049047 21.344234 41 37 20
3.923917 2.047261 21.325638 38 18 39
3.963446 2.045650 21.308849 39 43 35
4.001532 2.043336 21.284746 32 17 23
4.041015 2.041776 21.268497 22 30 21
4.078904 2.039452 21.244289 30 20 28
4.118134 2.037840 21.227495 44 21 30
4.156877 2.036021 21.208555 18 41 16
4.193590 2.033256 21.179749 26 26 21
4.231558 2.031148 21.157791 25 22 22
4.266446 2.027618 21.121017 25 16 28
4.302531 2.024721 21.090839 20 19 40
4.338058 2.021619 21.058535 34 44 19
4.371623 2.017672 21.017418 24 34 34
4.407903 2.015041 20.990015 120 120 120
4.440974 2.011007 20.947989 120 120 120
4.475468 2.007687 20.913403 120 120 120
4.510533 2.004681 20.882095 15 18 23
4.544659 2.001318 20.847061 17 41 41
4.582237 1.999522 20.828352 17 22 35
4.618951 1.997384 20.806087 23 37 35
4.657348 1.996006 20.791733 43 20 36
4.696881 1.995135 20.782661 42 29 25
4.736004 1.994107 20.771946 21 44 33
4.776596 1.993710 20.767809 29 22 39
4.816784 1.993152 20.762001 30 15 39
4.857408 1.992783 20.758154 17 34 44
4.898012 1.992412 20.754290 40 22 27
4.937915 1.991764 20.747543 25 16 28
4.978126 1.991250 20.742191 26 35 20
5.017571 1.990441 20.733765 30 30 22
5.057378 1.989788 20.726959 29 32 41
5.097158 1.989135 20.720154 18 43 39
5.136358 1.988268 20.711123 27 24 29
5.176254 1.987682 20.705017 20 15 36
5.216431 1.987212 20.700123 31 35 41
5.257576 1.987115 20.699118 42 35 22
5.299272 1.987227 20.700281 30 35 40
5.340770 1.987263 20.700659 30 35 40
5.382332 1.987323 20.701279 30 35 40
5.423853 1.987366 20.701729 30 35 40
5.465243 1.987361 20.701679 30 35 40
5.506620 1.987352 20.701580 18 26 15
5.548188 1.987410 20.702192 42 16 19
5.589829 1.987495 20.703070 39 39 21
5.630794 1.987339 20.701450 44 28 32
5.671056 1.986939 20.697285 21 41 34
5.711352 1.986557 20.693306 35 23 35
5.752248 1.986388 20.691538 23 28 41
5.793834 1.986457 20.692265 42 17 32
5.836137 1.986770 20.695522 30 39 27
5.878640 1.987146 20.699438 43 35 43
5.921474 1.987628 20.704454 30 37 37
5.964295 1.988098 20.709358 30 30 23
6.006518 1.988364 20.712130 22 37 36
6.049880 1.989002 20.718767 18 27 35
6.093697 1.989779 20.726860 25 44 38
6.137192 1.990441 20.733757 23 30 16
6.180194 1.990935 20.738905 22 17 25
6.221994 1.991038 20.739979 15 43 44
6.261223 1.990322 20.732525 16 30 15
6.299007 1.989160 20.720419 34 39 35
6.335635 1.987650 20.704689 29 34 33
6.372423 1.986210 20.689686 42 41 32
6.411199 1.985403 20.681286 36 16 37
6.447207 1.983756 20.664124 24 16 17
6.483956 1.982356 20.649540 29 16 38
6.519322 1.980554 20.630766 27 43 34
6.551308 1.977753 20.601599 24 16 34
6.584939 1.975482 20.577934 35 28 36
6.617357 1.972877 20.550798 24 19 35
6.654147 1.971599 20.537491 39 44 37
6.691168 1.970405 20.525055 16 37 36
6.724263 1.968077 20.500803 40 34 23
6.758706 1.966169 20.480928 29 29 15
6.790229 1.963440 20.452496 32 30 29
6.823323 1.961195 20.429110 22 29 19
6.857948 1.959414 20.410561 18 29 41
6.893141 1.957815 20.393908 44 35 31
6.932251 1.957341 20.388973 16 28 35
6.972067 1.957072 20.386162 29 20 22
7.013857 1.957355 20.389118 23 31 20
7.055447 1.957581 20.391464 18 32 28
7.094408 1.957078 20.386230 23 37 25
7.132371 1.956307 20.378202 37 24 23
7.167447 1.954758 20.362064 17 42 19
3.608013 2.104674 21.476269 20 41 27
3.646063 2.101848 21.447428 44 42 28
3.681655 2.097687 21.404970 29 23 43
3.718700 2.094440 21.371840 16 27 19
3.756151 2.091493 21.341768 41 30 27
3.792476 2.087992 21.306046 16 31 43
3.831421 2.085996 21.285673 27 42 42
3.869058 2.083339 21.258560 35 22 23
3.908253 2.081570 21.240505 36 36 29
3.947700 2.079971 21.224195 16 28 18
3.985697 2.077650 21.200514 40 23 17
4.025043 2.076075 21.184439 17 43 34
4.062730 2.073685 21.160051 29 27 28
4.101696 2.071991 21.142763 15 31 22
4.140153 2.070077 21.123232 15 31 33
4.176621 2.067217 21.094048 27 43 20
4.214405 2.065058 21.072023 29 21 42
4.249041 2.061416 21.034855 23 26 20
4.284833 2.058400 21.004086 30 25 31
4.320077 2.055182 20.971247 28 33 17
4.353389 2.051116 20.929754 37 40 33
4.389482 2.048425 20.902296 120 120 120
4.422465 2.044347 20.860685 120 120 120
4.456907 2.041014 20.826670 120 120 120
4.492000 2.038037 20.796297 34 31 15
4.526233 2.034729 20.762539 22 24 23
4.563868 2.032996 20.744856 29 31 21
4.600812 2.030989 20.724379 28 17 16
4.639394 2.029735 20.711580 44 34 43
4.679124 2.029001 20.704090 39 22 24
4.718495 2.028125 20.695152 26 36 32
4.759172 2.027821 20.692051 36 23 35
4.799494 2.027373 20.687475 23 36 43
4.840172 2.027081 20.684498 31 38 23
4.880747 2.026751 20.681129 17 31 21
4.920604 2.026131 20.674809 19 21 22
4.960673 2.025608 20.669472 39 16 36
4.999912 2.024758 20.660791 35 31 34
5.039496 2.024060 20.653673 36 16 23
5.078989 2.023337 20.646297 43 27 39
5.117849 2.022376 20.636486 34 36 38
5.157436 2.021715 20.629745 39 23 23
5.197182 2.021126 20.623739 15 16 36
5.237924 2.020931 20.621750 30 35 40
5.279204 2.020945 20.621891 30 35 40
5.320236 2.020865 20.621071 30 35 40
5.361447 2.020853 20.620949 30 35 40
5.402528 2.020793 20.620335 30 35 40
5.443527 2.020703 20.619421 30 35 40
5.484538 2.020619 20.618565 30 35 40
5.525712 2.020596 20.618330 23 39 34
5.567066 2.020639 20.618763 38 37 44
5.607632 2.020397 20.616293 22 20 31
5.647503 2.019910 20.611326 35 39 42
5.687391 2.019436 20.606489 30 35 40
5.727808 2.019155 20.603626 19 21 43
5.769004 2.019151 20.603584 44 43 30
5.810908 2.019394 20.606058 20 38 21
5.853163 2.019753 20.609728 32 21 36
5.895764 2.020227 20.614559 17 37 23
5.938238 2.020651 20.618883 28 31 40
5.980129 2.020871 20.621134 16 30 24
6.023075 2.021443 20.626968 43 15 43
6.066535 2.022178 20.634472 25 21 21
6.109653 2.022791 20.640720 26 23 40
6.152222 2.023214 20.645041 42 31 15
6.193663 2.023263 20.645544 23 41 31
6.232401 2.022435 20.637089 29 31 16
6.269614 2.021126 20.623732 27 43 29
6.305839 2.019517 20.607317 27 39 36
6.342530 2.018078 20.592628 21 42 19
6.381457 2.017364 20.585346 20 31 17
6.417945 2.015893 20.570337 35 43 34
6.455118 2.014655 20.557699 37 17 27
6.491003 2.013033 20.541149 42 33 39
6.523657 2.010435 20.514645 27 39 40
6.557667 2.008285 20.492708 37 15 19
6.590639 2.005847 20.467823 35 43 37
6.627791 2.004702 20.456146 32 18 35
6.665047 2.003603 20.444929 29 43 20
6.698386 2.001347 20.421907 42 38 32
6.732819 1.999443 20.402483 35 33 23
6.764508 1.996752 20.375023 25 15 18
6.797789 1.994561 20.352661 34 35 18
6.832608 1.992844 20.335144 30 28 16
6.868154 1.991358 20.319983 30 31 22
6.907493 1.990983 20.316154 30 21 33
6.947020 1.990667 20.312925 32 22 18
6.987911 1.990742 20.313696 41 18 22
7.028532 1.990740 20.313675 32 36 43
7.066972 1.990124 20.307390 17 44 36
7.104886 1.989368 20.299675 18 16 44
7.140225 1.987904 20.284731 29 30 43
3.598126 2.141742 21.417419 22 35 34
3.636194 2.138938 21.389376 38 42 20
3.671871 2.134809 21.348089 21 43 33
3.708971 2.131593 21.315928 25 18 19
3.746454 2.128667 21.286671 30 20 29
3.782804 2.125171 21.251709 24 23 24
3.821688 2.123160 21.231600 36 34 44
3.859270 2.120478 21.204782 22 39 41
3.898391 2.118690 21.186905 26 27 19
3.937738 2.117063 21.170633 25 42 23
3.975626 2.114695 21.146946 33 31 20
4.014852 2.113080 21.130802 35 22 30
4.052360 2.110604 21.106041 24 16 26
4.091126 2.108828 21.088278 39 22 40
4.129366 2.106820 21.068195 34 22 44
4.165635 2.103856 21.038561 30 40 15
4.203270 2.101635 21.016352 39 25 22
4.237716 2.097879 20.978792 41 21 16
4.273309 2.094759 20.947594 18 17 26
4.308364 2.091439 20.914387 33 29 23
4.341507 2.087263 20.872631 33 27 32
4.377474 2.084511 20.845114 120 120 120
4.410400 2.080377 20.803774 120 120 120
4.444804 2.077011 20.770113 120 120 120
4.479920 2.074037 20.740372 43 44 26
4.514221 2.070744 20.707438 20 16 33
4.551894 2.069043 20.690426 23 40 44
4.588985 2.067110 20.671103 17 42 23
4.627696 2.065936 20.659355 41 20 15
4.667558 2.065291 20.652912 17 33 24
4.707098 2.064517 20.645168 31 28 24
4.747837 2.064277 20.642769 21 33 39
4.788260 2.063905 20.639053 20 43 25
4.828984 2.063668 20.636684 20 34 29
4.869549 2.063368 20.633680 28 39 33
4.909389 2.062769 20.627686 38 20 39
4.949376 2.062240 20.622400 31 34 32
4.988465 2.061349 20.613491 44 24 18
5.027876 2.060605 20.606050 43 22 22
5.067142 2.059814 20.598137 19 21 19
5.105726 2.058760 20.587605 39 22 38
5.145076 2.058030 20.580303 28 41 21
5.184472 2.057330 20.573303 15 29 25
5.224901 2.057048 20.570477 30 35 40
5.265853 2.056974 20.569738 30 35 40
5.306509 2.056786 20.567863 30 35 40
5.347445 2.056710 20.567097 30 35 40
5.388185 2.056559 20.565590 30 35 40
5.428892 2.056398 20.563984 30 35 40
5.469666 2.056265 20.562653 30 35 40
5.510653 2.056214 20.562140 38 44 26
5.551928 2.056270 20.562696 41 36 33
5.592303 2.055994 20.559937 30 37 39
5.631913 2.055443 20.554428 30 35 40
5.671497 2.054890 20.548901 30 35 40
5.711586 2.054527 20.545273 30 35 40
5.752529 2.054475 20.544746 29 22 30
5.794189 2.054677 20.546770 43 43 39
5.836289 2.055031 20.550314 24 23 15
5.878754 2.055508 20.555082 22 38 15
5.921015 2.055908 20.559078 37 24 30
5.962696 2.056102 20.561020 42 20 29
6.005362 2.056631 20.566307 43 16 25
6.048561 2.057334 20.573338 38 42 37
6.091406 2.057907 20.579075 21 42 22
6.133680 2.058282 20.582819 31 24 19
6.174893 2.058298 20.582975 34 35 24
6.213312 2.057388 20.573881 16 20 23
6.250150 2.055970 20.559704 19 32 30
6.286105 2.054283 20.542828 39 40 25
6.322693 2.052822 20.528225 43 17 32
6.361663 2.052149 20.521492 38 39 15
6.398397 2.050768 20.507683 35 20 20
6.435798 2.049617 20.496172 18 22 15
6.471996 2.048100 20.480999 33 39 36
6.505092 2.045626 20.456264 16 15 28
6.539401 2.043563 20.435629 41 15 44
6.572661 2.041199 20.411989 20 37 34
6.609821 2.040068 20.400682 40 36 15
6.647048 2.038972 20.389719 42 19 17
6.680553 2.036754 20.367540 28 21 37
6.715131 2.034888 20.348881 22 36 17
6.747277 2.032312 20.323124 28 39 18
6.781080 2.030263 20.302633 28 42 28
6.816400 2.028690 20.286903 42 31 21
6.852470 2.027358 20.273579 17 38 19
6.892049 2.027073 20.270731 39 36 37
6.931105 2.026639 20.266390 41 19 21
6.970777 2.026389 20.263885 33 29 16
7.010144 2.026053 20.260530 23 34 21
7.048057 2.025304 20.253036 20 21 15
7.086164 2.024618 20.246181 41 32 36
7.121876 2.023260 20.232603 25 24 24
3.622336 2.173402 21.307859 21 29 33
3.658069 2.169320 21.267841 33 34 40
3.695194 2.166148 21.236750 36 25 41
3.732646 2.163238 21.208218 24 38 31
3.768931 2.159724 21.173767 18 37 33
3.807649 2.157668 21.153605 31 39 42
3.845038 2.154911 21.126581 44 22 22
3.883964 2.153067 21.108501 44 17 43
3.923091 2.151372 21.091885 22 31 41
3.960749 2.148917 21.067812 24 30 21
3.999762 2.147240 21.051376 22 26 25
4.036974 2.144643 21.025908 37 32 44
4.075431 2.142753 21.007378 20 20 38
4.113357 2.140625 20.986517 19 24 28
4.149331 2.137534 20.956219 31 18 15
4.186752 2.135243 20.933760 38 30 36
4.220951 2.131371 20.895796 37 36 44
4.256298 2.128149 20.864208 29 26 39
4.291133 2.124736 20.830742 24 31 28
4.324062 2.120454 20.788761 17 40 39
4.359852 2.117642 20.761198 120 120 120
4.392704 2.113471 20.720303 120 120 120
4.427071 2.110099 20.687248 120 120 120
4.462227 2.107163 20.658461 23 35 27
4.496630 2.103928 20.626743 44 21 26
4.534342 2.102286 20.610647 19 25 25
4.571614 2.100471 20.592855 18 29 19
4.610468 2.099410 20.582447 27 16 39
4.650477 2.098888 20.577333 16 37 43
4.690213 2.098253 20.571112 17 32 41
4.731007 2.098099 20.569597 17 29 33
4.771539 2.097832 20.566977 15 27 40
4.812305 2.097671 20.565407 27 37 35
4.852833 2.097411 20.562851 15 26 35
4.892630 2.096842 20.557270 21 40 30
4.932486 2.096306 20.552023 36 37 30
4.971338 2.095357 20.542717 39 19 23
5.010474 2.094543 20.534731 22 27 16
5.049385 2.093647 20.525953 43 15 37
5.087552 2.092461 20.514322 30 39 17
5.126543 2.091629 20.506170 35 28 20
5.165417 2.090764 20.497688 30 35 40
5.205368 2.090345 20.493576 30 35 40
5.245820 2.090132 20.491486 30 35 40
5.285909 2.089778 20.488020 30 35 40
5.326420 2.089596 20.486231 30 35 40
5.366660 2.089310 20.483435 30 35 40
5.406953 2.089050 20.480881 30 35 40
5.447381 2.088845 20.478874 30 35 40
5.488034 2.088729 20.477737 30 35 40
5.529097 2.088770 20.478136 44 39 29
5.569225 2.088459 20.475092 30 35 40
5.608638 2.087887 20.469482 30 35 40
5.647979 2.087297 20.463694 30 35 40
5.687671 2.086843 20.459248 30 35 40
5.728199 2.086701 20.457853 30 35 40
5.769431 2.086815 20.458975 43 15 35
5.811264 2.087144 20.462196 22 37 25
5.853468 2.087600 20.466671 25 19 15
5.895355 2.087938 20.469984 30 37 16
5.936684 2.088075 20.471323 18 40 22
5.978890 2.088516 20.475651 29 34 39
6.021664 2.089149 20.481850 43 26 18
6.064086 2.089651 20.486776 32 37 41
6.105898 2.089938 20.489592 34 17 19
6.146762 2.089899 20.489208 29 25 17
6.184766 2.088894 20.479357 19 28 18
6.221179 2.087369 20.464405 37 21 19
6.256834 2.085611 20.447170 28 23 21
6.293304 2.084146 20.432806 16 42 33
6.332300 2.083531 20.426775 42 19 31
6.369303 2.082272 20.414433 43 28 17
6.406932 2.081233 20.404243 37 24 16
6.443457 2.079850 20.390688 37 38 17
6.477095 2.077559 20.368223 35 17 44
6.511786 2.075632 20.349331 22 37 37
6.545295 2.073354 20.327003 41 30 37
6.582296 2.072204 20.315729 22 32 27
6.619260 2.071057 20.304480 34 22 37
6.652736 2.068839 20.282732 18 33 40
6.687335 2.066995 20.264652 41 31 24
6.719646 2.064470 20.239899 31 34 25
6.753591 2.062474 20.220331 38 32 15
6.789037 2.060958 20.205467 19 34 36
6.825299 2.059706 20.193193 24 33 38
6.864941 2.059482 20.191002 24 29 25
6.903677 2.058991 20.186190 17 32 30
6.942521 2.058538 20.181747 28 18 34
6.981158 2.058029 20.176758 20 23 31
7.018981 2.057288 20.169487 29 31 28
7.057456 2.056744 20.164160 42 16 42
3.612558 2.210035 21.250340 16 17 27
3.648295 2.205946 21.211020 25 26 34
3.685413 2.202775 21.180532 31 33 19
3.722807 2.199841 21.152315 37 35 17
3.758978 2.196257 21.117853 37 29 20
3.797519 2.194122 21.097330 41 37 37
3.834694 2.191254 21.069748 26 34 35
3.873424 2.189327 21.051220 42 22 40
3.912346 2.187548 21.034117 21 43 28
3.949789 2.184989 21.009514 40 20 18
3.988633 2.183252 20.992804 21 20 39
4.025610 2.180539 20.966717 20 15 26
4.063818 2.178541 20.947514 40 39 27
4.101500 2.176306 20.926022 42 30 16
4.137248 2.173100 20.895193 27 38 25
4.174511 2.170745 20.872553 26 28 29
4.208540 2.166773 20.834356 22 41 41
4.243726 2.163468 20.802578 44 38 29
4.278416 2.159977 20.769009 37 28 25
4.311200 2.155600 20.726925 31 17 23
4.346858 2.152730 20.699326 120 120 120
4.379666 2.148515 20.658802 120 120 120
4.414017 2.145130 20.626247 120 120 120
4.449216 2.142215 20.598221 28 32 37
4.483698 2.139012 20.567421 22 24 25
4.521448 2.137412 20.552036 37 17 38
4.558854 2.135679 20.535378 22 25 35
4.597805 2.134695 20.525917 24 21 21
4.637911 2.134260 20.521730 32 24 25
4.677778 2.133723 20.516571 20 35 29
4.718607 2.133631 20.515682 23 20 40
4.759201 2.133435 20.513798 21 19 35
4.799988 2.133328 20.512768 30 38 21
4.840482 2.133094 20.510519 30 42 32
4.880232 2.132538 20.505177 29 31 28
4.919983 2.131992 20.499928 23 38 33
4.958637 2.130984 20.490234 20 20 23
4.997549 2.130103 20.481760 40 22 37
5.036167 2.129111 20.472223 18 30 24
5.073997 2.127805 20.459665 19 19 42
5.112704 2.126885 20.450817 24 19 23
5.151167 2.125878 20.441137 32 24 38
5.190740 2.125342 20.435984 30 35 40
5.230802 2.125013 20.432819 30 35 40
5.270431 2.124515 20.428026 30 35 40
5.310607 2.124243 20.425413 30 35 40
5.350443 2.123840 20.421539 30 35 40
5.390414 2.123496 20.418234 30 35 40
5.430569 2.123230 20.415674 30 35 40
5.470909 2.123039 20.413841 15 33 40
5.511745 2.123042 20.413870 20 19 17
5.551678 2.122700 20.410582 21 39 26
5.591011 2.122136 20.405151 30 35 40
5.630238 2.121539 20.399414 30 35 40
5.669628 2.121012 20.394344 30 35 40
5.709786 2.120778 20.392094 41 15 31
5.750611 2.120793 20.392239 37 42 23
5.792170 2.121076 20.394966 36 19 17
5.834108 2.121494 20.398977 26 23 26
5.875622 2.121752 20.401464 44 44 21
5.916632 2.121827 20.402180 26 23 38
5.958406 2.122172 20.405499 17 21 36
6.000798 2.122731 20.410879 26 39 15
6.042852 2.123164 20.415041 43 33 39
6.084268 2.123369 20.417006 37 32 25
6.124844 2.123279 20.416145 27 15 37
6.162545 2.122201 20.405777 31 32 43
6.198672 2.120598 20.390369 30 35 40
6.234150 2.118796 20.373039 44 36 24
6.270557 2.117331 20.358952 25 33 19
6.309573 2.116760 20.353460 18 15 17
6.346755 2.115585 20.342163 27 31 16
6.384540 2.114625 20.332930 41 39 39
6.421273 2.113330 20.320484 21 25 22
6.455266 2.111156 20.299580 43 30 30
6.490195 2.109313 20.281860 17 26 36
6.523777 2.107058 20.260176 36 39 15
6.560537 2.105851 20.248571 35 39 29
6.597124 2.104604 20.236578 19 38 28
6.630358 2.102309 20.214506 21 17 32
6.664814 2.100426 20.196405 17 43 35
6.696861 2.097812 20.171268 25 40 33
6.730448 2.095708 20.151043 15 40 30
6.765575 2.094107 20.135641 30 16 38
6.801632 2.092810 20.123173 25 30 26
6.841187 2.092598 20.121138 37 34 19
6.880049 2.092179 20.117102 21 22 27
6.919034 2.091801 20.113470 35 22 31
6.957984 2.091417 20.109781 26 21 21
6.996304 2.090849 20.104321 35 27 38
7.035158 2.090447 20.100452 31 20 43
3.638888 2.242570 21.156324 22 34 41
3.675944 2.239368 21.126114 16 24 44
3.713226 2.236375 21.097878 16 35 37
3.749229 2.232687 21.063084 18 19 18
3.787568 2.230457 21.042046 25 32 36
3.824478 2.227443 21.013617 30 37 36
3.862966 2.225404 20.994381 44 42 21
3.901638 2.223514 20.976549 21 26 42
3.938821 2.220825 20.951176 23 25 36
3.977464 2.219006 20.934021 29 34 26
4.014191 2.216168 20.907244 29 17 35
4.052156 2.214065 20.887403 26 24 23
4.089619 2.211733 20.865404 44 33 17
4.125151 2.208414 20.834095 37 42 40
4.162261 2.205998 20.811306 24 32 26
4.196155 2.201943 20.773045 17 17 25
4.231220 2.198575 20.741276 25 32 35
4.265813 2.195030 20.707830 26 21 40
4.298488 2.190576 20.665810 16 20 37
4.334029 2.187653 20.638231 120 120 120
4.366798 2.183399 20.598103 120 120 120
4.401145 2.180006 20.566097 120 120 120
4.436376 2.177110 20.538776 24 36 20
4.470921 2.173934 20.508810 15 42 34
4.508678 2.172363 20.493990 19 38 18
4.546161 2.170690 20.478205 29 40 38
4.585156 2.169761 20.469446 41 26 19
4.625299 2.169388 20.465925 38 20 27
4.665232 2.168924 20.461546 38 43 16
4.706058 2.168879 20.461121 43 38 34
4.746681 2.168742 20.459833 30 22 40
4.787462 2.168679 20.459240 36 32 20
4.827909 2.168468 20.457241 24 43 25
4.867598 2.167922 20.452091 15 24 21
4.907242 2.167365 20.446842 19 41 41
4.945708 2.166302 20.436811 42 23 15
4.984403 2.165355 20.427879 15 43 18
5.022746 2.164273 20.417665 21 25 19
5.060266 2.162856 20.404299 16 42 20
5.098714 2.161855 20.394857 28 28 37
5.136792 2.160714 20.384094 26 44 25
5.175999 2.160062 20.377947 30 35 40
5.215682 2.159618 20.373758 30 35 40
5.254882 2.158983 20.367762 30 35 40
5.294743 2.158626 20.364397 30 35 40
5.334226 2.158122 20.359642 30 35 40
5.373923 2.157712 20.355770 30 35 40
5.413846 2.157397 20.352804 30 35 40
5.453884 2.157133 20.350315 40 26 38
5.494472 2.157089 20.349895 17 16 37
5.534299 2.156749 20.346689 20 39 35
5.573732 2.156261 20.342087 17 43 44
5.613046 2.155735 20.337122 30 35 40
5.652274 2.155184 20.331923 18 26 28
5.692104 2.154868 20.328943 19 40 19
5.732582 2.154800 20.328304 39 44 24
5.773912 2.155052 20.330677 29 20 17
5.815619 2.155439 20.334332 38 24 15
5.856831 2.155639 20.336220 37 35 17
5.897565 2.155662 20.336432 27 39 34
5.938980 2.155931 20.338972 16 36 26
5.981042 2.156430 20.343679 41 34 31
6.022775 2.156805 20.347214 29 18 44
6.063849 2.156940 20.348488 29 27 29
6.104178 2.156810 20.347261 30 35 40
6.141659 2.155682 20.336618 30 35 40
6.177630 2.154042 20.321152 30 35 40
6.213024 2.152224 20.303999 30 35 40
6.249379 2.150760 20.290192 30 35 40
6.288352 2.150211 20.285006 21 15 27
6.325581 2.149076 20.274298 30 31 15
6.363373 2.148145 20.265520 36 36 20
6.400177 2.146895 20.253725 26 40 43
6.434412 2.144804 20.234001 38 37 28
6.469543 2.143036 20.217321 15 43 44
6.503126 2.140781 20.196045 30 22 40
6.539568 2.139488 20.183851 39 39 44
6.575705 2.138113 20.170876 44 17 25
6.608644 2.135720 20.148304 28 35 35
6.642946 2.133795 20.130140 29 25 36
6.674601 2.131047 20.104221 41 22 20
6.707644 2.128773 20.082766 22 39 42
6.742220 2.127010 20.066132 29 29 32
6.777757 2.125569 20.052534 23 27 36
6.816999 2.125300 20.049997 24 30 18
6.855952 2.124944 20.046644 23 38 16
6.895316 2.124719 20.044523 24 32 40
6.934866 2.124554 20.042965 17 23 36
6.973807 2.124206 20.039675 35 24 28
3.663033 2.273607 21.051914 33 34 31
3.700188 2.270570 21.023796 18 32 34
3.736006 2.266790 20.988798 19 38 41
3.774113 2.264468 20.967295 38 40 36
3.810717 2.261305 20.938007 43 34 40
3.848914 2.259145 20.918013 26 19 29
3.887282 2.257132 20.899366 38 32 43
3.924142 2.254294 20.873096 33 38 24
3.962527 2.252384 20.855406 38 24 39
3.998944 2.249406 20.827831 38 19 29
4.036616 2.247188 20.807297 34 31 29
4.073816 2.244756 20.784775 25 27 33
4.109095 2.241325 20.753006 34 40 29
4.146023 2.238853 20.730116 34 15 32
4.179754 2.234720 20.691851 32 31 17
4.214681 2.231302 20.660202 24 32 39
4.249160 2.227715 20.626989 20 18 42
4.281704 2.223192 20.585114 15 32 33
4.317096 2.220221 20.557600 120 120 120
4.349812 2.215942 20.517981 120 120 120
4.384142 2.212557 20.486643 120 120 120
4.419393 2.209697 20.460154 16 33 31
4.453988 2.206563 20.431139 29 36 34
4.491723 2.205028 20.416922 33 27 23
4.529261 2.203424 20.402075 17 20 36
4.568269 2.202558 20.394060 38 18 33
4.608419 2.202253 20.391235 19 18 42
4.648406 2.201877 20.387747 26 15 39
4.689212 2.201891 20.387878 41 28 15
4.729856 2.201830 20.387312 31 32 38
4.770628 2.201828 20.387299 29 44 22
4.811019 2.201653 20.385672 37 18 21
4.850647 2.201134 20.380871 28 21 15
4.890163 2.200573 20.375679 26 42 38
4.928420 2.199460 20.365372 38 15 26
4.966874 2.198452 20.356039 15 42 28
5.004913 2.197279 20.345173 29 21 28
5.042097 2.195752 20.331036 41 42 30
5.080259 2.194672 20.321035 39 19 42
5.117900 2.193386 20.309128 42 22 15
5.156672 2.192601 20.301859 37 33 26
5.195906 2.192023 20.296507 30 35 40
5.234613 2.191233 20.289198 30 35 40
5.274115 2.190786 20.285059 30 35 40
5.313204 2.190176 20.279404 30 35 40
5.352604 2.189702 20.275015 30 35 40
5.392268 2.189342 20.271683 43 22 25
5.431948 2.188994 20.268461 27 25 15
5.472213 2.188885 20.267456 33 37 32
5.511995 2.188586 20.264687 44 29 38
5.551698 2.188260 20.261671 42 39 33
5.591276 2.187891 20.258247 17 30 16
5.630407 2.187352 20.253262 35 35 30
5.669841 2.186939 20.249432 19 39 17
5.709958 2.186793 20.248079 20 31 35
5.751104 2.187040 20.250366 34 39 23
5.792650 2.187434 20.254021 40 44 30
5.833632 2.187612 20.255667 30 16 34
5.874135 2.187609 20.255638 41 41 20
5.915257 2.187835 20.257729 15 15 42
5.957032 2.188298 20.262014 38 32 20
5.998477 2.188633 20.265123 38 16 16
6.039239 2.188718 20.265903 30 35 40
6.079308 2.188551 20.264359 30 35 40
6.116596 2.187392 20.253630 30 35 40
6.152450 2.185739 20.238323 30 35 40
6.187786 2.183924 20.221521 30 35 40
6.224080 2.182470 20.208052 30 35 40
6.262964 2.181936 20.203110 30 35 40
6.300175 2.180830 20.192867 41 38 19
6.337882 2.179908 20.184338 40 26 24
6.374697 2.178694 20.173092 36 31 37
6.409227 2.176719 20.154802 22 32 25
6.444673 2.175077 20.139603 25 42 28
6.478365 2.172868 20.119144 25 18 24
6.514509 2.171503 20.106508 26 18 38
6.550231 2.170015 20.092733 34 37 26
6.583002 2.167574 20.070129 34 41 34
6.617265 2.165650 20.052319 21 38 22
6.648680 2.162824 20.026146 28 15 17
6.681310 2.160424 20.003923 24 33 32
6.715387 2.158517 19.986271 42 28 15
6.750374 2.156924 19.971519 24 36 43
6.789176 2.156562 19.968164 15 44 36
6.827887 2.156175 19.964581 25 25 37
6.867211 2.155985 19.962824 42 26 15
6.906946 2.155925 19.962273 15 36 33
3.654377 2.310239 21.002169 16 21 36
3.691435 2.307147 20.974060 35 31 27
3.727133 2.303284 20.938948 35 16 21
3.765092 2.300889 20.917175 22 15 33
3.801497 2.297608 20.887344 40 20 36
3.839496 2.295351 20.866825 40 35 33
3.877657 2.293238 20.847618 29 25 27
3.914293 2.290278 20.820705 37 34 28
3.952494 2.288286 20.802599 15 42 15
3.988711 2.285199 20.774538 35 38 42
4.026206 2.282900 20.753637 38 18 36
4.063251 2.280396 20.730873 29 23 42
4.098387 2.276882 20.698925 32 41 40
4.135202 2.274361 20.676010 32 16 40
4.168852 2.270167 20.637882 44 42 32
4.203713 2.266708 20.606434 19 37 28
4.238139 2.263084 20.573492 25 37 28
4.270618 2.258500 20.531818 17 26 42
4.305922 2.255483 20.504393 120 120 120
4.338603 2.251162 20.465109 120 120 120
4.372921 2.247763 20.434212 120 120 120
4.408174 2.244903 20.408211 37 20 16
4.442772 2.241766 20.379688 23 24 24
4.480470 2.240235 20.365772 26 39 17
4.517995 2.238646 20.351330 35 25 44
4.556964 2.237795 20.343588 21 20 15
4.597075 2.237514 20.341040 25 23 40
4.637055 2.237176 20.337961 29 32 24
4.677825 2.237220 20.338367 31 35 35
4.718465 2.237203 20.338209 22 21 29
4.759215 2.237238 20.338526 22 25 27
4.799572 2.237089 20.337170 44 16 37
4.839165 2.236589 20.332626 16 32 33
4.878600 2.236025 20.327499 44 18 22
4.916746 2.234884 20.317131 28 42 25
4.955063 2.233840 20.307636 38 28 33
4.992941 2.232616 20.296507 17 25 33
5.029952 2.231027 20.282066 42 18 30
5.067958 2.229902 20.271833 24 24 44
5.105361 2.228531 20.259369 36 19 42
5.143872 2.227661 20.251465 33 24 29
5.182833 2.226998 20.245440 29 27 42
5.221263 2.226120 20.237452 29 34 23
5.260566 2.225624 20.232944 30 35 40
5.299448 2.224959 20.226900 18 20 40
5.338699 2.224458 20.222345 15 39 30
5.378235 2.224082 20.218929 39 44 17
5.417692 2.223679 20.215267 19 17 15
5.457733 2.223521 20.213825 23 32 34
5.497563 2.223279 20.211628 31 28 16
5.537606 2.223127 20.210241 38 38 26
5.577523 2.222926 20.208418 15 29 43
5.616700 2.222435 20.203959 23 36 23
5.655893 2.221958 20.199617 43 34 40
5.695840 2.221782 20.198015 22 38 18
5.736936 2.222053 20.200480 29 20 28
5.778463 2.222486 20.204414 33 36 34
5.819407 2.222690 20.206276 44 37 22
5.859842 2.222699 20.206352 27 20 41
5.900890 2.222938 20.208527 44 20 40
5.942575 2.223412 20.212839 30 21 22
5.983918 2.223753 20.215940 43 31 36
6.024567 2.223834 20.216669 30 35 40
6.064517 2.223656 20.215055 30 35 40
6.101762 2.222496 20.204510 30 35 40
6.137640 2.220856 20.189604 30 35 40
6.173003 2.219054 20.173214 30 35 40
6.209271 2.217597 20.159971 30 35 40
6.248051 2.217050 20.155005 30 35 40
6.285156 2.215920 20.144730 31 32 41
6.322697 2.214957 20.135977 16 27 36
6.359428 2.213725 20.124771 31 20 17
6.394092 2.211793 20.107208 22 34 34
6.429766 2.210232 20.093018 32 31 24
6.463566 2.208051 20.073187 39 40 18
6.499536 2.206633 20.060297 21 17 17
6.535042 2.205076 20.046143 36 15 42
6.567785 2.202611 20.023735 27 36 15
6.602104 2.200701 20.006374 44 42 42
6.633451 2.197830 19.980274 37 41 17
6.665891 2.195353 19.957756 41 37 30
6.699655 2.193339 19.939449 44 18 28
6.734211 2.191607 19.923702 25 40 24
6.772626 2.191144 19.919487 15 26 44
6.810984 2.190668 19.915159 36 20 22
6.850121 2.190446 19.913141 32 21 41
6.889796 2.190397 19.912704 42 27 35
3.677650 2.340323 20.895739 24 36 36
3.713025 2.336286 20.859694 32 29 21
3.750698 2.333767 20.837210 33 23 27
3.786737 2.330300 20.806246 42 40 22
3.824398 2.327894 20.784769 26 22 24
3.862215 2.325635 20.764599 31 40 31
3.898459 2.322486 20.736485 39 44 44
3.936343 2.320371 20.717594 22 35 41
3.972242 2.317141 20.688759 41 28 25
4.009495 2.314760 20.667501 26 29 17
4.046357 2.312204 20.644678 23 43 39
4.081300 2.308614 20.612627 42 30 38
4.117952 2.306053 20.589762 33 18 18
4.151487 2.301815 20.551916 27 27 44
4.186246 2.298331 20.520813 18 30 17
4.220600 2.294695 20.488348 19 31 16
4.253019 2.290087 20.447205 18 36 18
4.288227 2.287055 20.420130 120 120 120
4.320893 2.282736 20.381569 120 120 120
4.355205 2.279360 20.351425 120 120 120
4.390450 2.276530 20.326159 33 35 16
4.425038 2.273414 20.298338 42 35 44
4.462640 2.271889 20.284725 42 22 29
4.500084 2.270313 20.270649 19 36 35
4.538937 2.269469 20.263113 37 26 44
4.578920 2.269199 20.260708 39 32 33
4.618800 2.268884 20.257893 23 37 41
4.659450 2.268950 20.258480 41 36 35
4.699990 2.268960 20.258575 16 27 21
4.740636 2.269022 20.259129 35 29 26
4.780871 2.268888 20.257927 15 42 41
4.820327 2.268389 20.253473 15 21 30
4.859595 2.267811 20.248312 44 20 25
4.897534 2.266627 20.237743 23 31 28
4.935636 2.265538 20.228018 28 28 32
4.973274 2.264255 20.216560 18 32 33
5.010039 2.262598 20.201771 26 38 26
5.047827 2.261426 20.191307 41 35 20
5.084897 2.259954 20.178162 21 40 26
5.123027 2.258973 20.169399 40 24 22
5.161612 2.258205 20.162548 41 21 24
5.199691 2.257230 20.153843 17 23 28
5.238751 2.256693 20.149042 24 38 29
5.277438 2.256004 20.142893 44 16 38
5.316558 2.255509 20.138475 37 16 18
5.356011 2.255162 20.135378 37 19 42
5.395346 2.254771 20.131887 22 26 26
5.435224 2.254611 20.130459 35 44 31
5.475196 2.254493 20.129398 39 16 38
5.515550 2.254531 20.129744 34 27 36
5.555869 2.254555 20.129959 43 23 34
5.595421 2.254270 20.127415 26 39 29
5.634755 2.253902 20.124125 40 33 18
5.674878 2.253852 20.123680 18 33 26
5.716004 2.254199 20.126776 44 20 22
5.757485 2.254679 20.131065 23 32 33
5.798444 2.254951 20.133488 35 36 23
5.838835 2.254998 20.133913 32 17 19
5.879810 2.255270 20.136335 42 38 33
5.921359 2.255756 20.140676 18 26 23
5.962526 2.256091 20.143669 30 35 40
6.002991 2.256158 20.144264 30 35 40
6.042751 2.255960 20.142502 30 35 40
6.079897 2.254796 20.132111 30 35 40
6.115790 2.253186 20.117729 30 35 40
6.151146 2.251400 20.101786 30 35 40
6.187244 2.249907 20.088453 30 35 40
6.225742 2.249301 20.083040 30 35 40
6.262497 2.248076 20.072107 30 35 40
6.299676 2.247018 20.062662 43 43 16
6.336140 2.245720 20.051075 20 43 36
6.370748 2.243786 20.033800 25 41 22
6.406521 2.242282 20.020378 42 25 16
6.440339 2.240118 20.001053 32 42 32
6.476099 2.238652 19.987961 34 25 40
6.511397 2.237045 19.973612 15 44 30
6.544185 2.234600 19.951782 27 33 41
6.578640 2.232751 19.935274 22 44 43
6.609846 2.229827 19.909174 15 26 18
6.641961 2.227244 19.886110 27 26 20
6.675061 2.225020 19.866253 26 15 23
6.708536 2.222947 19.847740 30 20 44
6.745881 2.222173 19.840826 23 38 38
6.783194 2.221397 19.833900 28 20 30
6.821902 2.221084 19.831110 23 32 16
3.701836 2.370839 20.796829 18 23 24
3.739241 2.368186 20.773561 23 39 40
3.774935 2.364520 20.741404 20 32 40
3.812298 2.361967 20.719009 44 37 44
3.849821 2.359568 20.697964 22 34 22
3.885706 2.356226 20.668648 18 19 21
3.923306 2.353984 20.648979 22 43 33
3.958948 2.350625 20.619518 27 34 20
3.996039 2.348188 20.598137 37 23 28
4.032797 2.345606 20.575495 32 22 24
4.067623 2.341965 20.543552 15 17 40
4.104167 2.339375 20.520834 29 37 39
4.137638 2.335103 20.483358 26 28 35
4.172332 2.331597 20.452608 38 28 19
4.206645 2.327949 20.420609 22 20 36
4.239063 2.323333 20.380110 21 20 23
4.274238 2.320301 20.353516 120 120 120
4.306933 2.315992 20.315722 120 120 120
4.341255 2.312631 20.286238 120 120 120
4.376491 2.309815 20.261534 29 41 40
4.411061 2.306702 20.234226 42 16 37
4.448574 2.305170 20.220793 27 35 35
4.485923 2.303582 20.206861 42 42 23
4.524660 2.302729 20.199373 41 22 20
4.564507 2.302451 20.196936 30 29 32
4.604262 2.302131 20.194130 42 15 18
4.644791 2.302201 20.194742 43 28 27
4.685209 2.302215 20.194864 38 20 37
4.725733 2.302280 20.195440 16 15 29
4.765840 2.302143 20.194239 30 26 26
4.805153 2.301628 20.189718 41 42 36
4.844275 2.301031 20.184481 23 35 42
4.882042 2.299805 20.173729 27 15 22
4.919971 2.298675 20.163815 24 23 33
4.957426 2.297344 20.152138 22 39 30
4.994002 2.295630 20.137106 25 37 44
5.031624 2.294421 20.126497 43 23 24
5.068440 2.292866 20.112858 26 30 23
5.106279 2.291794 20.103460 42 24 41
5.144576 2.290944 20.096001 33 37 40
5.182402 2.289898 20.086828 30 30 18
5.221295 2.289337 20.081905 44 19 18
5.259892 2.288655 20.075924 32 40 30
5.298960 2.288187 20.071819 29 40 28
5.338426 2.287897 20.069271 32 36 15
5.377801 2.287572 20.066422 22 23 44
5.417678 2.287464 20.065475 43 15 29
5.457815 2.287467 20.065496 18 19 37
5.498284 2.287607 20.066730 19 16 22
5.538845 2.287784 20.068277 40 27 34
5.578954 2.287772 20.068178 28 39 15
5.618774 2.287644 20.067051 28 36 23
5.659359 2.287826 20.068647 15 26 25
5.700595 2.288267 20.072517 31 41 41
5.742027 2.288780 20.077019 43 27 28
5.783055 2.289126 20.080051 44 20 19
5.823431 2.289211 20.080797 40 16 24
5.864364 2.289512 20.083437 18 38 35
5.905800 2.290004 20.087755 28 21 38
5.946809 2.290325 20.090570 44 26 31
5.987114 2.290373 20.090988 30 35 40
6.026716 2.290152 20.089052 30 35 40
6.063736 2.288960 20.078596 30 35 40
6.099605 2.287352 20.064491 30 35 40
6.134881 2.285544 20.048632 30 35 40
6.170719 2.283968 20.034803 30 35 40
6.208888 2.283269 20.028671 30 35 40
6.245196 2.281899 20.016655 23 36 35
6.281954 2.280709 20.006222 39 31 34
6.318077 2.279306 19.993916 15 37 17
6.352495 2.277310 19.976400 20 21 20
6.388256 2.275816 19.963301 42 23 19
6.422015 2.273633 19.944145 17 31 38
6.457548 2.272100 19.930704 40 34 21
