ply
format ascii 1.0
element vertex 1257
property float x
property float y
property float z
property uchar red
property uchar green
property uchar blue
end_header
-3.724538 2.333445 22.436975 24 15 43
-3.684219 2.336334 22.464752 40 17 41
-3.645330 2.340212 22.502035 31 24 23
-3.604125 2.342681 22.525782 27 31 39
-3.563935 2.345881 22.556551 19 30 28
-3.521895 2.347930 22.576252 26 23 44
-3.479474 2.349774 22.593985 19 19 25
-3.438162 2.352427 22.619486 29 42 23
-3.395470 2.354193 22.636467 33 23 22
-3.354839 2.357454 22.667831 37 28 18
-3.313562 2.360345 22.695627 24 25 25
-3.272518 2.363485 22.725817 20 41 17
-3.232297 2.367316 22.762653 24 33 38
-3.190100 2.369789 22.786428 23 23 17
-3.149965 2.373887 22.825834 28 44 34
-3.109333 2.377725 22.862740 22 34 31
-3.067773 2.380958 22.893826 28 29 17
-3.025259 2.383537 22.918629 19 33 27
-2.980086 2.384069 22.923738 33 30 30
-2.935799 2.385336 22.935926 35 29 21
-2.891272 2.386446 22.946600 38 15 43
-2.847149 2.387932 22.960882 20 21 19
-7.233215 2.165878 20.432810 15 20 26
-7.192144 2.165816 20.432226 37 34 41
-7.152031 2.166044 20.434374 36 43 29
-7.110006 2.165691 20.431051 33 40 29
-7.065216 2.164488 20.419699 41 26 19
-7.021969 2.163746 20.412701 42 16 43
-6.983297 2.164414 20.418997 31 35 19
-6.947292 2.165920 20.433210 43 34 31
-6.914414 2.168426 20.456846 40 25 19
-6.879972 2.170468 20.476109 18 30 29
-6.846157 2.172733 20.497477 43 30 25
-6.813795 2.175489 20.523478 43 30 33
-6.778334 2.177283 20.540405 39 43 15
-6.746366 2.180228 20.568190 29 24 22
-6.712550 2.182608 20.590643 17 41 40
-6.679079 2.185131 20.614443 22 30 16
-6.648083 2.188499 20.646221 15 18 43
-6.613796 2.190820 20.668112 31 28 20
-6.582186 2.194062 20.698698 40 38 25
-6.547602 2.196347 20.720259 24 44 25
-6.512585 2.198516 20.740717 29 17 30
-6.479897 2.201504 20.768902 25 43 36
-6.444197 2.203500 20.787731 22 24 39
-6.410821 2.206322 20.814354 22 24 33
-6.375098 2.208367 20.833652 26 17 16
-6.338899 2.210274 20.851641 39 17 40
-6.304167 2.212721 20.874725 31 24 39
-6.266707 2.214236 20.889023 40 17 37
-6.232119 2.216794 20.913151 30 24 28
-6.196147 2.218890 20.932928 26 32 23
-6.160527 2.221142 20.954172 43 43 21
-6.126769 2.224101 20.982086 41 29 27
-6.090329 2.226120 21.001133 33 25 26
-6.056908 2.229279 21.030931 25 20 18
-6.021462 2.231731 21.054064 38 41 35
-5.986155 2.234269 21.078011 22 28 27
-5.953152 2.237710 21.110470 23 29 25
-5.917197 2.240082 21.132845 42 38 28
-5.883342 2.243289 21.163101 40 42 37
-5.847064 2.245611 21.185013 33 15 32
-5.809686 2.247543 21.203232 17 35 24
-5.773152 2.249831 21.224823 30 29 42
-5.733780 2.251039 21.236221 36 32 22
-5.695318 2.252626 21.251186 24 32 18
-5.655713 2.253780 21.262079 27 31 31
-5.615284 2.254622 21.270016 24 35 34
-5.575035 2.255549 21.278761 36 43 16
-5.533411 2.255929 21.282349 22 38 26
-5.492016 2.256410 21.286884 28 39 34
-5.449818 2.256565 21.288351 40 22 44
-5.408006 2.256884 21.291361 40 16 28
-5.367510 2.257762 21.299643 19 38 30
-5.326995 2.258646 21.307981 27 32 26
-5.288498 2.260406 21.324589 24 30 28
-5.249941 2.262170 21.341223 27 42 23
-5.211285 2.263919 21.357727 37 39 39
-5.172565 2.265669 21.374235 44 29 20
-5.131773 2.266533 21.382387 27 40 41
-5.090740 2.267305 21.389666 29 35 38
-5.048398 2.267501 21.391516 37 31 41
-5.005555 2.267474 21.391260 42 27 24
-4.963257 2.267695 21.393351 15 35 40
-4.920838 2.267865 21.394949 17 42 30
-4.879677 2.268622 21.402090 33 29 22
-4.838987 2.269613 21.411446 28 42 36
-4.798460 2.270700 21.421698 21 33 26
-4.757304 2.271506 21.429298 27 15 35
-4.714887 2.271718 21.431303 34 20 23
-4.674934 2.273133 21.444653 44 35 20
-4.635479 2.274818 21.460550 120 120 120
-4.597289 2.277162 21.482660 120 120 120
-4.560490 2.280245 21.511744 120 120 120
-4.522063 2.282565 21.533632 24 44 43
-4.486081 2.286176 21.567698 40 22 29
-4.447819 2.288683 21.591352 16 17 37
-4.410540 2.291751 21.620296 16 27 24
-4.376894 2.296786 21.667791 26 42 42
-4.341346 2.300914 21.706732 34 31 30
-4.308329 2.306479 21.759237 17 30 41
-4.271805 2.310262 21.794926 32 27 32
-4.234688 2.313799 21.828289 40 35 29
-4.199643 2.318553 21.873138 40 16 38
-4.161411 2.321629 21.902164 19 42 34
-4.126389 2.326581 21.948877 35 16 41
-4.089458 2.330551 21.986332 42 20 19
-4.052611 2.334656 22.025061 37 19 34
-4.017622 2.339934 22.074846 38 34 23
-3.979368 2.343406 22.107599 27 17 36
-3.944573 2.349016 22.160524 39 42 37
-3.908034 2.353702 22.204739 32 31 35
-3.871148 2.358285 22.247976 40 24 34
-3.835541 2.363764 22.299658 28 34 20
-3.796212 2.367050 22.330658 32 31 28
-3.758757 2.371597 22.373554 33 21 26
-3.719142 2.374874 22.404469 29 31 43
-3.678818 2.377773 22.431816 34 42 33
-3.639812 2.381606 22.467978 43 42 18
-3.598487 2.383998 22.490543 41 15 24
-3.558072 2.387061 22.519445 42 24 33
-3.515890 2.389002 22.537756 21 22 26
-3.473297 2.390711 22.553875 44 16 17
-3.431709 2.393166 22.577036 25 28 29
-3.388836 2.394777 22.592237 20 41 41
-3.347951 2.397857 22.621288 24 21 24
-3.306521 2.400625 22.647408 31 18 15
-3.265384 2.403686 22.676281 17 23 38
-3.225062 2.407441 22.711704 21 39 16
-3.182881 2.409896 22.734867 34 25 41
-3.142679 2.413942 22.773035 23 32 30
-3.101885 2.417646 22.807981 26 15 15
-3.060326 2.420855 22.838251 20 18 31
-3.018148 2.423664 22.864758 37 17 43
-2.973494 2.424541 22.873028 40 40 39
-2.929646 2.426113 22.887863 32 36 38
-2.885283 2.427302 22.899075 39 30 23
-2.841236 2.428798 22.913193 38 18 23
-2.798290 2.431301 22.936804 38 41 38
-7.214381 2.200997 20.379606 35 18 21
-7.173776 2.201045 20.380047 25 35 40
-7.133896 2.201317 20.382561 36 27 30
-7.092828 2.201223 20.381691 23 37 44
-7.049510 2.200425 20.374308 28 15 30
-7.007546 2.200044 20.370773 17 21 31
-6.969466 2.200884 20.378555 44 41 34
-6.933259 2.202329 20.391937 22 36 28
-6.899789 2.204666 20.413578 21 25 27
-6.864677 2.206503 20.430586 24 35 17
-6.830184 2.208562 20.449652 23 26 27
-6.797348 2.211186 20.473940 36 22 28
-6.761840 2.212966 20.490425 22 15 37
-6.729791 2.215907 20.517654 23 23 42
-6.695973 2.218298 20.539793 33 18 33
-6.662506 2.220835 20.563290 30 36 43
-6.631342 2.224177 20.594231 20 31 41
-6.596909 2.226457 20.615339 34 43 38
-6.565204 2.229692 20.645294 42 21 23
-6.530636 2.231990 20.666571 44 20 28
-6.495803 2.234225 20.687271 36 21 38
-6.463447 2.237347 20.716177 18 25 32
-6.428143 2.239482 20.735947 15 41 24
-6.395283 2.242502 20.763906 28 36 24
-6.359971 2.244696 20.784220 23 36 24
-6.324144 2.246735 20.803106 35 27 29
-6.289846 2.249349 20.827305 37 34 15
-6.252670 2.250961 20.842234 43 36 43
-6.218242 2.253591 20.866583 36 28 15
-6.182258 2.255689 20.886007 26 28 16
-6.146518 2.257904 20.906523 32 28 29
-6.112633 2.260837 20.933674 31 26 20
-6.076129 2.262834 20.952168 18 27 35
-6.042606 2.265977 20.981270 20 37 33
-6.007143 2.268432 21.003996 27 29 19
-5.971827 2.270977 21.027561 29 27 43
-5.938694 2.274393 21.059198 38 37 21
-5.902642 2.276734 21.080866 15 39 25
-5.868868 2.279992 21.111034 15 26 16
-5.832846 2.282418 21.133499 21 38 25
-5.795859 2.284499 21.152769 36 28 16
-5.759748 2.286959 21.175543 24 22 17
-5.720721 2.288289 21.187857 32 25 38
-5.682671 2.290032 21.203997 26 20 44
-5.643305 2.291267 21.215433 23 15 42
-5.603177 2.292209 21.224155 21 27 42
-5.563520 2.293359 21.234808 34 41 37
-5.522461 2.293946 21.240236 22 16 38
-5.481629 2.294636 21.246626 41 40 19
-5.439741 2.294891 21.248987 25 42 32
-5.398099 2.295255 21.252359 39 24 44
-5.357796 2.296198 21.261097 27 31 31
-5.317372 2.297105 21.269489 38 41 16
-5.278915 2.298882 21.285946 28 40 23
-5.240432 2.300678 21.302570 36 41 29
-5.201724 2.302403 21.318542 32 21 21
-5.162713 2.304020 21.333523 35 27 25
-5.121596 2.304718 21.339985 26 41 44
-5.080258 2.305327 21.345621 31 42 33
-5.037835 2.305450 21.346758 44 17 40
-4.995023 2.305395 21.346252 40 27 16
-4.952681 2.305559 21.347765 38 44 31
-4.910274 2.305694 21.349018 18 32 38
-4.869400 2.306558 21.357019 39 36 40
-4.829209 2.307764 21.368183 32 39 28
-4.789235 2.309095 21.380512 33 38 20
-4.748546 2.310104 21.389849 25 31 38
-4.706373 2.310401 21.392605 40 36 18
-4.666526 2.311857 21.406082 18 43 34
-4.627027 2.313513 21.421419 120 120 120
-4.588688 2.315786 21.442467 120 120 120
-4.551754 2.318818 21.470539 120 120 120
-4.513268 2.321109 21.491753 24 19 29
-4.477195 2.324697 21.524975 32 16 38
-4.438911 2.327196 21.548113 39 25 15
-4.401630 2.330275 21.576618 35 17 37
-4.367929 2.335328 21.623411 41 38 42
-4.332364 2.339477 21.661819 21 21 26
-4.299402 2.345129 21.714153 23 39 21
-4.263045 2.349025 21.750229 27 34 25
-4.226110 2.352680 21.784071 35 36 16
-4.191167 2.357532 21.828997 43 40 27
-4.152988 2.360646 21.857834 44 23 43
-4.117955 2.365634 21.904016 27 30 33
-4.081004 2.369615 21.940880 22 16 31
-4.044123 2.373724 21.978928 31 42 15
-4.009106 2.379030 22.028055 30 35 40
-3.970882 2.382529 22.060453 37 15 15
-3.936075 2.388181 22.112783 25 21 25
-3.899551 2.392907 22.156542 25 35 33
-3.862669 2.397519 22.199245 23 44 33
-3.827017 2.403011 22.250097 43 24 35
-3.787678 2.406290 22.280458 32 28 36
-3.750160 2.410817 22.322382 29 34 44
-3.710544 2.414089 22.352673 22 20 32
-3.670177 2.416946 22.379126 19 38 38
-3.631018 2.420679 22.413694 28 33 43
-3.589571 2.422961 22.434820 16 41 19
-3.548955 2.425868 22.461740 36 34 27
-3.506678 2.427700 22.478706 15 35 41
-3.463997 2.429297 22.493486 29 33 43
-3.422233 2.431587 22.514692 16 31 20
-3.379276 2.433078 22.528503 15 17 33
-3.338261 2.436029 22.555820 17 36 37
-3.296798 2.438727 22.580807 27 40 16
-3.255674 2.441756 22.608849 35 39 17
-3.215346 2.445475 22.643284 29 36 23
-3.173239 2.447927 22.665995 31 17 16
-3.133071 2.451968 22.703411 42 38 33
-3.092250 2.455610 22.737133 17 29 37
-3.050796 2.458851 22.767136 17 29 17
-3.009009 2.461917 22.795527 43 43 33
-2.964876 2.463127 22.806736 22 40 31
-2.921467 2.464988 22.823963 25 30 25
-2.877280 2.466240 22.835552 41 40 25
-2.833320 2.467730 22.849352 39 16 28
-2.790542 2.470316 22.873293 41 15 24
-7.202065 2.237930 20.344816 22 24 22
-7.161616 2.238005 20.345501 21 41 44
-7.121756 2.238266 20.347874 35 28 30
-7.081330 2.238351 20.348650 41 27 19
-7.039302 2.237928 20.344803 21 27 39
-6.998322 2.237836 20.343960 23 36 18
-6.960048 2.238612 20.351017 25 26 17
-6.922820 2.239736 20.361235 32 22 16
-6.888534 2.241831 20.380278 29 28 34
-6.853344 2.243654 20.396858 31 44 28
-6.818987 2.245774 20.416128 20 18 42
-6.786068 2.248396 20.439964 22 28 17
-6.750494 2.250165 20.456041 28 39 42
-6.718395 2.253120 20.482912 39 20 17
-6.684628 2.255549 20.504995 25 32 40
-6.651224 2.258132 20.528469 36 31 36
-6.620002 2.261491 20.559013 16 15 35
-6.585488 2.263761 20.579649 32 17 39
-6.553819 2.267044 20.609493 27 24 43
-6.519395 2.269410 20.630997 27 31 18
-6.484825 2.271754 20.652309 16 38 27
-6.452813 2.275030 20.682093 32 33 26
-6.417817 2.277290 20.702635 16 41 35
-6.385332 2.280476 20.731598 36 30 37
-6.350281 2.282781 20.752552 31 18 27
-6.314692 2.284922 20.772015 40 20 43
-6.280710 2.287676 20.797052 40 21 34
-6.243774 2.289384 20.812580 29 34 32
-6.209485 2.292092 20.837196 41 21 40
-6.173496 2.294205 20.856405 38 39 15
-6.137672 2.296408 20.876436 44 16 31
-6.103747 2.299357 20.903244 39 31 27
-6.067244 2.301368 20.921530 31 26 15
-6.033694 2.304536 20.950325 39 16 34
-5.998258 2.307022 20.972931 17 26 42
-5.962918 2.309581 20.996189 30 44 26
-5.929573 2.312954 21.026854 18 17 40
-5.893291 2.315221 21.047466 31 37 27
-5.859450 2.318487 21.077158 36 15 37
-5.823617 2.321007 21.100061 41 31 32
-5.786940 2.323224 21.120218 24 26 26
-5.751102 2.325813 21.143759 36 37 25
-5.712272 2.327222 21.156565 21 31 25
-5.674371 2.329033 21.173027 34 15 19
-5.634971 2.330251 21.184103 37 23 31
-5.594885 2.331202 21.192747 29 16 17
-5.555603 2.332505 21.204590 22 37 26
-5.515026 2.333280 21.211639 44 21 43
-5.474645 2.334151 21.219555 35 44 35
-5.432978 2.334483 21.222569 34 24 17
-5.391431 2.334872 21.226107 41 22 38
-5.351233 2.335856 21.235050 43 40 18
-5.310841 2.336770 21.243362 40 40 22
-5.272314 2.338526 21.259329 21 35 27
-5.233741 2.340291 21.275372 27 40 43
-5.194889 2.341958 21.290529 16 21 18
-5.155661 2.343482 21.304384 15 38 37
-5.114398 2.344099 21.309994 39 18 36
-5.072949 2.344640 21.314911 38 36 20
-5.030558 2.344751 21.315922 41 44 27
-4.987843 2.344713 21.315569 24 35 19
-4.945562 2.344879 21.317080 22 41 22
-4.903217 2.345017 21.318335 15 33 19
-4.862512 2.345949 21.326805 31 40 27
-4.822504 2.347236 21.338512 33 43 31
-4.782796 2.348695 21.351768 29 38 42
-4.742503 2.349889 21.362627 26 18 24
-4.700689 2.350344 21.366766 26 16 19
-4.661068 2.351915 21.381044 30 34 37
-4.621554 2.353569 21.396084 120 120 120
-4.583083 2.355790 21.416275 120 120 120
-4.546054 2.358802 21.443651 120 120 120
-4.507519 2.361081 21.464376 31 40 20
-4.471362 2.364662 21.496931 35 27 40
-4.433035 2.367155 21.519587 43 27 36
-4.395718 2.370240 21.547636 40 16 25
-4.361931 2.375309 21.593719 28 44 41
-4.326319 2.379475 21.631594 40 37 27
-4.293342 2.385190 21.683546 25 36 31
-4.257059 2.389166 21.719687 15 21 39
-4.220213 2.392904 21.753675 23 40 37
-4.185287 2.397821 21.798368 15 42 18
-4.147105 2.400955 21.826868 15 26 29
-4.112018 2.405968 21.872438 19 18 26
-4.075027 2.409962 21.908749 30 35 40
-4.038100 2.414082 21.946198 30 35 40
-4.003029 2.419413 21.994663 30 35 40
-3.964798 2.422932 22.026655 30 35 40
-3.929921 2.428603 22.078207 30 35 40
-3.893342 2.433339 22.121260 28 18 43
-3.856391 2.437948 22.163164 23 41 28
-3.820628 2.443425 22.212952 44 40 16
-3.781230 2.446678 22.242529 23 27 41
-3.743602 2.451168 22.283346 20 39 39
-3.703935 2.454414 22.312859 25 39 18
-3.663515 2.457236 22.338505 33 25 34
-3.624237 2.460902 22.371834 26 15 42
-3.582724 2.463123 22.392027 41 20 41
-3.542028 2.465969 22.417896 32 38 17
-3.499743 2.467768 22.434252 20 42 35
-3.457086 2.469347 22.448608 24 31 34
-3.415315 2.471609 22.469177 18 23 43
-3.372388 2.473085 22.482590 22 39 18
-3.331412 2.476049 22.509541 29 43 19
-3.290020 2.478782 22.534382 42 15 38
-3.248982 2.481861 22.562376 24 43 31
-3.208730 2.485636 22.596687 24 23 16
-3.166708 2.488127 22.619341 38 17 41
-3.126595 2.492214 22.656488 42 27 41
-3.085785 2.495855 22.689594 15 16 44
-3.044410 2.499143 22.719481 30 38 37
-3.002882 2.502402 22.749105 41 44 16
-2.959075 2.503832 22.762112 30 21 37
-2.915947 2.505892 22.780836 28 35 28
-2.871881 2.507198 22.792707 42 23 28
-2.827994 2.508704 22.806404 44 35 21
-2.785347 2.511378 22.830709 21 19 25
-7.183260 2.272670 20.291695 39 41 22
-7.143168 2.272826 20.293091 21 24 36
-7.103505 2.273122 20.295729 40 28 18
-7.063801 2.273407 20.298279 27 44 43
-7.022925 2.273317 20.297472 39 25 16
-6.982865 2.273491 20.299026 18 36 34
-6.944675 2.274279 20.306067 37 32 24
-6.906858 2.275200 20.314287 42 17 42
-6.872094 2.277143 20.331638 23 21 18
-6.836886 2.278962 20.347874 44 35 40
-6.802636 2.281123 20.367172 16 25 34
-6.769706 2.283756 20.390680 40 22 41
-6.734147 2.285529 20.406506 18 22 37
-6.702121 2.288529 20.433296 27 34 35
-6.668515 2.291024 20.455568 40 39 32
-6.635276 2.293676 20.479248 24 32 36
-6.604086 2.297073 20.509583 40 35 28
-6.569542 2.299340 20.529819 20 21 26
-6.538018 2.302698 20.559805 18 20 28
-6.503891 2.305177 20.581934 16 40 34
-6.469724 2.307672 20.604218 42 20 33
-6.438161 2.311135 20.635132 19 37 41
-6.403518 2.313529 20.656509 44 33 32
-6.371426 2.316882 20.686447 18 32 27
-6.336630 2.319289 20.707941 27 25 35
-6.301263 2.321518 20.727839 40 27 21
-6.267617 2.324414 20.753700 35 37 19
-6.230967 2.326228 20.769890 27 37 29
-6.196828 2.329009 20.794725 17 42 33
-6.160835 2.331127 20.813631 36 30 19
-6.124890 2.333291 20.832958 27 38 24
-6.090803 2.336199 20.858915 17 43 37
-6.054175 2.338164 20.876467 32 20 26
-6.020470 2.341294 20.904409 18 26 32
-5.984995 2.343774 20.926556 21 26 27
-5.949613 2.346326 20.949341 17 35 40
-5.916051 2.349637 20.978903 30 33 17
-5.879587 2.351835 20.998524 23 44 31
-5.845648 2.355081 21.027510 34 24 16
-5.809930 2.357653 21.050470 41 21 28
-5.773449 2.359950 21.070980 26 44 40
-5.737774 2.362613 21.094757 25 15 36
-5.699088 2.364066 21.107735 32 28 19
-5.661222 2.365884 21.123964 43 17 21
-5.621705 2.367034 21.134230 21 19 17
-5.581584 2.367945 21.142365 25 20 30
-5.542531 2.369326 21.154699 34 29 39
-5.502335 2.370237 21.162828 23 17 35
-5.462434 2.371289 21.172226 21 34 28
-5.421169 2.371762 21.176443 18 24 21
-5.379940 2.372257 21.180866 29 39 20
-5.339970 2.373320 21.190355 30 44 44
-5.299646 2.374242 21.198586 39 43 22
-5.261110 2.375985 21.214151 28 28 30
-5.222501 2.377724 21.229679 16 28 24
-5.183588 2.379352 21.244215 44 34 20
-5.144317 2.380841 21.257507 37 23 29
-5.103075 2.381435 21.262812 26 43 29
-5.061705 2.381979 21.267668 22 44 43
-5.019436 2.382105 21.268795 34 15 38
-4.976919 2.382115 21.268887 18 24 40
-4.934879 2.382355 21.271030 17 42 44
-4.892760 2.382561 21.272869 37 21 18
-4.852388 2.383629 21.282402 37 31 40
-4.812622 2.385016 21.294786 30 31 31
-4.773264 2.386632 21.309214 29 36 31
-4.733638 2.388142 21.322695 35 42 29
-4.692477 2.388898 21.329443 31 31 28
-4.653304 2.390688 21.345430 30 37 31
-4.613836 2.392359 21.360350 120 120 120
-4.575196 2.394495 21.379419 120 120 120
-4.538040 2.397455 21.405851 120 120 120
-4.499420 2.399690 21.425808 36 20 30
-4.463080 2.403197 21.457117 31 22 26
-4.424635 2.405627 21.478811 37 15 42
-4.387185 2.408651 21.505810 34 18 33
-4.353188 2.413649 21.550438 39 23 42
-4.317447 2.417770 21.587234 19 29 37
-4.284362 2.423477 21.638191 29 26 37
-4.248136 2.427507 21.674166 24 31 17
-4.211348 2.431293 21.707977 44 32 36
-4.176328 2.436192 21.751711 16 33 44
-4.138042 2.439267 21.779169 29 36 35
-4.102772 2.444204 21.823254 30 35 40
-4.065674 2.448148 21.858461 30 35 40
-4.028649 2.452221 21.894833 30 35 40
-3.993425 2.457492 21.941895 30 35 40
-3.955140 2.460976 21.973000 30 35 40
-3.920109 2.466585 22.023083 30 35 40
-3.883418 2.471266 22.064877 30 35 40
-3.846355 2.475815 22.105488 35 29 43
-3.810430 2.481210 22.153662 27 34 16
-3.770977 2.484408 22.182219 32 37 27
-3.733231 2.488821 22.221615 18 29 39
-3.693513 2.492009 22.250080 34 24 40
-3.653066 2.494777 22.274794 22 39 26
-3.613714 2.498370 22.306877 37 30 44
-3.572202 2.500541 22.326262 44 26 39
-3.531547 2.503375 22.351561 28 25 38
-3.489382 2.505197 22.367834 32 40 39
-3.446904 2.506840 22.382496 28 29 30
-3.405325 2.509187 22.403452 29 16 42
-3.362593 2.510736 22.417286 32 16 28
-3.321856 2.513837 22.444973 15 39 41
-3.280696 2.516698 22.470522 40 27 26
-3.239883 2.519909 22.499186 31 44 18
-3.199853 2.523828 22.534176 39 32 15
-3.158000 2.526400 22.557142 39 28 33
-3.118029 2.530574 22.594414 39 28 17
-3.077282 2.534232 22.627071 15 16 42
-3.036005 2.537557 22.656757 34 44 40
-2.994723 2.540977 22.687294 23 35 43
-2.951217 2.542587 22.701666 37 37 31
-2.908354 2.544810 22.721518 18 44 42
-2.864427 2.546158 22.733551 29 24 21
-2.820639 2.547674 22.747089 38 35 17
-2.778141 2.550424 22.771646 17 15 41
-7.168491 2.308497 20.249973 37 18 34
-7.128762 2.308747 20.252165 44 35 42
-7.089371 2.309109 20.255346 29 24 42
-7.050055 2.309501 20.258778 26 36 29
-7.009523 2.309496 20.258736 17 27 39
-6.969792 2.309757 20.261024 39 17 20
-6.931984 2.310661 20.268959 19 21 33
-6.894429 2.311661 20.277731 24 22 37
-6.859886 2.313689 20.295521 24 20 22
-6.824764 2.315545 20.311796 43 22 19
-6.790553 2.317734 20.330997 40 43 33
-6.757722 2.320423 20.354584 42 34 26
-6.722272 2.322239 20.370522 44 29 34
-6.690416 2.325328 20.397610 41 43 33
-6.657008 2.327911 20.420269 26 24 26
-6.623956 2.330651 20.444309 15 30 40
-6.592866 2.334120 20.474739 35 17 34
-6.558343 2.336410 20.494822 15 33 39
-6.526987 2.339863 20.525116 17 34 33
-6.493136 2.342460 20.547897 34 37 31
-6.459287 2.345092 20.570978 35 34 33
-6.428029 2.348703 20.602657 43 30 15
-6.393594 2.351193 20.624498 38 44 41
-6.361693 2.354653 20.654848 33 36 24
-6.327002 2.357118 20.676476 26 38 40
-6.291712 2.359392 20.696423 29 27 39
-6.258231 2.362378 20.722618 44 24 37
-6.221744 2.364263 20.739145 24 37 26
-6.187687 2.367102 20.764051 18 43 22
-6.151724 2.369245 20.782850 28 21 19
-6.115686 2.371388 20.801653 35 43 36
-6.081373 2.374234 20.826618 20 32 20
-6.044522 2.376122 20.843178 37 17 22
-6.010546 2.379174 20.869951 32 21 22
-5.974953 2.381625 20.891443 16 24 24
-5.939502 2.384166 20.913740 38 41 20
-5.905841 2.387468 20.942699 43 30 28
-5.869358 2.389667 20.961992 33 37 39
-5.835365 2.392919 20.990520 15 32 38
-5.799622 2.395496 21.013124 33 29 38
-5.763127 2.397797 21.033310 33 25 24
-5.727415 2.400461 21.056671 21 29 41
-5.688744 2.401914 21.069424 44 24 36
-5.650788 2.403694 21.085032 40 37 25
-5.611133 2.404771 21.094486 22 31 24
-5.570910 2.405620 21.101931 15 37 21
-5.531802 2.406967 21.113747 25 33 20
-5.491663 2.407883 21.121782 31 30 26
-5.452010 2.409028 21.131821 18 16 41
-5.411149 2.409652 21.137302 35 38 36
-5.370325 2.410303 21.143013 28 36 18
-5.330608 2.411465 21.153206 32 31 18
-5.290345 2.412397 21.161381 26 32 26
-5.251850 2.414157 21.176813 34 20 26
-5.213256 2.415899 21.192097 20 44 42
-5.174388 2.417542 21.206507 33 42 43
-5.135257 2.419088 21.220070 20 34 28
-5.094204 2.419747 21.225849 18 44 40
-5.053056 2.420371 21.231327 30 25 29
-5.010939 2.420538 21.232794 34 17 40
-4.968598 2.420599 21.233326 38 33 40
-4.926837 2.420946 21.236366 18 31 29
-4.884980 2.421251 21.239042 37 20 39
-4.844908 2.422454 21.249596 37 29 39
-4.805280 2.423902 21.262300 41 17 25
-4.766162 2.425636 21.277508 36 15 43
-4.727137 2.427449 21.293409 40 43 20
-4.686606 2.428514 21.302755 36 30 18
-4.647861 2.430533 21.320465 34 33 17
-4.608417 2.432220 21.335264 120 120 120
-4.569601 2.434273 21.353275 120 120 120
-4.532324 2.437193 21.378887 120 120 120
-4.493623 2.439395 21.398205 20 22 24
-4.457110 2.442839 21.428415 31 20 16
-4.418534 2.445208 21.449196 32 37 21
-4.380936 2.448170 21.475178 31 41 44
-4.346717 2.453098 21.518400 31 27 37
-4.310836 2.457177 21.554180 36 22 40
-4.277620 2.462872 21.604139 43 29 41
-4.241423 2.466950 21.639912 43 28 25
-4.204658 2.470778 21.673492 28 40 30
-4.169498 2.475639 21.716133 26 35 27
-4.131065 2.478639 21.742447 18 33 26
-4.095580 2.483490 21.785000 30 35 40
-4.058371 2.487389 21.819201 30 35 40
-4.021249 2.491426 21.854612 30 35 40
-3.985880 2.496650 21.900442 30 35 40
-3.947539 2.500108 21.930773 30 35 40
-3.912380 2.505681 21.979662 30 35 40
-3.875603 2.510334 22.020473 30 35 40
-3.838473 2.514862 22.060192 18 18 27
-3.802455 2.520232 22.107294 16 42 44
-3.762993 2.523419 22.135252 37 30 28
-3.725196 2.527812 22.173786 44 39 30
-3.685462 2.530980 22.201578 44 21 19
-3.645026 2.533738 22.225771 34 37 16
-3.605671 2.537324 22.257227 23 35 39
-3.564207 2.539497 22.276293 32 28 32
-3.523660 2.542387 22.301643 17 24 15
-3.481647 2.544280 22.318249 36 20 19
-3.439380 2.546034 22.333635 40 26 31
-3.398044 2.548533 22.355553 44 36 40
-3.355530 2.550202 22.370197 30 17 28
-3.315072 2.553502 22.399137 17 39 43
-3.274160 2.556536 22.425753 31 32 43
-3.233571 2.559911 22.455357 26 33 42
-3.193772 2.564014 22.491354 43 40 38
-3.152075 2.566689 22.514820 20 31 39
-3.112239 2.570980 22.552460 31 22 18
-3.071572 2.574700 22.585089 20 22 31
-3.030365 2.578072 22.614666 28 42 17
-2.989204 2.581585 22.645487 39 22 41
-2.945831 2.583267 22.660238 27 33 25
-2.903089 2.585564 22.680382 28 40 25
-2.859246 2.586936 22.692425 21 23 42
-2.815530 2.588471 22.705889 27 25 22
-2.773111 2.591267 22.730415 26 33 18
-7.154181 2.344308 20.209551 19 39 17
-7.114850 2.344667 20.212643 17 39 23
-7.075778 2.345115 20.216509 22 40 33
-7.036728 2.345576 20.220484 42 17 20
-6.996237 2.345559 20.220339 20 32 43
-6.956581 2.345824 20.222620 41 40 29
-6.919170 2.346853 20.231491 41 23 38
-6.882094 2.348009 20.241453 32 24 33
-6.847934 2.350179 20.260160 41 38 35
-6.812910 2.352076 20.276518 38 43 44
-6.778704 2.354280 20.295521 33 32 24
-6.745993 2.357034 20.319256 38 31 44
-6.710669 2.358902 20.335360 33 42 30
-6.679012 2.362090 20.362843 15 20 42
-6.645818 2.364770 20.385944 28 33 17
-6.612964 2.367604 20.410383 30 40 21
-6.582036 2.371168 20.441105 38 19 38
-6.547599 2.373505 20.461248 39 40 19
-6.516471 2.377077 20.492046 27 31 43
-6.482933 2.379811 20.515612 35 23 21
-6.449408 2.382584 20.539516 27 32 22
-6.418419 2.386335 20.571856 24 26 27
-6.384119 2.388896 20.593931 21 20 34
-6.352324 2.392434 20.624428 30 41 33
-6.317673 2.394935 20.645990 34 28 15
-6.282408 2.397235 20.665815 34 36 39
-6.249026 2.400288 20.692141 26 21 37
-6.212670 2.402232 20.708900 43 33 40
-6.178660 2.405116 20.733759 23 37 34
-6.142689 2.407270 20.752327 21 33 16
-6.106549 2.409387 20.770575 38 15 41
-6.072028 2.412176 20.794617 41 37 23
-6.034994 2.413998 20.810324 38 29 31
-6.000809 2.416992 20.836142 18 44 16
-5.965127 2.419422 20.857088 29 19 27
-5.929645 2.421968 20.879030 27 20 43
-5.895935 2.425278 20.907570 39 17 36
-5.859475 2.427497 20.926695 35 27 33
-5.825394 2.430740 20.954655 28 33 40
-5.789544 2.433287 20.976610 28 17 20
-5.752909 2.435538 20.996019 43 31 24
-5.717034 2.438147 21.018509 24 40 42
-5.678295 2.439564 21.030724 19 17 27
-5.640151 2.441259 21.045340 19 24 41
-5.600327 2.442248 21.053862 32 19 42
-5.559952 2.443009 21.060425 27 42 44
-5.520654 2.444259 21.071198 17 40 38
-5.480435 2.445117 21.078596 30 35 40
-5.440909 2.446300 21.088795 31 42 20
-5.400400 2.447056 21.095312 28 27 15
-5.359978 2.447864 21.102276 44 21 21
-5.320505 2.449121 21.113115 42 31 26
-5.280312 2.450065 21.121248 15 19 19
-5.241913 2.451862 21.136745 39 28 41
-5.203396 2.453634 21.152016 31 22 18
-5.164660 2.455330 21.166641 29 41 37
-5.125803 2.456996 21.181004 37 35 40
-5.085044 2.457771 21.187683 16 31 17
-5.044227 2.458531 21.194231 25 32 41
-5.002305 2.458760 21.196207 32 27 27
-4.960175 2.458890 21.197329 24 18 42
-4.918768 2.459384 21.201588 30 25 40
-4.877226 2.459818 21.205332 31 21 18
-4.837498 2.461183 21.217094 18 16 15
-4.798003 2.462692 21.230103 19 29 43
-4.759090 2.464529 21.245935 37 16 37
-4.720627 2.466634 21.264084 32 17 20
-4.680687 2.467999 21.275852 27 28 40
-4.642412 2.470274 21.295467 38 32 24
-4.603108 2.472039 21.310684 120 120 120
-4.564231 2.474069 21.328184 120 120 120
-4.526902 2.476984 21.353313 120 120 120
-4.488120 2.479152 21.372000 28 28 43
-4.451419 2.482522 21.401054 30 35 40
-4.412685 2.484813 21.420801 39 26 44
-4.374908 2.487693 21.445629 25 33 24
-4.340434 2.492527 21.487299 15 42 26
-4.304397 2.496550 21.521984 15 30 36
-4.270994 2.502199 21.570679 27 33 42
-4.234757 2.506285 21.605902 30 39 37
-4.197938 2.510107 21.638855 37 35 19
-4.162564 2.514882 21.680019 41 43 33
-4.123941 2.517774 21.704952 30 35 40
-4.088197 2.522505 21.745731 30 35 40
-4.050858 2.526342 21.778809 30 35 40
-4.013626 2.530329 21.813183 30 35 40
-3.978063 2.535468 21.857487 30 35 40
-3.939619 2.538865 21.886770 30 35 40
-3.904268 2.544355 21.934092 30 35 40
-3.867360 2.548942 21.973637 30 35 40
-3.830119 2.553413 22.012180 30 35 40
-3.793973 2.558726 22.057985 28 44 43
-3.754487 2.561885 22.085218 38 26 15
-3.716642 2.566253 22.122869 39 41 36
-3.676898 2.569399 22.149990 32 36 21
-3.636509 2.572165 22.173836 16 32 32
-3.597215 2.575783 22.205029 31 31 29
-3.555867 2.578004 22.224171 27 41 27
-3.515551 2.581037 22.250322 21 35 19
-3.473793 2.583077 22.267904 26 28 32
-3.431851 2.585030 22.284744 27 19 41
-3.390907 2.587797 22.308598 44 35 24
-3.348714 2.589672 22.324759 19 26 32
-3.308664 2.593277 22.355839 16 41 23
-3.268084 2.596560 22.384134 25 33 35
-3.227781 2.600157 22.415144 43 19 39
-3.188283 2.604512 22.452694 31 42 23
-3.146768 2.607322 22.476917 38 32 26
-3.107094 2.611760 22.515171 36 30 33
-3.066529 2.615569 22.548010 36 19 39
-3.025365 2.618973 22.577353 24 28 34
-2.984222 2.622498 22.607744 42 38 38
-2.940850 2.624143 22.621920 32 30 30
-2.898115 2.626417 22.641527 44 35 35
-2.854325 2.627791 22.653374 26 17 35
-2.810681 2.629347 22.666782 33 20 30
-2.768319 2.632172 22.691139 18 44 25
-7.136566 2.378855 20.159790 22 35 33
-7.097763 2.379364 20.164101 23 22 33
-7.059062 2.379912 20.168749 34 42 32
-7.020460 2.380501 20.173735 27 30 20
-6.980319 2.380571 20.174332 30 42 24
-6.940938 2.380903 20.177145 38 43 35
-6.903813 2.382017 20.186586 37 21 16
-6.866906 2.383220 20.196781 35 28 38
-6.832781 2.385409 20.215328 16 23 30
-6.797649 2.387270 20.231098 31 18 37
-6.763304 2.389431 20.249413 36 26 20
-6.730529 2.392176 20.272678 30 40 23
-6.695258 2.394062 20.288662 36 37 38
-6.663697 2.397306 20.316151 41 29 40
-6.630646 2.400050 20.339405 15 33 29
-6.597971 2.402965 20.364109 21 39 30
-6.567178 2.406606 20.394964 24 25 27
-6.532842 2.408985 20.415131 34 19 34
-6.501985 2.412686 20.446495 18 30 18
-6.468805 2.415566 20.470901 39 19 30
-6.435661 2.418497 20.495735 35 26 31
-6.405009 2.422407 20.528875 17 23 28
-6.370899 2.425052 20.551287 34 15 42
-6.339289 2.428688 20.582106 37 41 19
-6.304750 2.431244 20.603760 31 15 33
-6.269586 2.433589 20.623638 31 18 19
-6.236417 2.436746 20.650389 26 41 27
-6.200289 2.438780 20.667629 43 31 35
-6.166323 2.441698 20.692358 20 22 15
-6.130220 2.443804 20.710203 40 28 43
-6.093880 2.445843 20.727484 32 34 19
-6.059196 2.448579 20.750671 32 38 28
-6.022123 2.450381 20.765942 17 23 26
-5.987888 2.453371 20.791279 34 39 20
-5.952256 2.455826 20.812082 23 33 27
-5.916816 2.458395 20.833858 31 31 24
-5.883052 2.461702 20.861885 25 22 19
-5.846544 2.463901 20.880514 22 40 43
-5.812317 2.467098 20.907614 26 16 26
-5.776359 2.469603 20.928837 16 21 30
-5.739600 2.471799 20.947447 35 39 41
-5.703568 2.474342 20.969002 33 16 23
-5.664770 2.475714 20.980631 16 41 33
-5.626447 2.477316 20.994205 19 27 40
-5.586456 2.478202 21.001713 26 28 26
-5.545950 2.478872 21.007387 18 35 31
-5.506533 2.480042 21.017302 30 35 40
-5.466327 2.480871 21.024334 30 35 40
-5.426950 2.482093 21.034689 30 35 40
-5.386714 2.482939 21.041853 17 23 15
-5.346611 2.483858 21.049648 42 44 36
-5.307350 2.485188 21.060911 31 17 21
-5.267270 2.486151 21.069080 24 31 23
-5.229032 2.488007 21.084806 42 41 37
-5.190678 2.489837 21.100317 40 30 43
-5.152152 2.491614 21.115376 23 36 29
-5.113585 2.493401 21.130518 35 43 16
-5.073099 2.494274 21.137913 15 22 16
-5.032615 2.495162 21.145439 16 38 37
-4.990916 2.495458 21.147951 24 30 39
-4.949042 2.495671 21.149754 37 15 37
-4.908041 2.496331 21.155350 25 19 35
-4.866864 2.496913 21.160278 21 24 22
-4.827562 2.498475 21.173517 16 31 31
-4.788314 2.500093 21.187229 31 21 23
-4.749694 2.502071 21.203989 44 22 28
-4.711788 2.504464 21.224270 19 16 19
-4.672367 2.506088 21.238031 15 23 21
-4.634597 2.508635 21.259619 27 38 20
-4.595589 2.510553 21.275875 120 120 120
-4.556828 2.512643 21.293587 120 120 120
-4.519529 2.515587 21.318533 30 35 40
-4.480663 2.517706 21.336493 30 35 40
-4.443759 2.520979 21.364227 30 35 40
-4.404865 2.523175 21.382841 30 35 40
-4.366894 2.525949 21.406345 30 35 40
-4.332161 2.530668 21.446342 40 26 22
-4.295977 2.534626 21.479885 23 35 17
-4.262358 2.540193 21.527061 28 30 42
-4.226038 2.544247 21.561419 44 19 38
-4.189122 2.548023 21.593412 26 23 22
-4.153489 2.552665 21.632755 33 19 23
-4.114668 2.555426 21.656149 43 38 30
-4.078636 2.559995 21.694870 30 35 40
-4.041153 2.563742 21.726631 30 35 40
-4.003779 2.567641 21.759666 30 35 40
-3.967958 2.572632 21.801966 30 35 40
-3.929363 2.575915 21.829792 30 35 40
-3.893712 2.581225 21.874784 30 35 40
-3.856585 2.585665 21.912416 30 35 40
-3.819154 2.590001 21.949162 16 41 26
-3.782772 2.595158 21.992861 37 25 44
-3.743214 2.598231 22.018904 40 22 21
-3.705262 2.602506 22.055132 27 22 16
-3.665479 2.605581 22.081198 17 40 35
-3.625144 2.608335 22.104534 35 22 24
-3.585928 2.611972 22.135359 30 38 27
-3.544742 2.614247 22.154638 26 34 28
-3.504743 2.617466 22.181919 24 19 28
-3.463335 2.619702 22.200865 33 15 37
-3.421834 2.621925 22.219700 42 28 40
-3.381405 2.625038 22.246082 19 34 36
-3.339625 2.627172 22.264168 38 25 36
-3.300091 2.631154 22.297913 18 30 23
-3.259934 2.634741 22.328314 25 41 31
-3.219993 2.638606 22.361065 33 36 34
-3.180872 2.643260 22.400507 18 42 42
-3.139587 2.646224 22.425625 29 30 21
-3.100102 2.650812 22.464506 37 37 24
-3.059651 2.654697 22.497435 36 22 23
-3.018527 2.658106 22.526321 42 33 28
-2.977384 2.661601 22.555941 38 16 41
-2.934007 2.663176 22.569286 26 31 31
-2.891278 2.665397 22.588108 43 30 38
-2.847555 2.666758 22.599640 36 16 29
-2.804008 2.668330 22.612967 32 22 23
-2.761734 2.671185 22.637165 33 36 43
-7.125704 2.415493 20.129107 24 43 16
-7.087278 2.416118 20.134314 38 30 26
-7.048821 2.416739 20.139488 18 32 25
-7.010520 2.417421 20.145172 24 38 36
-6.970641 2.417563 20.146362 38 22 20
-6.931425 2.417939 20.149490 27 17 35
-6.894376 2.419079 20.158995 43 42 34
-6.857438 2.420272 20.168934 18 23 27
-6.823155 2.422422 20.186848 34 42 41
-6.787840 2.424229 20.201904 38 15 31
-6.753301 2.426336 20.219463 44 29 36
-6.720371 2.429050 20.242081 16 17 15
-6.685079 2.430938 20.257814 21 17 37
-6.653507 2.434210 20.285082 31 21 33
-6.620480 2.436987 20.308222 33 15 33
-6.587880 2.439955 20.332962 38 17 25
-6.557166 2.443664 20.363871 35 39 39
-6.522917 2.446094 20.384115 20 40 32
-6.492246 2.449904 20.415869 19 39 39
-6.459293 2.452896 20.440802 38 15 16
-6.426381 2.455942 20.466183 34 18 40
-6.395932 2.459974 20.499781 26 37 25
-6.361923 2.462680 20.522333 37 38 39
-6.330428 2.466400 20.553337 43 44 41
-6.295971 2.469008 20.575068 40 36 34
-6.260887 2.471403 20.595024 27 36 26
-6.227878 2.474653 20.622112 31 36 16
-6.191913 2.476765 20.639711 18 20 44
-6.157955 2.479714 20.664280 34 15 30
-6.121682 2.481763 20.681356 30 20 37
-6.085154 2.483736 20.697802 17 41 41
-6.050425 2.486476 20.720634 33 41 27
-6.013450 2.488324 20.736034 22 41 25
-5.979327 2.491386 20.761553 42 23 35
-5.943820 2.493911 20.782589 28 44 40
-5.908474 2.496538 20.804485 21 29 24
-5.874703 2.499874 20.832279 23 16 38
-5.838139 2.502060 20.850496 37 34 41
-5.803782 2.505230 20.876915 39 16 35
-5.767730 2.507709 20.897573 23 16 17
-5.730870 2.509870 20.915583 21 30 35
-5.694707 2.512371 20.936422 23 31 43
-5.655850 2.513711 20.947594 28 40 41
-5.617401 2.515254 20.960451 32 41 24
-5.577309 2.516079 20.967327 20 42 20
-5.536724 2.516693 20.972441 30 35 40
-5.497239 2.517819 20.981827 30 35 40
-5.457050 2.518639 20.988655 30 35 40
-5.417705 2.519863 20.998857 30 35 40
-5.377529 2.520717 21.005974 30 35 40
-5.337521 2.521663 21.013861 16 44 27
-5.298348 2.523023 21.025190 26 34 28
-5.258355 2.524010 21.033421 22 30 43
-5.220270 2.525937 21.049477 22 20 32
-5.182086 2.527847 21.065392 34 39 35
-5.143756 2.529716 21.080969 28 26 41
-5.105409 2.531608 21.096731 27 23 23
-5.065089 2.532544 21.104536 40 30 41
-5.024817 2.533521 21.112679 37 31 29
-4.983271 2.533867 21.115557 33 15 34
-4.941575 2.534141 21.117844 16 32 23
-4.900845 2.534920 21.124332 22 42 43
-4.859906 2.535603 21.130028 43 41 29
-4.820892 2.537312 21.144264 42 19 43
-4.781842 2.539031 21.158594 38 42 24
-4.743413 2.541114 21.175951 19 17 17
-4.705763 2.543656 21.197132 38 43 35
-4.666539 2.545385 21.211542 39 19 28
-4.629060 2.548107 21.234222 17 16 15
-4.590358 2.550199 21.251657 120 120 120
-4.551819 2.552422 21.270184 30 35 40
-4.514623 2.555447 21.295389 30 35 40
-4.475716 2.557552 21.312935 30 35 40
-4.438696 2.560786 21.339886 30 35 40
-4.399711 2.562938 21.357819 30 35 40
-4.361618 2.565658 21.380482 30 35 40
-4.326743 2.570342 21.419518 30 35 40
-4.290485 2.574291 21.452423 32 41 39
-4.256716 2.579828 21.498568 44 41 32
-4.220301 2.583858 21.532146 28 43 18
-4.183273 2.587591 21.563261 21 43 26
-4.147451 2.592157 21.601307 40 40 28
-4.108506 2.594846 21.623716 17 24 35
-4.072291 2.599335 21.661121 30 35 40
-4.034716 2.603043 21.692022 30 35 40
-3.997244 2.606898 21.724150 30 35 40
-3.961226 2.611797 21.764977 30 35 40
-3.922500 2.615000 21.791668 30 35 40
-3.886603 2.620182 21.834846 30 35 40
-3.849284 2.624512 21.870930 30 35 40
-3.811680 2.628745 21.906208 43 30 16
-3.775092 2.633785 21.948212 24 32 30
-3.735459 2.636794 21.973286 23 40 23
-3.697415 2.641011 22.008423 23 19 34
-3.657597 2.644046 22.033716 17 32 39
-3.617306 2.646809 22.056746 15 22 21
-3.578166 2.650494 22.087446 22 37 31
-3.537118 2.652839 22.106989 17 24 17
-3.497387 2.656243 22.135359 37 15 27
-3.456266 2.658666 22.155548 26 18 24
-3.415114 2.661128 22.176065 19 18 35
-3.375088 2.664543 22.204529 22 26 21
-3.333619 2.666895 22.224129 30 23 38
-3.294477 2.671198 22.259981 18 32 21
-3.254629 2.675038 22.291981 28 18 37
-3.214949 2.679124 22.326036 29 18 22
-3.176099 2.684028 22.366898 38 24 26
-3.134976 2.687122 22.392685 26 43 42
-3.095613 2.691837 22.431978 32 18 20
-3.055239 2.695799 22.464991 38 16 23
-3.014118 2.699210 22.493418 23 27 16
-2.972924 2.702658 22.522148 20 22 17
-2.929483 2.704138 22.534485 26 26 17
-2.886706 2.706287 22.552391 27 30 28
-2.843015 2.707633 22.563612 42 36 25
-2.799536 2.709229 22.576906 41 21 28
-2.757319 2.712117 22.600973 26 26 28
-7.109311 2.450102 20.082800 23 34 40
-7.071209 2.450817 20.088663 27 22 35
-7.032942 2.451483 20.094120 33 43 29
-6.994879 2.452228 20.100227 26 29 34
-6.955256 2.452431 20.101896 40 24 22
-6.916194 2.452836 20.105215 23 30 24
-6.879143 2.453963 20.114452 30 42 17
-6.842092 2.455104 20.123800 33 36 41
-6.807619 2.457188 20.140884 39 44 35
-6.772135 2.458930 20.155165 33 25 22
-6.737502 2.461004 20.172163 18 27 27
-6.704582 2.463732 20.194525 31 37 38
-6.669441 2.465672 20.210426 40 30 27
-6.638073 2.469039 20.238028 35 35 40
-6.605241 2.471900 20.261477 41 43 18
-6.572863 2.474967 20.286615 37 22 37
-6.542412 2.478802 20.318050 40 21 31
-6.508371 2.481316 20.338659 15 25 26
-6.478019 2.485278 20.371130 41 17 17
-6.445401 2.488414 20.396837 42 16 39
-6.412777 2.491588 20.422855 16 37 17
-6.382516 2.495728 20.456783 29 18 24
-6.348563 2.498467 20.479235 41 21 28
-6.317111 2.502232 20.510101 24 44 26
-6.282718 2.504875 20.531759 26 15 24
-6.247690 2.507297 20.551613 35 16 15
-6.214725 2.510584 20.578558 25 43 25
-6.178812 2.512717 20.596041 34 18 41
-6.144887 2.515692 20.620426 43 24 21
-6.108624 2.517744 20.637243 23 22 39
-6.072156 2.519738 20.653591 31 19 36
-6.037584 2.522552 20.676657 16 24 26
-6.000821 2.524484 20.692488 43 40 37
-5.966909 2.527649 20.718433 17 24 43
-5.931576 2.530253 20.739775 43 43 29
-5.896320 2.532926 20.761690 41 32 36
-5.862551 2.536281 20.789186 29 25 40
-5.825940 2.538445 20.806929 15 34 30
-5.791445 2.541569 20.832535 25 22 32
-5.755291 2.544006 20.852505 18 24 22
-5.718316 2.546112 20.869768 35 21 15
-5.682018 2.548552 20.889772 32 36 32
-5.643122 2.549855 20.900454 36 28 36
-5.604594 2.551345 20.912663 44 27 18
-5.564479 2.552129 20.919094 27 26 36
-5.523899 2.552711 20.923861 39 15 15
-5.484394 2.553802 20.932802 30 35 40
-5.444238 2.554604 20.939379 30 35 40
-5.404949 2.555829 20.949415 30 35 40
-5.364884 2.556703 20.956579 39 34 25
-5.325008 2.557681 20.964600 15 20 36
-5.285941 2.559067 20.975958 16 39 16
-5.246039 2.560067 20.984156 38 28 28
-5.208088 2.562043 21.000353 32 33 43
-5.170035 2.564001 21.016401 27 40 17
-5.131873 2.565936 21.032265 22 42 35
-5.093743 2.567920 21.048527 41 20 36
-5.053632 2.568929 21.056799 42 16 24
-5.013617 2.570005 21.065617 38 18 33
-4.972259 2.570405 21.068893 21 37 29
-4.930797 2.570758 21.071783 23 43 35
-4.890422 2.571687 21.079405 40 17 37
-4.849814 2.572510 21.086147 38 39 29
-4.811213 2.574421 21.101810 15 40 20
-4.772471 2.576290 21.117128 22 25 18
-4.734340 2.578525 21.135448 28 30 41
-4.697037 2.581254 21.157824 27 43 31
-4.658051 2.583101 21.172958 42 40 20
-4.621024 2.586078 21.197359 40 26 23
-4.582870 2.588473 21.216990 120 120 120
-4.544763 2.590940 21.237209 30 35 40
-4.507759 2.594088 21.263016 30 35 40
-4.468777 2.596147 21.279890 30 35 40
-4.431544 2.599271 21.305502 30 35 40
-4.392380 2.601313 21.322235 30 35 40
-4.354053 2.603894 21.343395 30 35 40
-4.318899 2.608444 21.380690 30 35 40
-4.282484 2.612315 21.412418 17 35 38
-4.248386 2.617693 21.456497 44 33 33
-4.211698 2.621567 21.488256 43 26 28
-4.174397 2.625136 21.517511 32 42 28
-4.138243 2.629509 21.553350 26 31 32
-4.099146 2.632083 21.574453 31 43 24
-4.062685 2.636423 21.610025 42 40 42
-4.025002 2.640055 21.639793 30 35 40
-3.987405 2.643823 21.670681 30 35 40
-3.951120 2.648553 21.709448 30 35 40
-3.912208 2.651608 21.734489 30 35 40
-3.875972 2.656565 21.775124 30 35 40
-3.838407 2.660714 21.809132 20 23 43
-3.800580 2.664774 21.842413 28 37 38
-3.763719 2.669615 21.882088 40 27 27
-3.723991 2.672511 21.905828 25 44 34
-3.685858 2.676635 21.939631 23 31 35
-3.646053 2.679629 21.964172 15 34 31
-3.605896 2.682435 21.987171 41 19 22
-3.566949 2.686221 22.018202 31 22 31
-3.526153 2.688692 22.038456 34 31 33
-3.486864 2.692389 22.068760 28 25 20
-3.446186 2.695094 22.090935 43 35 43
-3.405556 2.697908 22.114002 27 38 16
-3.366148 2.701777 22.145714 40 20 19
-3.325153 2.704458 22.167686 37 43 35
-3.286583 2.709210 22.206640 31 16 34
-3.247171 2.713389 22.240896 37 23 27
-3.207845 2.717758 22.276703 19 42 34
-3.169376 2.722985 22.319551 42 33 41
-3.128480 2.726247 22.346289 22 33 34
-3.089286 2.731108 22.386127 38 31 31
-3.049016 2.735147 22.419235 35 37 34
-3.007879 2.738517 22.446857 24 18 35
-2.966551 2.741812 22.473869 18 26 21
-2.922958 2.743084 22.484295 31 42 44
-2.880048 2.745045 22.500372 40 31 22
-2.836365 2.746321 22.510832 36 21 22
-2.792963 2.747915 22.523891 26 18 32
-2.750792 2.750792 22.547472 44 34 22
-7.058501 2.486518 20.052561 43 16 28
-7.020221 2.487164 20.057775 28 31 20
-6.982110 2.487878 20.063536 18 24 42
-6.942509 2.488067 20.065056 37 29 44
-6.903423 2.488443 20.068090 39 20 41
-6.866218 2.489506 20.076662 27 35 21
-6.829021 2.490584 20.085356 24 32 42
-6.794375 2.492611 20.101700 29 39 31
-6.758789 2.494315 20.115442 18 22 43
-6.724178 2.496401 20.132269 18 27 42
-6.691403 2.499199 20.154829 22 21 18
-6.656515 2.501236 20.171259 29 32 29
-6.625485 2.504756 20.199648 27 21 37
-6.592932 2.507741 20.223717 42 42 22
-6.560850 2.510943 20.249537 43 38 15
-6.530729 2.514939 20.281767 19 32 15
-6.496927 2.517559 20.302896 44 43 33
-6.466897 2.521683 20.336155 30 37 24
-6.434594 2.524967 20.362640 39 37 44
-6.402208 2.528260 20.389196 42 35 42
-6.372080 2.532493 20.423334 31 20 36
-6.338123 2.535249 20.445557 41 33 37
-6.306687 2.539056 20.476257 16 16 27
-6.272391 2.541753 20.498009 44 42 40
-6.237413 2.544208 20.517805 36 20 17
-6.204348 2.547480 20.544197 15 17 18
-6.168290 2.549560 20.560966 31 34 23
-6.134376 2.552559 20.585155 17 33 34
-6.098319 2.554701 20.602428 24 17 42
-6.062151 2.556825 20.619560 41 35 24
-6.027881 2.559785 20.643427 23 34 15
-5.991339 2.561814 20.659790 30 28 38
-5.957647 2.565098 20.686275 44 25 33
-5.922460 2.567780 20.707903 21 30 23
-5.887274 2.570500 20.729839 35 15 38
-5.853544 2.573899 20.757250 15 26 38
-5.816928 2.576068 20.774742 15 29 44
-5.782373 2.579188 20.799902 22 19 25
-5.746155 2.581606 20.819401 27 18 15
-5.709123 2.583691 20.836214 27 35 40
-5.672757 2.586110 20.855724 19 22 33
-5.633850 2.587398 20.866112 20 23 15
-5.595313 2.588876 20.878033 16 42 37
-5.555236 2.589659 20.884346 30 38 38
-5.514708 2.590242 20.889046 19 41 23
-5.475217 2.591324 20.897774 43 38 18
-5.435079 2.592115 20.904152 30 35 40
-5.395832 2.593346 20.914078 33 39 22
-5.355856 2.594243 20.921314 18 44 26
-5.316077 2.595250 20.929436 44 20 18
-5.277068 2.596653 20.940746 37 41 37
-5.237206 2.597654 20.948822 24 37 22
-5.199283 2.599642 20.964851 23 20 44
-5.161257 2.601609 20.980721 28 44 44
-5.123150 2.603568 20.996517 41 36 31
-5.085115 2.605596 21.012873 16 43 19
-5.045128 2.606650 21.021368 36 22 30
-5.005264 2.607785 21.030521 25 25 26
-4.964005 2.608206 21.033920 25 43 22
-4.922693 2.608607 21.037151 29 23 35
-4.882564 2.609646 21.045534 15 38 24
-4.842197 2.610576 21.053032 42 36 33
-4.803912 2.612654 21.069790 33 25 16
-4.765422 2.614656 21.085939 19 18 29
-4.727529 2.617025 21.105040 44 16 27
-4.690477 2.619906 21.128275 15 21 35
-4.651645 2.621836 21.143843 43 33 35
-4.614993 2.625042 21.169695 31 22 38
-4.577349 2.627737 21.191431 30 35 40
-4.539661 2.630458 21.213369 30 35 40
-4.502850 2.633742 21.239857 30 35 40
-4.463795 2.635765 21.256166 30 35 40
-4.426365 2.638794 21.280600 30 35 40
-4.387034 2.640739 21.296284 30 35 40
-4.348483 2.643195 21.316092 30 35 40
-4.313054 2.647617 21.351753 30 35 40
-4.276471 2.651412 21.382355 30 35 40
-4.242038 2.656630 21.424437 18 25 39
-4.205054 2.660340 21.454355 33 30 29
-4.167470 2.663744 21.481806 43 32 21
-4.131020 2.667951 21.515730 30 29 42
-4.091800 2.670438 21.535789 18 32 32
-4.055147 2.674672 21.569933 33 44 36
-4.017371 2.678247 21.598766 21 17 29
-3.979669 2.681951 21.628637 33 39 33
-3.943159 2.686548 21.665710 30 35 40
-3.904092 2.689485 21.689398 36 32 20
-3.867573 2.694264 21.727938 34 37 19
-3.829803 2.698270 21.760242 44 40 42
-3.791802 2.702203 21.791964 29 35 43
-3.754716 2.706888 21.829744 33 35 36
-3.714901 2.709692 21.852358 34 41 35
-3.676705 2.713758 21.885147 26 26 21
-3.636911 2.716729 21.909105 20 19 23
-3.596886 2.719597 21.932232 30 23 36
-3.558125 2.723503 21.963734 34 42 26
-3.517558 2.726107 21.984735 18 23 31
-3.478660 2.730088 22.016836 34 20 26
-3.438365 2.733059 22.040798 25 34 17
-3.398174 2.736192 22.066067 37 22 22
-3.359297 2.740479 22.100639 24 41 24
-3.318694 2.743454 22.124626 16 38 21
-3.280603 2.748613 22.166237 30 21 23
-3.241551 2.753098 22.202402 30 36 22
-3.202511 2.757718 22.239660 43 20 29
-3.164348 2.763234 22.284142 28 16 34
-3.123628 2.766642 22.311626 19 39 21
-3.084555 2.771629 22.351845 42 36 31
-3.044359 2.775739 22.384995 27 28 39
-3.003195 2.779076 22.411900 20 31 26
-2.961733 2.782234 22.437374 19 18 43
-2.917993 2.783316 22.446100 43 23 30
-2.874939 2.785098 22.460464 23 32 36
-2.831234 2.786294 22.470114 22 21 40
-2.787870 2.787870 22.482821 36 20 37
-7.046296 2.522254 20.017887 37 41 43
-7.007992 2.522877 20.022833 43 30 42
-6.969870 2.523574 20.028362 41 29 31
-6.930356 2.523771 20.029932 40 29 37
-6.891323 2.524147 20.032915 39 27 27
-6.854021 2.525166 20.040997 35 26 43
-6.816689 2.526185 20.049086 20 16 30
-6.781961 2.528187 20.064974 42 26 36
-6.746395 2.529898 20.078558 37 38 30
-6.711936 2.532048 20.095617 24 39 28
-6.679434 2.534966 20.118778 36 16 39
-6.644849 2.537124 20.135906 33 40 43
-6.614205 2.540823 20.165258 20 37 18
-6.581931 2.543937 20.189974 26 38 44
-6.550119 2.547269 20.216417 20 41 36
-6.520326 2.551432 20.249460 15 39 39
-6.486759 2.554161 20.271122 35 32 33
-6.456974 2.558424 20.304949 33 39 23
-6.424875 2.561817 20.331882 30 26 27
-6.392592 2.565180 20.358574 38 17 22
-6.362456 2.569454 20.392488 34 15 21
-6.328401 2.572189 20.414196 24 35 26
-6.296828 2.575975 20.444246 38 29 34
-6.262469 2.578664 20.465584 40 26 16
-6.227422 2.581103 20.484941 36 33 26
-6.194177 2.584325 20.510519 24 26 22
-6.157976 2.586350 20.526587 39 27 37
-6.124122 2.589394 20.550745 23 29 16
-6.088351 2.591663 20.568752 30 16 21
-6.052575 2.593961 20.586990 36 18 44
-6.018664 2.597095 20.611864 18 31 21
-5.982363 2.599234 20.628839 27 32 37
-5.948865 2.602629 20.655783 16 41 22
-5.913769 2.605367 20.677515 33 42 42
-5.878592 2.608108 20.699268 32 31 39
-5.844875 2.611540 20.726507 20 43 15
-5.808256 2.613715 20.743771 38 17 35
-5.773653 2.616836 20.768538 44 22 20
-5.737392 2.619244 20.787651 23 29 23
-5.700327 2.621318 20.804111 29 41 22
-5.663929 2.623732 20.823269 22 30 29
-5.625043 2.625020 20.833492 38 41 42
-5.586588 2.626530 20.845478 20 35 22
-5.546655 2.627363 20.852087 29 44 19
-5.506285 2.628000 20.857140 31 36 27
-5.466892 2.629116 20.866001 20 26 34
-5.426794 2.629908 20.872286 23 22 18
-5.387600 2.631153 20.882170 40 24 26
-5.347712 2.632077 20.889502 27 40 27
-5.308006 2.633106 20.897663 39 40 44
-5.269051 2.634526 20.908934 25 26 24
-5.229228 2.635531 20.916910 18 19 30
-5.191299 2.637515 20.932655 34 26 21
-5.153236 2.639462 20.948112 44 38 41
-5.115115 2.641412 20.963585 24 40 20
-5.077124 2.643461 20.979851 15 30 33
-5.037240 2.644551 20.988501 39 34 32
-4.997509 2.645740 20.997936 32 37 20
-4.956350 2.646187 21.001482 26 15 15
-4.915177 2.646634 21.005030 19 36 24
-4.875263 2.647772 21.014063 17 33 39
-4.835103 2.648796 21.022188 28 16 44
-4.797102 2.651030 21.039919 29 39 28
-4.758852 2.653165 21.056866 39 23 39
-4.721189 2.655669 21.076738 44 22 24
-4.684339 2.658679 21.100626 32 26 19
-4.645608 2.660666 21.116400 26 21 27
