ply
format ascii 1.0
element vertex 1289
property float x
property float y
property float z
property uchar red
property uchar green
property uchar blue
end_header
5.871196 2.759462 29.355980 23 38 44
5.914834 2.752448 29.281359 18 25 18
5.960812 2.746649 29.219666 44 15 21
6.005903 2.740558 29.154867 21 25 17
6.047810 2.733145 29.076008 43 37 42
6.095414 2.728423 29.025780 120 120 120
6.137387 2.721294 28.949938 120 120 120
6.181546 2.715259 28.885729 120 120 120
6.227785 2.710240 28.832338 36 21 34
6.274079 2.705337 28.780178 17 23 34
6.327080 2.703389 28.759453 36 27 30
6.380545 2.701672 28.741196 26 40 23
6.436343 2.700965 28.733675 17 42 26
6.494530 2.701265 28.736858 44 40 42
6.552753 2.701574 28.740145 39 33 41
6.611691 2.702169 28.746483 43 21 15
6.672272 2.703420 28.759792 21 34 43
6.733552 2.704931 28.775864 22 33 25
6.794055 2.706107 28.788368 36 41 19
6.852672 2.706517 28.792738 39 31 19
6.909090 2.706060 28.787874 44 29 18
6.963229 2.704725 28.773674 24 31 19
7.016620 2.703124 28.756638 39 40 16
7.069672 2.701419 28.738503 38 26 36
7.123051 2.699866 28.721979 31 15 43
7.178550 2.699135 28.714199 41 30 41
7.235215 2.698850 28.711172 18 27 36
7.293471 2.699159 28.714453 25 16 15
7.352853 2.699876 28.722082 25 21 31
7.412161 2.700555 28.729307 41 42 16
7.471015 2.701059 28.734673 28 20 32
7.529443 2.701403 28.738333 33 29 17
7.587264 2.701526 28.739637 43 32 17
7.643923 2.701236 28.736553 26 16 37
7.699618 2.700612 28.729918 17 20 18
7.755049 2.699906 28.722403 21 35 31
7.808065 2.698375 28.706120 24 18 31
7.861164 2.696896 28.690378 37 33 33
7.913534 2.695189 28.672226 19 32 15
7.964800 2.693134 28.650358 32 41 23
8.018044 2.691772 28.635872 44 25 33
8.069657 2.689886 28.615805 39 42 33
8.121993 2.688265 28.598568 16 26 27
8.175949 2.687200 28.587234 44 44 29
8.231097 2.686538 28.580196 15 15 25
8.288826 2.686723 28.582157 22 39 15
8.348877 2.687652 28.592045 33 32 40
8.410347 2.689023 28.606623 44 34 19
8.471820 2.690375 28.621014 17 36 34
8.531941 2.691283 28.630674 36 35 30
8.589742 2.691453 28.632475 43 17 26
8.643820 2.690460 28.621920 28 19 22
8.697045 2.689218 28.608702 37 29 40
8.746483 2.686828 28.583279 36 32 23
8.792085 2.683299 28.545731 34 34 20
8.839236 2.680284 28.513664 32 41 26
8.878077 2.674805 28.455376 30 23 19
8.919773 2.670250 28.406919 20 19 38
8.958513 2.664874 28.349726 22 22 28
8.989869 2.657383 28.270027 36 16 24
9.027473 2.651820 28.210852 24 42 19
9.059443 2.644682 28.134916 34 35 27
9.100024 2.640130 28.086494 44 42 30
9.141990 2.636034 28.042913 24 32 38
9.177818 2.630228 27.981152 20 29 24
9.220229 2.626368 27.940088 41 32 43
9.254760 2.620324 27.875784 15 41 20
9.291982 2.615109 27.820307 21 26 19
9.331380 2.610565 27.771965 33 42 29
9.371935 2.606396 27.727619 31 37 15
9.422022 2.604912 27.711830 21 18 37
9.463812 2.601165 27.671965 31 42 23
9.504974 2.597289 27.630739 36 17 23
4.873202 2.852606 29.714645 25 43 35
4.925346 2.848393 29.670761 35 29 41
4.976119 2.843496 29.619755 44 38 38
5.030854 2.840953 29.593260 17 42 34
5.083558 2.837335 29.555573 39 24 25
5.137342 2.834395 29.524952 36 41 18
5.192279 2.832152 29.501587 32 27 41
5.247327 2.830019 29.479364 39 30 22
5.305031 2.829350 29.472397 28 37 32
5.362077 2.828348 29.461962 15 27 16
5.419982 2.827817 29.456427 25 17 42
5.477278 2.826982 29.447729 43 42 33
5.532374 2.825042 29.427519 24 30 40
5.587570 2.823193 29.408264 19 23 43
5.640549 2.820275 29.377861 40 36 21
5.695695 2.818488 29.359251 34 32 15
5.748913 2.815794 29.331190 15 44 43
5.797515 2.810916 29.280376 16 31 43
5.847121 2.806618 29.235607 15 15 23
5.890547 2.799468 29.161125 15 28 23
5.936285 2.793546 29.099434 23 22 33
5.981173 2.787343 29.034821 24 24 43
6.022857 2.779780 28.956041 39 42 36
6.070218 2.774957 28.905798 120 120 120
6.112163 2.767772 28.830956 120 120 120
6.156407 2.761753 28.768257 120 120 120
6.202764 2.756784 28.716499 20 27 42
6.249090 2.751893 28.665550 25 37 39
6.301938 2.749937 28.645174 25 28 19
6.355264 2.748222 28.627314 24 40 42
6.410851 2.747508 28.619871 41 26 37
6.468828 2.747821 28.623131 33 34 22
6.526940 2.748185 28.626928 35 21 20
6.585779 2.748847 28.633820 40 44 27
6.646332 2.750206 28.647984 35 38 19
6.707699 2.751877 28.665382 30 17 41
6.768070 2.753113 28.678261 41 29 28
6.825940 2.753320 28.680422 27 30 31
6.881330 2.752532 28.672209 15 39 22
6.934882 2.751027 28.656536 29 36 25
6.988433 2.749547 28.641119 38 37 44
7.041873 2.748048 28.625500 31 21 32
7.095329 2.746579 28.610197 35 30 34
7.150645 2.745848 28.602579 24 38 20
7.206975 2.745514 28.599106 35 19 24
7.264782 2.745744 28.601503 22 37 17
7.323690 2.746384 28.608166 39 35 37
7.382674 2.747042 28.615017 16 24 16
7.441346 2.747574 28.620560 24 36 23
7.499603 2.747946 28.624439 32 24 28
7.557260 2.748094 28.625984 23 24 44
7.613725 2.747811 28.623028 23 20 28
7.669131 2.747151 28.616159 41 21 24
7.724228 2.746392 28.608252 22 33 44
7.776923 2.744796 28.591627 18 20 17
7.829795 2.743286 28.575893 40 29 30
7.881921 2.741538 28.557686 39 21 31
7.932820 2.739391 28.535322 39 27 40
7.985675 2.737946 28.520267 34 38 23
8.036854 2.735950 28.499481 30 38 31
8.088827 2.734252 28.481787 30 16 29
8.142429 2.733123 28.470030 40 16 38
8.197171 2.732390 28.462400 19 23 44
8.254544 2.732539 28.463945 44 22 38
8.314162 2.733423 28.473156 42 16 32
8.375255 2.734777 28.487261 34 25 25
8.436271 2.736088 28.500916 24 42 34
8.495736 2.736881 28.509180 17 29 39
8.552905 2.736929 28.509682 39 24 20
8.606335 2.735789 28.497799 29 27 26
8.658984 2.734416 28.483500 24 35 34
8.708163 2.731973 28.458050 23 20 43
8.753936 2.728500 28.421871 20 21 36
8.801489 2.725622 28.391901 38 31 43
8.841223 2.720376 28.337254 43 33 28
8.883597 2.716004 28.291710 22 31 17
8.923235 2.710856 28.238085 36 29 44
8.955941 2.703680 28.163338 22 29 36
8.994522 2.698357 28.107882 39 28 18
9.027912 2.691552 28.036995 30 21 24
9.069578 2.687282 27.992525 40 34 17
9.112292 2.683374 27.951815 28 25 44
9.148670 2.677659 27.892286 42 39 23
9.190975 2.673738 27.851439 33 22 17
9.225399 2.667585 27.787348 21 18 44
9.262758 2.662349 27.732807 18 26 34
9.301792 2.657655 27.683905 27 26 18
9.340841 2.653020 27.635624 30 32 25
9.389025 2.651019 27.614779 38 25 23
9.429697 2.646932 27.572212 17 19 42
9.471045 2.643082 27.532108 15 42 35
4.847940 2.896940 29.560608 25 38 44
4.899415 2.892426 29.514551 35 17 19
4.949720 2.887337 29.462620 23 20 35
5.004158 2.884750 29.436224 15 28 32
5.056657 2.881118 29.399168 29 37 35
5.110292 2.878210 29.369492 42 33 41
5.165073 2.876007 29.347008 37 27 36
5.219865 2.873858 29.325087 39 16 26
5.277201 2.873143 29.317785 39 27 23
5.333971 2.872138 29.307531 41 33 28
5.391714 2.871674 29.302794 23 37 38
5.448833 2.870891 29.294802 35 39 15
5.503673 2.868936 29.274855 31 16 35
5.558515 2.867024 29.255342 15 42 33
5.610929 2.863912 29.223589 21 30 15
5.665353 2.861879 29.202848 32 16 37
5.717858 2.858929 29.172747 29 43 16
5.765955 2.853856 29.120983 25 23 35
5.815292 2.849493 29.076460 39 18 16
5.858492 2.842239 29.002438 36 39 26
5.903979 2.836225 28.941072 30 23 35
5.948653 2.829942 28.876955 22 18 29
5.990110 2.822263 28.798605 40 30 28
6.037202 2.817361 28.748583 120 120 120
6.079094 2.810147 28.674973 120 120 120
6.123416 2.804181 28.614092 120 120 120
6.169865 2.799291 28.564190 28 28 22
6.216200 2.794439 28.514681 40 20 20
6.268853 2.792489 28.494787 36 34 17
6.321971 2.790780 28.477346 25 31 42
6.377268 2.790055 28.469948 30 15 38
6.434944 2.790374 28.473204 21 24 43
6.492880 2.790799 28.477543 19 41 24
6.551565 2.791536 28.485065 33 22 29
6.612015 2.793006 28.500065 39 43 19
6.673344 2.794819 28.518566 17 21 38
6.733465 2.796100 28.531631 29 19 22
6.790604 2.796131 28.531950 41 42 38
6.845017 2.795048 28.520903 25 32 36
6.897826 2.793335 28.503414 15 26 41
6.951188 2.791870 28.488474 35 33 34
7.004592 2.790447 28.473953 39 32 16
7.057798 2.788969 28.458864 21 29 29
7.112740 2.788194 28.450958 43 19 20
7.168504 2.787751 28.446444 43 33 22
7.225620 2.787838 28.447323 32 26 42
7.283858 2.788352 28.452570 34 33 29
7.342310 2.788939 28.458565 18 31 29
7.400669 2.789483 28.464111 34 43 30
7.458695 2.789893 28.468300 32 21 18
7.516162 2.790091 28.470312 39 36 37
7.572453 2.789851 28.467867 27 36 18
7.627599 2.789197 28.461189 33 17 24
7.682355 2.788410 28.453167 23 23 18
7.734775 2.786794 28.436672 19 17 40
7.787443 2.785290 28.421326 29 34 19
7.839342 2.783534 28.403412 31 28 25
7.889899 2.781331 28.380930 18 41 42
7.942333 2.779817 28.365477 20 27 21
7.993079 2.777737 28.344254 18 19 33
8.044704 2.775989 28.326422 26 35 38
8.097927 2.774814 28.314430 42 19 39
8.152222 2.774020 28.306328 17 18 28
8.209154 2.774128 28.307428 39 42 20
8.268217 2.774949 28.315811 39 36 34
8.328795 2.776265 28.329235 17 34 43
8.389241 2.777519 28.342030 24 15 34
8.447962 2.778189 28.348867 44 25 41
8.504443 2.778118 28.348143 40 38 26
8.557209 2.776843 28.335129 25 16 26
8.609192 2.775332 28.319710 28 29 19
8.658163 2.772876 28.294649 16 21 17
8.704317 2.769555 28.260769 33 16 38
8.752529 2.766929 28.233965 39 16 34
8.793615 2.762097 28.184662 39 24 28
8.837000 2.758045 28.143312 43 16 27
8.877894 2.753271 28.094601 25 38 24
8.912449 2.746604 28.026569 33 32 35
8.952304 2.741643 27.975950 37 16 37
8.987583 2.735351 27.911749 37 37 41
9.030737 2.731519 27.872644 22 36 39
9.074510 2.727920 27.835920 44 17 26
9.111716 2.722403 27.779623 40 44 40
9.153956 2.718448 27.739262 34 18 33
9.188296 2.712208 27.675591 42 28 40
9.225980 2.707024 27.622694 32 41 26
9.264436 2.702127 27.572727 18 25 32
9.300943 2.696723 27.517582 41 44 40
9.345883 2.693813 27.487890 21 18 26
9.384401 2.689097 27.439768 30 40 42
9.425786 2.685253 27.400541 23 22 29
4.883071 2.941609 29.416088 24 42 17
4.933102 2.936370 29.363705 32 21 33
4.987319 2.933717 29.337172 21 34 34
5.039632 2.930019 29.300186 16 23 31
5.093143 2.927094 29.270937 24 27 39
5.147782 2.924876 29.248760 21 41 41
5.202344 2.922665 29.226654 44 18 34
5.259398 2.921888 29.218880 26 25 37
5.315880 2.920813 29.208130 40 23 20
5.373404 2.920329 29.203285 22 33 28
5.430295 2.919514 29.195137 29 30 24
5.484873 2.917486 29.174856 42 33 34
5.539458 2.915504 29.155041 28 18 26
5.591459 2.912218 29.122185 25 36 42
5.645385 2.909992 29.099920 18 19 42
5.697410 2.906842 29.068417 43 31 40
5.745135 2.901583 29.015831 26 43 39
5.794268 2.897134 28.971338 30 39 26
5.837314 2.889759 28.897593 36 35 42
5.882670 2.883662 28.836617 16 21 40
5.927233 2.877298 28.772976 17 17 16
5.968547 2.869494 28.694937 26 39 27
6.015441 2.864496 28.644957 120 120 120
6.057287 2.857211 28.572107 120 120 120
6.101643 2.851235 28.512348 120 120 120
6.148145 2.846363 28.463633 22 31 31
6.194481 2.841505 28.415049 43 44 20
6.247015 2.839552 28.395523 39 25 25
6.299986 2.837832 28.378317 35 42 44
6.355060 2.837081 28.370806 42 41 18
6.412507 2.837393 28.373926 43 36 35
6.470302 2.837852 28.378517 23 43 37
6.528883 2.838645 28.386446 26 30 17
6.589223 2.840182 28.401825 20 35 22
6.650443 2.842070 28.420696 41 38 32
6.710351 2.843369 28.433689 36 17 33
6.767095 2.843317 28.433174 29 16 24
6.821031 2.842096 28.420961 36 17 32
6.873405 2.840250 28.402502 25 17 24
6.926535 2.838744 28.387438 26 39 41
6.979738 2.837292 28.372919 17 18 32
7.032617 2.835732 28.357325 22 25 33
7.087234 2.834894 28.348936 26 18 24
7.142507 2.834328 28.343281 39 15 35
7.199102 2.834292 28.342920 29 28 21
7.256846 2.834706 28.347055 28 34 18
7.314893 2.835230 28.352297 22 25 31
7.373016 2.835775 28.357754 33 44 19
7.430898 2.836221 28.362207 38 43 31
7.488294 2.836475 28.364750 21 40 43
7.544550 2.836297 28.362968 15 31 31
7.599635 2.835685 28.356848 18 34 21
7.654239 2.834903 28.349033 41 39 17
7.706586 2.833304 28.333038 37 22 23
7.759204 2.831826 28.318264 36 38 36
7.811019 2.830079 28.300793 28 31 36
7.861446 2.827858 28.278584 21 42 26
7.913657 2.826306 28.263062 25 43 35
7.964215 2.824190 28.241898 17 24 27
8.015698 2.822429 28.224289 42 23 19
8.068747 2.821240 28.212402 28 30 19
8.122775 2.820408 28.204079 35 38 17
8.179401 2.820483 28.204830 21 25 15
8.238064 2.821255 28.212549 21 41 40
8.298272 2.822542 28.225416 21 21 22
8.358323 2.823758 28.237577 21 39 29
8.416578 2.824355 28.243549 39 25 28
8.472677 2.824226 28.242256 43 25 25
8.525088 2.822877 28.228767 27 16 20
8.576664 2.821271 28.212711 27 39 15
8.625569 2.818813 28.188133 19 18 21
8.672179 2.815643 28.156425 22 30 25
8.721029 2.813235 28.132351 20 35 22
8.763293 2.808748 28.087479 36 28 28
8.807567 2.804958 28.049576 29 25 28
8.849494 2.800473 28.004726 32 23 30
8.885509 2.794185 27.941851 34 30 24
8.926384 2.789495 27.894951 33 16 19
8.963136 2.783583 27.835827 18 32 23
9.007449 2.780077 27.800768 28 22 32
9.052057 2.776705 27.767046 43 37 21
9.089925 2.771319 27.713186 22 39 36
9.132168 2.767323 27.673235 22 44 26
9.166466 2.760984 27.609838 42 40 15
9.204476 2.755831 27.558311 36 30 38
9.242413 2.750718 27.507181 34 37 25
9.276505 2.744528 27.445282 20 24 40
9.318420 2.740712 27.407118 37 33 30
9.354768 2.735312 27.353123 42 36 20
4.859629 2.986037 29.274874 31 20 44
4.909269 2.980627 29.221838 39 20 42
4.963108 2.977865 29.194754 38 39 30
5.015045 2.974038 29.157238 19 28 43
5.068271 2.971055 29.127993 44 44 31
5.122586 2.968771 29.105600 23 33 42
5.176675 2.966409 29.082443 23 37 21
5.233217 2.965489 29.073425 31 35 28
5.289077 2.964208 29.060863 36 38 43
5.346058 2.963576 29.054663 24 23 22
5.402400 2.962607 29.045162 43 32 16
5.456392 2.960383 29.023363 23 23 20
5.510510 2.958274 29.002682 34 22 42
5.561839 2.954727 28.967911 31 35 16
5.614995 2.952214 28.943272 31 44 26
5.666333 2.948806 28.909861 25 21 32
5.713539 2.943338 28.856258 25 40 18
5.762413 2.938831 28.812065 17 21 28
5.805349 2.931414 28.739349 37 37 41
5.850648 2.925324 28.679646 34 28 31
5.895202 2.918983 28.617483 40 35 29
5.936455 2.911146 28.540649 19 18 41
5.983149 2.906101 28.491188 120 120 120
6.025037 2.898838 28.419985 120 120 120
6.069534 2.892955 28.362307 120 120 120
6.116183 2.888198 28.315664 31 44 40
6.162601 2.883419 28.268814 23 32 23
6.214984 2.881493 28.249929 41 41 33
6.267708 2.879758 28.232920 29 21 41
6.322402 2.878951 28.225008 32 20 37
6.379402 2.879199 28.227444 42 34 20
6.436867 2.879651 28.231871 31 36 43
6.495185 2.880473 28.239933 32 43 29
6.555168 2.882014 28.255035 22 33 19
6.615992 2.883894 28.273468 39 36 43
6.675399 2.885130 28.285587 31 34 32
6.731482 2.884921 28.283537 21 27 19
6.784775 2.883529 28.269896 32 23 15
6.836479 2.881491 28.249914 35 41 38
6.889144 2.879888 28.234196 41 28 22
6.941897 2.878348 28.219095 33 40 23
6.994175 2.876636 28.202318 17 27 25
7.048239 2.875682 28.192957 17 17 28
7.102765 2.874929 28.185575 21 24 21
7.158578 2.874704 28.183376 15 27 23
7.215624 2.874975 28.186031 21 44 40
7.273060 2.875396 28.190153 37 37 22
7.330826 2.875940 28.195486 24 43 27
7.388516 2.876445 28.200443 21 43 17
7.445817 2.876793 28.203852 38 18 27
7.502068 2.876733 28.203262 34 40 30
7.557097 2.876209 28.198124 24 19 43
7.611505 2.875457 28.190758 16 34 33
7.663792 2.873922 28.175707 25 26 15
7.716376 2.872519 28.161955 44 25 38
7.768136 2.870833 28.145422 39 28 41
7.818484 2.868653 28.124044 23 24 21
7.870456 2.867095 28.108770 33 21 17
7.920875 2.864997 28.088209 42 16 31
7.972275 2.863282 28.071390 35 17 20
8.025175 2.862125 28.060053 31 23 36
8.078919 2.861284 28.051802 39 29 23
8.135130 2.861322 28.052172 28 32 22
8.193285 2.862038 28.059196 31 37 42
8.252998 2.863285 28.071423 19 16 21
8.312530 2.864453 28.082870 31 31 26
8.370219 2.864974 28.087982 27 24 15
8.425817 2.864778 28.086058 19 20 23
8.477853 2.863381 28.072361 17 23 36
8.528970 2.861694 28.055822 30 21 41
8.577886 2.859295 28.032307 28 38 18
8.625257 2.856416 28.004082 32 39 39
8.675073 2.854379 27.984106 33 31 36
8.719007 2.850444 27.945534 38 17 18
8.764450 2.847051 27.912262 29 36 43
8.807736 2.843003 27.872581 40 43 18
8.845773 2.837323 27.816896 29 30 33
8.888066 2.833071 27.775208 21 32 16
8.926806 2.827746 27.723001 18 33 41
8.972646 2.824722 27.693352 33 19 44
9.018297 2.821676 27.663486 15 41 33
9.057227 2.816577 27.613497 37 40 36
9.099720 2.812641 27.574909 24 39 24
9.132817 2.805866 27.508486 31 32 37
9.168752 2.800038 27.451353 17 19 17
9.203799 2.794010 27.392258 37 25 39
9.234503 2.786743 27.321014 43 34 15
9.273873 2.782162 27.276096 17 15 32
9.308337 2.776171 27.217360 26 40 34
4.892530 3.028709 29.122202 33 24 17
4.946030 3.025807 29.094294 36 27 40
4.997587 3.021797 29.055738 26 42 21
5.050528 3.018706 29.026022 23 41 33
5.104527 3.016311 29.002993 41 40 21
5.158148 3.013750 28.978361 27 39 24
5.214234 3.012668 28.967964 36 29 24
5.269502 3.011144 28.953308 17 41 42
5.325950 3.010320 28.945383 33 27 23
5.381765 3.009159 28.934221 42 29 29
5.435208 3.006711 28.910683 44 24 17
5.488930 3.004467 28.889103 31 35 41
5.539707 3.000675 28.852640 21 15 18
5.592260 2.997912 28.826080 37 36 34
5.643090 2.994293 28.791275 18 39 30
5.689921 2.988646 28.736977 23 42 27
5.738630 2.984087 28.693148 18 30 22
5.781563 2.976646 28.621599 40 37 44
5.826897 2.970575 28.563221 38 42 23
5.871535 2.964270 28.502598 41 22 42
5.912814 2.956407 28.426992 23 20 24
5.959388 2.951316 28.378036 120 120 120
6.001339 2.944053 28.308201 120 120 120
6.045996 2.938241 28.252319 120 120 120
6.092776 2.933559 28.207294 15 44 18
6.139260 2.928821 28.161743 34 38 36
6.191514 2.926898 28.143246 26 18 41
6.243988 2.925111 28.126072 22 40 37
6.298318 2.924219 28.117493 38 35 40
6.354872 2.924366 28.118902 22 21 26
6.411938 2.924744 28.122536 28 32 31
6.469952 2.925543 28.130224 19 30 37
6.529459 2.926999 28.144220 44 32 38
6.589780 2.928791 28.161451 19 40 42
6.648629 2.929904 28.172157 18 22 39
6.704102 2.929523 28.168495 28 16 38
6.756926 2.928001 28.153858 29 42 19
6.808045 2.925771 28.132416 21 40 36
6.860225 2.924030 28.115677 39 16 18
6.912499 2.922357 28.099588 36 25 32
6.964195 2.920469 28.081430 28 34 20
7.017779 2.919396 28.071115 29 31 34
7.071678 2.918470 28.062216 17 38 34
7.126876 2.918091 28.058565 33 31 34
7.183374 2.918245 28.060053 43 23 31
7.240339 2.918586 28.063328 26 39 36
7.297826 2.919131 28.068563 25 16 17
7.355377 2.919692 28.073959 32 44 15
7.412644 2.920132 28.078196 39 16 22
7.468908 2.920174 28.078600 32 37 19
7.523913 2.919727 28.074301 22 32 37
7.578180 2.919003 28.067335 37 19 34
7.630432 2.917518 28.053061 38 19 22
7.682985 2.916169 28.040091 27 33 17
7.734724 2.914534 28.024363 29 28 23
7.785046 2.912391 28.003761 30 38 44
7.836881 2.910842 27.988861 17 31 32
7.887249 2.908773 27.968969 15 31 37
7.938606 2.907095 27.952839 42 40 38
7.991410 2.905967 27.941994 28 41 25
8.044985 2.905134 27.933977 38 29 40
8.100899 2.905150 27.934134 36 19 42
8.158721 2.905846 27.940826 15 19 29
8.218130 2.907094 27.952824 38 38 39
8.277343 2.908255 27.963995 43 21 36
8.334677 2.908746 27.968714 44 17 39
8.389940 2.908513 27.966467 26 16 43
8.441796 2.907109 27.952967 30 27 41
8.492687 2.905393 27.936472 27 22 34
8.541719 2.903068 27.914114 21 35 20
8.589793 2.900449 27.888937 32 26 43
8.640381 2.898708 27.872196 20 24 39
8.685590 2.895197 27.838430 31 19 30
8.731906 2.892096 27.808617 43 44 34
8.776151 2.888353 27.772629 43 25 40
8.815643 2.883103 27.722149 36 22 37
8.858955 2.879160 27.684235 29 28 44
8.899060 2.874230 27.636831 37 24 41
8.945780 2.871485 27.610432 43 36 31
8.992101 2.868646 27.583132 23 15 23
9.032363 2.863920 27.537691 24 28 34
9.075874 2.860276 27.502649 28 41 40
9.107471 2.852943 27.432142 20 32 43
9.139521 2.845839 27.363836 28 18 36
9.170268 2.838416 27.292463 39 39 38
9.198384 2.830272 27.214155 33 30 31
9.237388 2.825554 27.168787 38 33 33
4.875571 3.076253 29.021254 21 16 29
4.928756 3.073224 28.992680 28 26 15
4.979937 3.069031 28.953119 29 38 26
5.032574 3.065821 28.922840 41 36 18
5.086203 3.063281 28.898878 18 42 21
5.139328 3.060499 28.872629 19 20 25
5.194941 3.059243 28.860785 20 36 32
5.249522 3.057414 28.843525 41 21 44
5.305313 3.056322 28.833225 32 33 16
5.360482 3.054898 28.819796 35 22 32
5.413258 3.052156 28.793926 23 25 30
5.466537 3.049752 28.771246 19 25 35
5.516736 3.045698 28.732998 32 29 19
5.568712 3.042698 28.704700 39 33 35
5.619065 3.038882 28.668701 20 36 23
5.665551 3.033073 28.613892 40 23 22
5.714100 3.028473 28.570501 21 15 36
5.757087 3.021046 28.500431 19 30 29
5.802540 3.015045 28.443823 39 35 36
5.847360 3.008835 28.385241 15 26 18
5.888789 3.001018 28.311487 43 41 30
5.935308 2.995917 28.263372 120 120 120
5.977446 2.988723 28.195501 120 120 120
6.022325 2.983021 28.141705 120 120 120
6.069298 2.978452 28.098600 26 25 27
6.115943 2.973807 28.054787 27 27 32
6.168128 2.971916 28.036945 33 21 27
6.220418 2.970110 28.019901 33 33 19
6.274425 2.969147 28.010824 21 15 21
6.330573 2.969207 28.011387 42 26 37
6.387289 2.969529 28.014427 18 23 26
6.445040 2.970323 28.021914 19 18 42
6.504100 2.971701 28.034916 44 16 29
6.563902 2.973392 28.050865 36 30 22
6.622203 2.974379 28.060181 21 35 28
6.677147 2.973856 28.055241 26 30 19
6.729618 2.972248 28.040073 36 17 33
6.780259 2.969866 28.017599 33 22 26
6.831976 2.967989 27.999901 16 35 32
6.883762 2.966174 27.982773 24 31 25
6.934900 2.964111 27.963308 29 31 15
6.988038 2.962928 27.952150 29 30 37
7.041367 2.961845 27.941933 15 42 25
7.096018 2.961331 27.937080 23 43 27
7.152036 2.961390 27.937641 37 26 27
7.208576 2.961663 27.940216 29 33 24
7.265785 2.962205 27.945328 22 21 32
7.323199 2.962821 27.951141 28 28 36
7.380417 2.963349 27.956125 36 25 29
7.436717 2.963504 27.957584 32 15 33
7.491730 2.963147 27.954218 19 25 20
7.545899 2.962464 27.947775 20 22 23
7.598194 2.961061 27.934536 39 20 27
7.650793 2.959796 27.922602 21 23 28
7.702594 2.958242 27.907948 44 20 32
7.752987 2.956175 27.888443 25 26 43
7.804778 2.954666 27.874207 17 21 24
7.855241 2.952679 27.855463 15 32 40
7.906710 2.951096 27.840528 21 40 22
7.959560 2.950047 27.830629 38 42 29
8.013067 2.949254 27.823151 25 28 15
8.068737 2.949262 27.823231 26 17 15
8.126265 2.949946 27.829676 21 19 40
8.185358 2.951184 27.841354 39 24 33
8.244261 2.952337 27.852234 41 38 17
8.301284 2.952806 27.856657 32 35 32
8.356296 2.952558 27.854319 34 28 17
8.408027 2.951162 27.841150 17 26 15
8.458720 2.949422 27.824738 27 36 31
8.507864 2.947169 27.803478 19 28 31
8.556567 2.944793 27.781063 22 34 31
8.607868 2.943335 27.767315 40 37 21
8.654187 2.940204 27.737778 44 43 22
8.701194 2.937346 27.710808 44 24 32
8.746222 2.933859 27.677917 23 22 27
8.787018 2.929006 27.632133 37 35 43
8.831283 2.925362 27.597759 43 36 35
8.872668 2.920816 27.554871 36 44 43
8.920373 2.918394 27.532015 44 40 24
8.967240 2.915728 27.506870 15 15 44
9.008066 2.911143 27.463615 34 33 25
9.051664 2.907504 27.429285 37 26 29
9.081038 2.899368 27.352524 30 34 25
9.109100 2.890912 27.272755 44 21 39
9.135808 2.882130 27.189905 17 32 40
9.161722 2.873203 27.105686 22 37 28
9.200804 2.868486 27.061190 43 36 37
4.904270 3.115654 28.848644 39 28 25
4.955148 3.111372 28.809000 42 27 16
5.007512 3.108111 28.778803 21 19 32
5.060774 3.105475 28.754396 44 31 44
5.113413 3.102520 28.727039 28 25 36
5.168519 3.101112 28.713997 18 15 26
5.222340 3.098971 28.694176 22 36 15
5.277359 3.097580 28.681299 43 34 41
5.331720 3.095837 28.665161 30 29 15
5.383683 3.092754 28.636612 43 44 30
5.436390 3.090159 28.612581 36 18 15
5.485864 3.085799 28.572210 33 20 22
5.537110 3.082515 28.541803 36 28 29
5.586865 3.078477 28.504414 19 15 44
5.632869 3.072474 28.448833 17 31 21
5.681159 3.067826 28.405794 36 24 41
5.724168 3.060446 28.337467 20 27 20
5.769738 3.054567 28.283030 25 26 38
5.814783 3.048527 28.227100 17 32 19
5.856418 3.040833 28.155857 15 15 18
5.902910 3.035782 28.109097 120 120 120
5.945333 3.028755 28.044025 120 120 120
5.990531 3.023258 27.993134 120 120 120
6.037813 3.018907 27.952839 37 24 17
6.084772 3.014474 27.911797 16 41 19
6.136956 3.012687 27.895254 27 41 21
6.189178 3.010951 27.879179 22 42 42
6.242912 3.009976 27.870144 19 44 43
6.298703 3.009999 27.870365 30 29 44
6.355221 3.010368 27.873775 15 29 36
6.412812 3.011234 27.881792 44 41 34
6.471599 3.012641 27.894823 43 24 39
6.530998 3.014307 27.910248 21 35 30
6.588818 3.015222 27.918718 19 24 17
6.643285 3.014600 27.912962 18 15 22
6.695340 3.012903 27.897249 20 15 43
6.745519 3.010397 27.874046 38 27 21
6.796846 3.008440 27.855927 30 43 36
6.848219 3.006535 27.838287 37 23 17
6.898842 3.004334 27.817911 26 29 33
6.951496 3.003046 27.805984 27 31 23
7.004220 3.001809 27.794523 31 29 43
7.058288 3.001162 27.788536 40 35 30
7.113764 3.001119 27.788139 38 37 20
7.169794 3.001309 27.789898 26 29 18
7.226642 3.001836 27.794777 32 41 28
7.283842 3.002500 27.800924 34 27 26
7.340947 3.003115 27.806618 36 19 35
7.397218 3.003382 27.809090 25 26 17
7.452199 3.003125 27.806713 16 43 26
7.506233 3.002493 27.800863 27 24 16
7.558585 3.001203 27.788916 37 15 42
7.611252 3.000056 27.778294 44 41 34
7.663146 2.998622 27.765022 29 24 28
7.713643 2.996667 27.746916 35 30 25
7.765359 2.995210 27.733425 37 21 29
7.815975 2.993352 27.716225 20 24 37
7.867687 2.991938 27.703125 42 29 19
7.920700 2.991033 27.694754 41 29 30
7.974200 2.990325 27.688194 16 41 44
8.029572 2.990323 27.688179 36 42 36
8.086707 2.990974 27.694202 42 37 18
8.145357 2.992172 27.705296 16 22 21
8.203788 2.993274 27.715500 21 26 24
8.260435 2.993715 27.719582 24 18 17
8.315170 2.993461 27.717232 18 37 23
8.366700 2.992065 27.704306 24 28 16
8.417053 2.990269 27.687675 33 15 23
8.466209 2.988074 27.667349 33 18 21
8.515566 2.985978 27.647942 40 16 35
8.567665 2.984864 27.637630 28 26 33
8.615284 2.982214 27.613089 33 25 18
8.663093 2.979663 27.589468 22 23 39
8.709086 2.976523 27.560400 22 24 24
8.751539 2.972221 27.520563 15 22 17
8.797057 2.969007 27.490805 16 31 40
8.840321 2.965077 27.454414 20 18 41
8.889999 2.963333 27.438269 16 25 35
8.937729 2.960966 27.416348 37 26 40
8.977641 2.956053 27.370857 29 23 31
9.018931 2.951650 27.330095 42 40 24
9.045181 2.942408 27.244520 19 38 33
9.070877 2.933098 27.158316 31 15 24
9.095396 2.923520 27.069632 18 18 28
9.119035 2.913774 26.979393 26 35 33
4.937822 3.157909 28.708265 36 27 17
4.990065 3.154638 28.678532 28 43 22
5.043130 3.151956 28.654146 34 22 16
5.095530 3.148923 28.626574 26 39 41
5.150358 3.147441 28.613102 38 44 42
5.203716 3.145103 28.591845 42 28 28
5.258214 3.143497 28.577250 19 18 32
5.312006 3.141509 28.559174 32 31 29
5.363414 3.138168 28.528797 19 22 23
5.415731 3.135423 28.503847 22 42 43
5.464724 3.130831 28.462103 15 24 44
5.515508 3.127350 28.430456 17 34 41
5.564884 3.123149 28.392263 22 29 18
5.610571 3.116984 28.336216 29 19 36
5.658664 3.112265 28.293320 33 23 35
5.701686 3.104879 28.226170 37 29 15
5.747343 3.099057 28.173248 23 30 32
5.792574 3.093122 28.119291 37 42 33
5.834396 3.085498 28.049980 42 24 32
5.880912 3.080478 28.004341 120 120 120
5.923598 3.073565 27.941500 120 120 120
5.969066 3.068211 27.892830 120 120 120
6.016612 3.064015 27.854685 28 37 39
6.063859 3.059745 27.815866 33 25 37
6.116116 3.058058 27.800529 32 32 28
6.168415 3.056422 27.785654 32 18 26
6.222057 3.055475 27.777042 30 25 43
6.277716 3.055525 27.777504 40 21 34
6.334259 3.056002 27.781837 23 29 17
6.391863 3.056978 27.790707 30 43 26
6.450639 3.058493 27.804478 27 19 29
6.509904 3.060211 27.820103 27 26 43
6.567530 3.061137 27.828518 32 41 25
6.621819 3.060505 27.822769 27 17 18
6.673672 3.058766 27.806965 41 17 35
6.723669 3.056213 27.783754 17 30 31
6.774851 3.054236 27.765783 39 36 20
6.826060 3.052303 27.748211 23 25 31
6.876469 3.050047 27.727699 32 19 21
6.928879 3.048707 27.715515 25 35 24
6.981294 3.047390 27.703548 17 31 36
7.035058 3.046679 27.697081 24 35 34
7.090239 3.046587 27.696247 24 27 17
7.145977 3.046734 27.697584 31 15 39
7.202587 3.047248 27.702257 29 41 40
7.259625 3.047934 27.708492 30 15 32
7.316622 3.048592 27.714476 28 34 38
7.372847 3.048922 27.717470 42 32 42
7.427792 3.048721 27.715641 29 23 28
7.481744 3.048118 27.710161 25 37 34
7.534158 3.046902 27.699112 25 24 19
7.586902 3.045836 27.689423 36 36 44
7.638901 3.044490 27.677177 19 28 24
7.689506 3.042610 27.660095 42 44 20
7.741182 3.041179 27.647079 28 35 21
7.791992 3.039430 27.631178 17 43 30
7.843979 3.038161 27.619644 17 41 44
7.897210 3.037388 27.612621 35 28 41
7.950796 3.036762 27.606930 23 24 31
8.006010 3.036762 27.606930 42 43 38
8.062895 3.037392 27.612654 20 44 33
8.121224 3.038553 27.623211 42 21 35
8.179338 3.039619 27.632900 21 31 33
8.235762 3.040046 27.636786 26 33 24
8.290378 3.039805 27.634592 44 21 28
8.341804 3.038405 27.621866 16 41 24
8.391904 3.036544 27.604946 27 29 27
8.440987 3.034342 27.584925 20 26 20
8.490686 3.032388 27.567162 26 37 19
8.543241 3.031473 27.558842 31 15 43
8.591595 3.029088 27.537163 20 24 23
8.639813 3.026686 27.515329 25 38 23
8.686364 3.023734 27.488493 22 41 30
8.729831 3.019753 27.452297 33 44 22
8.776167 3.016807 27.425522 42 19 34
8.820778 3.013309 27.393721 19 27 36
8.872201 3.012167 27.383337 44 35 33
8.920566 3.010007 27.363699 37 21 34
8.958662 3.004429 27.312994 33 17 19
8.996734 2.998911 27.262831 20 21 39
9.020459 2.988706 27.170057 34 23 22
9.046013 2.979226 27.083870 15 26 29
9.070798 2.969606 26.996422 38 32 30
4.962927 3.194528 28.522572 20 29 30
5.015384 3.191608 28.496500 26 42 17
5.067091 3.188282 28.466805 35 20 30
5.121316 3.186597 28.451756 34 44 26
5.173791 3.183871 28.427422 21 21 38
5.227385 3.181886 28.409700 31 24 16
5.280279 3.179523 28.388596 24 23 29
5.330778 3.175782 28.355200 31 41 15
5.382461 3.172819 28.328743 39 38 31
5.430846 3.167993 28.285654 20 16 22
5.481125 3.164361 28.253222 27 23 41
5.530168 3.160096 28.215145 31 29 42
5.575584 3.153866 28.159517 38 38 44
5.623479 3.149148 28.117393 37 21 26
5.666633 3.141896 28.052641 22 19 28
5.712495 3.136272 28.002428 22 23 33
5.758047 3.130589 27.951687 20 33 34
5.800268 3.123221 27.885904 38 26 22
5.846915 3.118355 27.842453 120 120 120
5.890015 3.111706 27.783091 120 120 120
5.935800 3.106587 27.737385 120 120 120
5.983623 3.102619 27.701958 37 28 15
6.031228 3.098613 27.666185 23 41 24
6.083537 3.097073 27.652441 22 27 36
6.135916 3.095597 27.639259 44 17 43
6.189423 3.094711 27.631351 28 43 35
6.244898 3.094816 27.632290 20 41 15
6.301458 3.095453 27.637976 30 22 33
6.359052 3.096582 27.648050 17 35 25
6.417809 3.098253 27.662970 34 43 27
6.476893 3.100052 27.679031 18 34 17
6.534280 3.101014 27.687628 19 23 24
6.588414 3.100430 27.682411 28 21 27
6.640084 3.098706 27.667017 16 43 15
6.689941 3.096171 27.644384 39 28 22
6.740972 3.094217 27.626934 28 34 26
6.791989 3.092288 27.609713 31 23 27
6.842180 3.090017 27.589436 21 27 22
6.894293 3.088643 27.577171 30 28 15
6.946415 3.087295 27.565138 18 17 27
6.999878 3.086561 27.558577 27 42 33
7.054776 3.086465 27.557720 22 27 25
7.110229 3.086611 27.559029 28 33 24
7.166579 3.087142 27.563765 17 23 31
7.223499 3.087908 27.570606 41 40 40
7.280423 3.088664 27.577360 19 16 30
7.336685 3.089131 27.581524 26 27 17
7.391760 3.089094 27.581194 19 30 25
7.445769 3.088615 27.576921 40 40 35
7.498527 3.087629 27.568113 15 39 33
7.551584 3.086779 27.560524 44 31 34
7.603941 3.085657 27.550512 20 33 33
7.654998 3.084028 27.535965 23 37 34
7.706854 3.082741 27.524477 43 32 35
7.758145 3.081249 27.511154 42 44 26
7.810642 3.080253 27.502262 32 37 27
7.864219 3.079694 27.497269 15 34 22
7.917945 3.079201 27.492865 35 17 44
7.972886 3.079184 27.492710 22 21 25
8.029257 3.079715 27.497456 40 23 30
8.086951 3.080743 27.506638 23 19 36
8.144344 3.081644 27.514677 35 19 31
8.200123 3.081926 27.517193 35 36 35
8.254310 3.081609 27.514368 33 33 31
8.305215 3.080080 27.500711 22 38 18
8.354759 3.078069 27.482761 35 33 18
8.403478 3.075783 27.462347 23 28 24
8.453089 3.073851 27.445095 31 32 31
8.505759 3.073048 27.437931 44 22 41
8.554362 3.070797 27.417828 28 29 35
8.602542 3.068423 27.396631 15 44 36
8.649258 3.065560 27.371071 24 32 41
8.693523 3.061870 27.338123 17 39 17
8.740687 3.059241 27.314648 32 17 29
8.786216 3.056075 27.286386 35 23 22
8.838563 3.055306 27.279516 28 36 24
8.886778 3.053126 27.260056 30 20 19
8.922757 3.046795 27.203527 33 30 22
8.957778 3.040216 27.144783 16 36 36
8.979107 3.029096 27.045504 31 43 20
9.004466 3.019462 26.959478 15 25 15
4.941906 3.237800 28.401756 23 37 34
4.993675 3.234539 28.373152 20 32 36
5.044635 3.230834 28.340647 33 40 18
5.098279 3.228910 28.323772 15 22 26
5.149943 3.225788 28.296389 37 24 38
5.202777 3.223460 28.275961 36 32 35
5.254937 3.220768 28.252352 21 20 24
5.304684 3.216670 28.216402 37 25 17
5.355860 3.213516 28.188738 30 20 25
5.403834 3.208526 28.144968 35 38 42
5.453875 3.204854 28.112759 35 44 30
5.502832 3.200627 28.075674 15 15 25
5.548199 3.194417 28.021206 43 17 40
5.596015 3.189729 27.980076 35 27 18
5.639381 3.182621 27.917727 16 42 19
5.685467 3.177173 27.869936 24 28 36
5.731320 3.171702 27.821943 38 19 25
5.773961 3.164575 27.759426 17 22 23
5.820805 3.159865 27.718117 120 120 120
5.864267 3.153426 27.661634 120 120 120
5.910262 3.148457 27.618048 120 120 120
5.958222 3.144617 27.584362 27 16 36
6.006052 3.140779 27.550697 35 36 27
6.058384 3.139344 27.538109 38 40 22
6.110810 3.137983 27.526171 27 24 16
6.164202 3.137139 27.518761 19 42 34
6.219539 3.137289 27.520082 25 21 30
6.276087 3.138044 27.526699 35 39 43
6.333654 3.139290 27.537628 16 33 44
6.392387 3.141087 27.553392 16 29 21
6.451325 3.142953 27.569763 40 22 33
6.508559 3.143965 27.578638 15 39 29
6.562635 3.143447 27.574099 35 35 32
6.614227 3.141758 27.559278 15 15 24
6.664038 3.139258 27.537348 24 29 20
6.714979 3.137326 27.520407 21 27 33
6.765892 3.135414 27.503628 40 27 38
6.815963 3.133144 27.483723 34 43 38
6.867908 3.131766 27.471630 40 29 43
6.919903 3.130432 27.459932 41 40 44
6.973228 3.129717 27.453655 34 38 38
7.028013 3.129662 27.453176 37 43 35
7.083371 3.129862 27.454926 40 43 22
7.139587 3.130434 27.459949 43 27 40
7.196533 3.131316 27.467684 38 44 28
7.253499 3.132193 27.475376 15 25 20
7.309904 3.132816 27.480843 37 29 20
7.365256 3.132982 27.482298 17 27 28
7.419418 3.132643 27.479324 32 15 18
7.472654 3.131921 27.472992 34 17 26
7.526120 3.131306 27.467592 34 25 32
7.578920 3.130424 27.459856 41 36 16
7.630531 3.129067 27.447954 23 23 41
7.682668 3.127943 27.438101 25 32 19
7.734459 3.126696 27.427158 34 33 43
7.787420 3.125936 27.420494 39 16 31
7.841261 3.125538 27.416996 37 44 26
7.895060 3.125128 27.413404 42 40 42
7.949740 3.125070 27.412895 41 32 37
8.005565 3.125460 27.416317 40 38 22
8.062623 3.126323 27.423887 40 15 41
8.119279 3.127020 27.429996 32 44 40
8.174305 3.127083 27.430553 35 28 40
8.227976 3.126631 27.426586 24 16 19
8.278220 3.124891 27.411324 27 32 33
8.327186 3.122695 27.392059 30 40 30
8.375411 3.120251 27.370625 17 42 30
8.424601 3.118197 27.352602 40 42 20
8.477052 3.117368 27.345329 43 29 23
8.525350 3.115032 27.324841 21 43 41
8.573102 3.112527 27.302872 36 42 27
8.619565 3.109590 27.277105 18 34 17
8.663990 3.105959 27.245253 38 33 28
8.711530 3.103482 27.223530 24 21 25
8.757157 3.100360 27.196138 21 15 15
8.809323 3.099577 27.189270 18 26 36
8.856886 3.097193 27.168362 33 30 29
8.891594 3.090371 27.108519 42 20 30
8.925235 3.083263 27.046165 24 27 42
8.945394 3.071611 26.943956 16 36 44
8.970487 3.061783 26.857746 33 42 25
4.971363 3.276580 28.246378 22 40 15
5.021470 3.272419 28.210506 22 28 17
5.074477 3.270218 28.191538 29 38 22
5.125281 3.266662 28.160883 24 22 39
5.177321 3.263963 28.137613 18 16 32
5.228756 3.260945 28.111591 19 34 31
5.277747 3.256482 28.073122 39 43 26
5.328423 3.253143 28.044333 27 23 42
5.376058 3.248035 28.000303 32 40 32
5.425930 3.244371 27.968714 44 19 33
5.474883 3.240237 27.933079 30 41 21
5.520264 3.234094 27.880119 34 20 20
5.568023 3.229454 27.840117 43 35 15
5.611596 3.222501 27.780178 18 21 26
5.657886 3.217229 27.734734 33 39 16
5.704011 3.211967 27.689375 38 28 24
5.747044 3.205082 27.630020 18 24 28
5.794070 3.200534 27.590809 120 120 120
5.837849 3.194295 27.537022 120 120 120
5.883981 3.189448 27.495237 120 120 120
5.932017 3.185713 27.463041 18 15 27
5.980002 3.182019 27.431200 24 18 44
6.032316 3.180676 27.419617 24 33 17
6.084773 3.179431 27.408888 29 43 34
6.138073 3.178645 27.402113 40 41 23
6.193295 3.178859 27.403959 31 39 20
6.249863 3.179755 27.411678 31 20 23
6.307384 3.181116 27.423410 16 39 36
6.366123 3.183062 27.440186 15 31 23
6.424959 3.185022 27.457088 17 35 25
6.482085 3.186109 27.466461 21 30 32
6.536200 3.185711 27.463026 22 27 33
6.587802 3.184104 27.449175 36 44 40
6.637682 3.181699 27.428438 38 32 31
6.688581 3.179817 27.412218 41 33 40
6.739423 3.177939 27.396029 15 27 29
6.789455 3.175713 27.376833 37 26 19
6.841278 3.174353 27.365112 43 28 37
6.893242 3.173080 27.354136 36 25 22
6.946528 3.172430 27.348536 16 44 24
7.001272 3.172452 27.348721 37 41 44
7.056607 3.172738 27.351189 15 42 22
7.112698 3.173357 27.356529 29 42 27
7.169683 3.174364 27.365204 29 22 38
7.226653 3.175347 27.373684 42 36 30
7.283178 3.176123 27.380369 28 41 20
7.338817 3.176503 27.383646 41 34 15
7.393185 3.176331 27.382168 15 42 25
7.446934 3.175898 27.378433 35 40 28
7.500823 3.175531 27.375267 42 31 15
7.554102 3.174913 27.369936 33 39 23
7.606353 3.173874 27.360981 38 37 33
7.658848 3.172951 27.353029 33 22 27
7.711245 3.172001 27.344839 22 16 38
7.764711 3.171502 27.340530 24 16 19
7.818844 3.171279 27.338615 24 16 20
7.872788 3.170984 27.336069 36 18 15
7.927256 3.170902 27.335365 36 21 44
7.982571 3.171158 27.337572 38 38 28
8.039008 3.171854 27.343565 22 29 29
8.094898 3.172325 27.347630 35 41 37
8.149114 3.172138 27.346020 40 40 17
8.202214 3.171523 27.340714 30 22 21
8.251718 3.169534 27.323570 37 15 42
8.300096 3.167142 27.302948 27 42 35
8.347751 3.164507 27.280231 22 44 17
8.396201 3.162205 27.260391 19 39 28
8.448086 3.161219 27.251890 25 36 35
8.495591 3.158617 27.229460 27 31 41
8.542546 3.155845 27.205561 40 19 40
8.588376 3.152695 27.178404 41 36 29
8.632560 3.148984 27.146416 20 15 30
8.680247 3.146589 27.125771 40 38 43
8.725305 3.143278 27.097221 42 18 18
8.776184 3.142090 27.086987 41 40 20
8.822354 3.139242 27.062435 15 42 33
8.856096 3.132034 27.000292 33 34 22
8.889413 3.124763 26.937614 18 40 30
8.909420 3.112930 26.835602 31 16 42
4.991802 3.309172 28.043833 37 27 25
5.044057 3.306660 28.022541 23 26 32
5.093841 3.302600 27.988138 24 31 26
5.144918 3.299458 27.961512 21 42 19
5.195481 3.296058 27.932695 27 35 31
5.243603 3.291198 27.891506 38 22 30
5.293711 3.287673 27.861639 31 32 44
5.340914 3.282437 27.817261 37 27 44
5.390500 3.278758 27.786081 39 36 30
5.439343 3.274706 27.751749 24 18 33
5.484670 3.268642 27.700356 19 21 23
5.532343 3.264082 27.661713 26 44 29
5.576098 3.257325 27.604446 19 35 20
5.622563 3.252267 27.561584 38 42 15
5.668922 3.247247 27.519041 17 15 21
5.712300 3.240632 27.462980 35 24 22
5.759421 3.236246 27.425816 120 120 120
5.803481 3.230240 27.374912 120 120 120
5.849771 3.225575 27.335381 120 120 120
5.897892 3.221997 27.305058 39 27 35
5.946026 3.218491 27.275349 34 27 43
5.998272 3.217255 27.264874 37 20 40
6.050721 3.216149 27.255501 24 20 18
6.103894 3.215444 27.249529 43 18 31
6.158975 3.215748 27.252102 30 37 23
6.215540 3.216814 27.261139 33 40 29
6.272997 3.218320 27.273901 25 15 32
6.331721 3.220444 27.291899 22 42 32
6.390393 3.222506 27.309370 42 29 31
6.447366 3.223683 27.319345 34 36 19
6.501487 3.223426 27.317173 24 37 36
6.553071 3.221926 27.304461 40 19 16
6.602980 3.219635 27.285042 39 36 27
6.653804 3.217823 27.269690 26 42 20
6.704508 3.215984 27.254099 39 24 25
6.754437 3.213805 27.235632 33 44 29
6.806065 3.212462 27.224258 28 31 43
6.857909 3.211243 27.213926 16 22 24
6.911083 3.210661 27.208990 39 34 32
6.965716 3.210760 27.209827 19 17 27
7.020911 3.211114 27.212831 42 35 27
7.076778 3.211769 27.218378 20 28 42
7.133648 3.212864 27.227665 32 32 16
7.190472 3.213923 27.236637 18 28 22
7.246973 3.214823 27.244261 23 44 16
7.302792 3.215409 27.249226 40 24 20
7.357320 3.215421 27.249332 37 36 39
7.411537 3.215299 27.248297 39 30 36
7.465774 3.215187 27.247351 31 17 18
7.519488 3.214853 27.244520 19 23 44
7.572398 3.214183 27.238842 34 16 28
7.625287 3.213514 27.233170 39 22 32
7.678390 3.212943 27.228333 21 31 18
7.732467 3.212785 27.226995 27 30 20
7.787025 3.212828 27.227360 24 38 26
7.841261 3.212739 27.226601 33 36 25
7.895573 3.212681 27.226114 25 41 18
7.950469 3.212861 27.227634 33 20 27
8.006319 3.213421 27.232378 25 26 26
8.061437 3.213681 27.234585 20 18 41
8.114881 3.213275 27.231146 34 24 28
8.167401 3.212511 27.224669 22 25 17
8.216176 3.210294 27.205879 23 29 42
8.263989 3.207732 27.184174 20 42 36
8.311042 3.204911 27.160267 36 16 33
8.358672 3.202348 27.138544 40 33 30
8.409846 3.201167 27.128534 31 18 32
8.456382 3.198247 27.103788 39 15 28
8.502343 3.195148 27.077524 30 38 41
8.547441 3.191766 27.048864 37 28 34
8.591535 3.188054 27.017406 35 42 44
8.639639 3.185867 26.998871 15 19 34
8.683963 3.182322 26.968828 41 30 26
8.732858 3.180485 26.953264 36 43 22
8.776945 3.176931 26.923143 35 32 27
8.809597 3.169306 26.858528 42 40 28
8.842896 3.162005 26.796656 24 26 32
5.073103 3.344903 27.874191 20 21 15
5.123570 3.341459 27.845490 37 40 34
5.173585 3.337797 27.814976 37 15 40
5.221198 3.332680 27.772329 22 37 36
5.270978 3.329039 27.741991 34 24 44
5.317936 3.323710 27.697584 25 21 41
5.367335 3.320001 27.666674 26 44 23
5.416094 3.315976 27.633135 40 18 43
5.461386 3.309931 27.582756 42 44 16
5.508994 3.305397 27.544971 35 39 26
5.552842 3.298718 27.489315 36 19 37
5.599367 3.293745 27.447878 40 27 18
5.645822 3.288828 27.406902 33 37 41
5.689328 3.282305 27.352539 30 39 39
5.736443 3.277967 27.316393 120 120 120
5.780608 3.272043 27.267021 120 120 120
5.826954 3.267451 27.228758 120 120 120
5.875096 3.263942 27.199520 31 22 32
5.923271 3.260516 27.170967 25 40 42
5.975429 3.259325 27.161039 32 28 35
6.027847 3.258295 27.152462 37 44 16
6.080932 3.257642 27.147018 18 23 38
6.135940 3.258021 27.150179 37 36 24
6.192492 3.259206 27.160053 37 28 27
6.249900 3.260817 27.173479 35 28 17
6.308603 3.263071 27.192255 28 23 37
6.367170 3.265215 27.210129 39 39 21
6.424054 3.266468 27.220566 18 16 19
6.478198 3.266318 27.219320 20 21 31
6.529783 3.264891 27.207428 17 30 35
6.579733 3.262678 27.188980 25 31 30
6.630496 3.260899 27.174162 25 15 37
6.681106 3.259076 27.158966 21 31 20
6.730966 3.256919 27.140991 35 15 16
6.782462 3.255582 27.129847 18 18 35
6.834231 3.254396 27.119963 28 38 43
6.887345 3.253864 27.115530 26 19 42
6.941892 3.254012 27.116766 28 42 21
6.996974 3.254406 27.120052 25 26 24
7.052662 3.255075 27.125622 20 37 16
7.109377 3.256203 27.135025 41 40 35
7.166007 3.257276 27.143967 22 27 33
7.222386 3.258219 27.151827 44 35 31
7.278237 3.258912 27.157602 38 42 25
7.332823 3.259032 27.158604 29 39 17
7.387263 3.259087 27.159056 20 41 27
7.441643 3.259114 27.159283 27 38 28
7.495569 3.258943 27.157860 44 30 24
7.548855 3.258499 27.154156 25 42 23
7.601999 3.258000 27.149998 28 38 32
7.655583 3.257695 27.147459 42 44 15
7.710058 3.257771 27.148092 33 43 23
7.764934 3.258014 27.150118 26 29 25
7.819439 3.258100 27.150829 21 22 29
7.873749 3.258103 27.150858 18 33 33
7.928506 3.258290 27.152416 42 32 24
7.984082 3.258809 27.156740 35 30 41
8.038803 3.258974 27.158117 30 25 41
8.091862 3.258468 27.153900 31 40 25
8.144061 3.257624 27.146870 20 20 38
8.192438 3.255274 27.127279 23 37 30
8.239987 3.252626 27.105219 32 16 41
8.286684 3.249680 27.080666 27 38 30
8.333695 3.246894 27.057451 34 19 35
8.384265 3.245522 27.046015 26 17 27
8.429973 3.242297 27.019144 17 41 41
8.475149 3.238911 26.990921 43 27 24
8.519647 3.235309 26.960909 36 43 37
8.563630 3.231559 26.929655 32 23 40
8.612053 3.229520 26.912666 26 32 34
8.655627 3.225699 26.880829 17 24 23
8.702562 3.223171 26.859758 23 33 43
8.744817 3.218951 26.824591 39 42 34
5.092413 3.376491 27.676157 39 28 24
5.141643 3.372475 27.643240 21 36 30
5.188464 3.366982 27.598211 19 24 15
5.237704 3.363157 27.566864 26 35 31
5.284121 3.357619 27.521463 38 21 17
5.333063 3.353782 27.490013 21 23 36
5.381468 3.349689 27.456470 27 22 41
5.426405 3.343542 27.406086 36 31 36
5.473710 3.338963 27.368551 42 22 42
5.517407 3.332296 27.313898 44 34 32
5.563810 3.327377 27.273581 25 40 20
5.610218 3.322556 27.234066 44 20 23
5.653735 3.316133 27.181417 17 30 25
5.700744 3.311861 27.146400 120 120 120
5.744991 3.306080 27.099014 120 120 120
5.791368 3.301621 27.062466 120 120 120
5.839549 3.298264 27.034948 35 15 36
5.887808 3.295012 27.008293 33 27 37
5.939886 3.293937 26.999483 18 37 34
5.992356 3.293096 26.992594 39 17 44
6.045421 3.292595 26.988487 33 21 38
6.100414 3.293144 26.992983 17 43 41
6.157083 3.294579 27.004749 29 28 24
6.214479 3.296376 27.019472 37 24 15
6.273297 3.298889 27.040075 24 24 36
6.331833 3.301212 27.059116 44 44 18
6.388731 3.302649 27.070894 31 42 41
6.443138 3.302785 27.072008 18 36 26
6.494887 3.301568 27.062029 36 33 30
6.545114 3.299603 27.045925 41 35 24
6.595942 3.297971 27.032549 22 29 25
6.646543 3.296253 27.018469 38 25 31
6.696484 3.294238 27.001951 39 30 43
6.747902 3.292976 26.991608 43 38 31
6.799717 3.291926 26.983004 37 43 15
6.852856 3.291529 26.979750 16 43 17
6.907378 3.291797 26.981945 38 27 44
6.962409 3.292302 26.986082 24 19 38
7.017892 3.293011 26.991894 33 22 39
7.074425 3.294198 27.001621 17 38 43
7.130794 3.295291 27.010582 36 42 16
7.186969 3.296279 27.018679 24 26 16
7.242816 3.297103 27.025433 43 23 20
7.297429 3.297357 27.027514 21 32 33
7.352099 3.297633 27.029776 44 34 30
7.406573 3.297817 27.031290 26 41 38
7.460673 3.297834 27.031425 19 38 23
7.514349 3.297664 27.030031 25 31 44
7.567733 3.297369 27.027618 29 41 39
7.621852 3.297397 27.027845 30 37 36
7.676780 3.297772 27.030914 40 23 21
7.732003 3.298267 27.034977 36 35 39
7.786812 3.298580 27.037540 43 29 22
7.841091 3.298666 27.038244 44 42 21
7.895588 3.298841 27.039684 27 23 20
7.950699 3.299270 27.043194 24 24 23
8.004799 3.299275 27.043240 44 37 19
8.057218 3.298593 27.037645 41 27 39
8.108897 3.297618 27.029657 17 30 20
8.156744 3.295108 27.009085 42 31 34
8.203986 3.292389 26.986797 34 22 43
8.250303 3.289337 26.961775 33 19 44
8.296547 3.286295 26.936842 34 15 39
8.346312 3.284678 26.923588 21 18 39
8.391046 3.281114 26.894379 28 16 20
8.435484 3.277481 26.864597 26 25 36
8.479299 3.273653 26.833225 26 25 17
8.522629 3.269688 26.800720 26 27 44
8.570667 3.267567 26.783335 39 39 29
8.612856 3.263256 26.747999 43 17 37
8.657528 3.259933 26.720764 41 27 31
5.117438 3.411626 27.513109 22 43 32
5.163596 3.405776 27.465935 32 30 39
5.212351 3.401745 27.433424 37 18 33
5.258224 3.395936 27.386581 18 24 36
5.306702 3.391913 27.354136 27 40 38
5.354715 3.387677 27.319973 27 37 21
5.399224 3.381332 27.268806 42 15 22
5.446189 3.376637 27.230947 15 18 28
5.489636 3.369876 27.176418 37 43 23
5.535853 3.364930 27.136536 37 38 29
5.582167 3.360140 27.097900 26 36 35
5.625652 3.353754 27.046404 28 26 34
5.672596 3.349533 27.012362 120 120 120
5.716936 3.343868 26.966681 120 120 120
5.763363 3.339519 26.931602 120 120 120
5.811638 3.336311 26.905733 27 39 15
5.860066 3.333248 26.881035 37 33 29
5.912169 3.332313 26.873495 29 27 35
5.964834 3.331709 26.868624 28 16 16
6.018004 3.331395 26.866091 28 21 23
6.073128 3.332159 26.872250 17 20 31
6.130056 3.333890 26.886209 38 17 24
6.187554 3.335898 26.902407 37 37 41
6.246672 3.338739 26.925312 43 36 23
6.305363 3.341304 26.945997 18 40 42
6.362448 3.342981 26.959524 31 16 24
6.417253 3.343443 26.963249 26 25 15
6.469241 3.342441 26.955172 31 23 34
6.519872 3.340761 26.941618 16 19 27
6.570923 3.339321 26.930012 20 27 20
6.621693 3.337764 26.917450 39 27 27
6.671889 3.335944 26.902777 42 41 38
6.723372 3.334793 26.893490 33 18 15
6.775384 3.333919 26.886446 29 23 30
6.828660 3.333677 26.884489 18 24 20
6.883249 3.334074 26.887691 25 33 25
6.938363 3.334717 26.892879 26 21 26
6.993765 3.335488 26.899097 21 29 19
7.050216 3.336743 26.909222 34 44 41
7.106415 3.337861 26.918238 33 20 41
7.162442 3.338883 26.926474 43 43 31
7.218276 3.339799 26.933865 21 33 21
7.272911 3.340152 26.936708 30 41 43
7.327695 3.340567 26.940056 40 35 36
7.382216 3.340857 26.942392 28 27 18
7.436392 3.340988 26.943449 33 36 44
7.490262 3.340980 26.943390 19 16 41
7.543749 3.340803 26.941961 37 44 26
7.598141 3.341026 26.943762 30 37 38
7.653340 3.341599 26.948380 19 20 19
7.708744 3.342253 26.953651 33 29 20
7.763704 3.342706 26.957304 19 40 20
