ply
format ascii 1.0
element vertex 1289
property float x
property float y
property float z
property uchar red
property uchar green
property uchar blue
end_header
6.818752 2.169603 25.828608 17 30 16
6.868224 2.168913 25.820391 20 30 37
6.914948 2.167372 25.802044 38 18 20
6.961894 2.165923 25.784792 19 15 36
7.004698 2.163215 25.752565 25 21 32
7.047636 2.160589 25.721298 25 22 26
7.090765 2.158059 25.691179 38 26 16
7.133872 2.155558 25.661409 24 30 29
7.181215 2.154365 25.647198 32 32 26
7.228858 2.153277 25.634247 15 27 36
7.279224 2.153010 25.631069 22 38 33
7.330323 2.152962 25.630499 39 16 37
7.379007 2.152210 25.621552 28 30 29
7.427562 2.151432 25.612284 43 20 24
7.476244 2.150700 25.603577 23 36 27
7.527214 2.150633 25.602768 25 44 25
7.577693 2.150426 25.600315 34 31 15
7.625717 2.149531 25.589653 18 24 15
7.673454 2.148567 25.578178 28 32 39
7.716732 2.146376 25.552092 38 33 37
7.759669 2.144119 25.525229 31 34 39
7.801766 2.141661 25.495968 30 35 40
7.843315 2.139086 25.465307 22 17 20
7.888940 2.137648 25.448195 43 28 41
7.931164 2.135313 25.420399 17 24 38
7.975341 2.133531 25.399176 22 24 18
8.018636 2.131536 25.375431 25 30 42
8.058423 2.128640 25.340954 18 31 31
8.100923 2.126492 25.315384 21 41 26
8.138703 2.123140 25.275476 21 36 15
8.179729 2.120670 25.246077 16 40 27
8.219455 2.117896 25.213053 37 22 35
8.254255 2.113895 25.165413 41 40 16
8.292937 2.110930 25.130114 40 19 33
8.324931 2.106308 25.075094 39 39 35
8.360356 2.102604 25.031006 30 34 29
8.395842 2.098961 24.987625 36 24 37
8.427535 2.094417 24.933535 26 18 33
8.465768 2.091543 24.899319 22 19 26
8.501662 2.088128 24.858662 38 17 37
8.545293 2.086641 24.840967 41 21 18
8.587349 2.084790 24.818928 31 17 27
8.618842 2.080410 24.766788 28 22 42
8.651378 2.076331 24.718222 38 25 17
8.676345 2.070492 24.648708 30 18 18
8.706383 2.065921 24.594301 38 32 34
4.735879 2.340722 27.217693 20 18 42
4.777549 2.334484 27.145163 38 33 34
4.815813 2.326741 27.055130 29 34 31
4.859709 2.321861 26.998381 27 28 18
4.902393 2.316515 26.936226 28 42 32
4.950569 2.313853 26.905264 34 25 36
5.000394 2.312010 26.883839 26 18 25
5.046526 2.308517 26.843225 34 41 40
5.094631 2.305991 26.813848 24 30 37
5.140954 2.302719 26.775801 34 34 25
5.190008 2.300725 26.752621 28 35 18
5.239001 2.298745 26.729597 21 16 33
5.285427 2.295691 26.694077 33 23 30
5.333627 2.293460 26.668137 34 35 18
5.377139 2.289277 26.619501 15 18 23
5.421830 2.285673 26.577599 35 27 23
5.465029 2.281517 26.529266 15 23 23
5.504908 2.276068 26.465906 36 19 16
5.548480 2.272235 26.421331 120 120 120
5.586847 2.266362 26.353052 120 120 120
5.628276 2.261830 26.300354 120 120 120
5.669427 2.257272 26.247345 21 34 35
5.706060 2.251015 26.174587 25 35 42
5.747282 2.246665 26.124010 30 35 40
5.788673 2.242459 26.075104 30 35 40
5.836138 2.240660 26.054190 30 35 40
5.886931 2.240160 26.048367 30 35 40
5.936557 2.239227 26.037529 30 35 40
5.988150 2.239048 26.035437 30 35 40
6.038428 2.238383 26.027708 30 35 40
6.088889 2.237797 26.020893 30 35 40
6.138148 2.236783 26.009104 30 35 40
6.185234 2.235000 25.988377 30 35 40
6.232761 2.233406 25.969837 30 35 40
6.277031 2.230681 25.938147 30 35 40
6.322099 2.228281 25.910242 30 35 40
6.367070 2.225886 25.882397 28 32 32
6.410999 2.223169 25.850801 28 39 22
6.458103 2.221587 25.832411 27 21 44
6.504396 2.219754 25.811096 40 39 33
6.552904 2.218700 25.798836 31 34 32
6.602283 2.217955 25.790169 38 39 27
6.650372 2.216791 25.776636 33 44 16
6.699712 2.216058 25.768122 23 22 32
6.748243 2.215072 25.756653 25 35 16
6.798328 2.214607 25.751244 25 16 38
6.847527 2.213862 25.742582 25 36 18
6.894028 2.212263 25.723984 32 40 39
6.940792 2.210771 25.706638 21 34 24
6.983367 2.207976 25.674145 31 21 30
7.026101 2.205273 25.642706 25 41 21
7.068946 2.202642 25.612122 37 15 24
7.111649 2.200006 25.581470 38 20 16
7.158586 2.198709 25.566380 39 26 28
7.205703 2.197484 25.552137 26 29 44
7.255615 2.197123 25.547941 18 34 34
7.306276 2.196992 25.546421 41 26 29
7.354494 2.196134 25.536438 37 19 36
7.402727 2.195291 25.526644 41 43 23
7.450973 2.194465 25.517031 23 17 34
7.501531 2.194325 25.515411 41 36 22
7.551630 2.194055 25.512262 35 27 43
7.599259 2.193075 25.500870 19 33 18
7.646729 2.192062 25.489096 27 21 41
7.689829 2.189819 25.463009 39 23 34
7.732694 2.187538 25.436493 28 17 28
7.774801 2.185075 25.407846 30 17 32
7.816389 2.182498 25.377886 44 34 23
7.861999 2.181071 25.361286 38 42 29
7.904377 2.178771 25.334541 25 19 17
7.948690 2.177030 25.314299 25 44 33
7.992176 2.175086 25.291695 24 27 23
8.032243 2.172242 25.258627 39 24 18
8.074883 2.170125 25.234009 22 32 37
8.112980 2.166821 25.195591 19 31 21
8.154322 2.164419 25.167662 38 17 29
8.194235 2.161669 25.135689 30 37 18
8.229056 2.157618 25.088587 30 41 15
8.267502 2.154561 25.053038 43 37 18
8.299226 2.149800 24.997669 35 17 40
8.334433 2.145992 24.953392 24 35 31
8.369666 2.142236 24.909719 28 38 15
8.401096 2.137557 24.855312 20 41 38
8.439101 2.134596 24.820887 43 25 40
8.474484 2.131011 24.779194 19 26 34
8.517325 2.129331 24.759665 41 33 36
8.558786 2.127328 24.736376 29 36 20
8.590336 2.122899 24.684874 23 23 43
8.623352 2.118881 24.638147 44 29 26
8.648753 2.113048 24.570322 42 36 30
8.678782 2.108405 24.516333 34 33 34
4.756922 2.378461 27.027964 15 18 16
4.796010 2.371061 26.943874 31 38 20
4.840680 2.366554 26.892664 23 30 21
4.883683 2.361341 26.833422 38 28 33
4.931307 2.358451 26.800579 35 29 27
4.980304 2.356273 26.775826 19 18 27
5.026041 2.352615 26.734262 36 20 26
5.074034 2.350079 26.705441 25 26 23
5.120176 2.346747 26.667583 40 22 32
5.168951 2.344679 26.644079 29 29 38
5.217648 2.342617 26.620651 15 40 27
5.263837 2.339483 26.585033 44 25 38
5.311854 2.337216 26.559271 43 43 43
5.355067 2.332901 26.510235 40 24 41
5.399353 2.329133 26.467415 16 16 18
5.442149 2.324802 26.418201 22 35 24
5.481710 2.319185 26.354374 38 15 21
5.525073 2.315269 26.309870 120 120 120
5.563313 2.309300 26.242043 120 120 120
5.604529 2.304666 26.189386 120 120 120
5.645689 2.300096 26.137451 40 25 32
5.682814 2.293980 26.067953 30 21 39
5.724623 2.289849 26.021013 30 35 40
5.766433 2.285793 25.974922 30 35 40
5.813879 2.284024 25.954819 30 35 40
5.864250 2.283425 25.948008 30 35 40
5.913142 2.282265 25.934834 30 35 40
5.963846 2.281819 25.929764 30 35 40
6.013390 2.280941 25.919785 30 35 40
6.063559 2.280313 25.912647 30 35 40
6.112759 2.279334 25.901522 30 35 40
6.159724 2.277545 25.881191 30 35 40
6.207135 2.275950 25.863064 30 35 40
6.251466 2.273261 25.832506 30 35 40
6.296648 2.270922 25.805935 30 35 40
6.341734 2.268588 25.779406 30 35 40
6.385719 2.265900 25.748867 36 17 29
6.432708 2.264313 25.730831 35 41 28
6.479016 2.262514 25.710382 44 19 41
6.527570 2.261520 25.699093 26 42 20
6.577013 2.260848 25.691458 19 28 30
6.625227 2.259767 25.679173 26 34 15
6.674581 2.259089 25.671467 34 41 32
6.723033 2.258118 25.660431 34 25 19
6.772863 2.257621 25.654783 44 18 31
6.821732 2.256814 25.645609 33 24 37
6.867976 2.255156 25.626778 19 42 31
6.914544 2.253629 25.609423 44 41 17
6.956859 2.250748 25.576687 25 42 17
6.999350 2.247966 25.545073 27 21 22
7.041863 2.245232 25.513996 44 21 31
7.084101 2.242449 25.482376 26 24 22
7.130588 2.241042 25.466385 43 15 18
7.176958 2.239618 25.450207 25 17 28
7.226112 2.239077 25.444057 15 40 22
7.276003 2.238770 25.440571 39 40 34
7.323451 2.237721 25.428648 31 19 23
7.371215 2.236782 25.417982 21 17 17
7.418851 2.235818 25.407024 15 23 28
7.468841 2.235572 25.404222 17 40 35
7.518439 2.235212 25.400131 34 19 34
7.565549 2.234122 25.387747 31 36 37
7.612660 2.233047 25.375532 18 37 22
7.655551 2.230757 25.349506 29 41 33
7.698333 2.228465 25.323465 23 15 38
7.740488 2.226023 25.295713 37 35 36
7.782128 2.223465 25.266649 42 32 17
7.827707 2.222059 25.250668 32 18 28
7.870290 2.219825 25.225288 31 18 33
7.914813 2.218164 25.206409 19 24 20
7.958575 2.216312 25.185364 20 35 40
7.999006 2.213561 25.154106 39 38 29
8.041797 2.211494 25.130615 38 39 34
8.080326 2.208288 25.094179 19 44 24
8.122094 2.206001 25.068192 28 28 27
8.162337 2.203330 25.037844 27 41 36
8.197355 2.199290 24.991936 24 35 27
8.235660 2.196176 24.956547 40 33 44
8.267220 2.191311 24.901266 27 33 17
8.302235 2.187415 24.856991 37 25 16
8.337224 2.183559 24.813168 28 21 19
8.368467 2.178773 24.758780 24 31 37
8.406323 2.175754 24.724480 17 19 26
8.441329 2.172038 24.682249 30 18 21
8.483564 2.170214 24.661522 33 20 32
8.524473 2.168074 24.637205 40 43 20
8.555778 2.163530 24.585569 21 28 26
8.588835 2.159478 24.539528 31 19 37
8.614281 2.153570 24.472389 30 38 29
4.743612 2.425711 26.952341 42 28 42
4.783270 2.418507 26.872303 19 31 31
4.828442 2.414221 26.824678 44 24 17
4.871788 2.409126 26.768068 35 43 16
4.919276 2.406168 26.735197 17 23 23
4.967968 2.403856 26.709507 41 25 15
5.013622 2.400138 26.668200 38 22 18
5.061587 2.397594 26.639931 16 41 16
5.107666 2.394218 26.602425 42 22 21
5.156289 2.392093 26.578808 25 29 42
5.204807 2.389962 26.555136 24 36 37
5.250832 2.386742 26.519356 39 42 31
5.298702 2.384416 26.493509 33 41 22
5.341651 2.379944 26.443817 21 25 20
5.385596 2.375998 26.399979 40 35 37
5.428052 2.371479 26.349766 28 24 27
5.467359 2.365684 26.285381 34 16 22
5.510584 2.361679 26.240875 120 120 120
5.548705 2.355582 26.173136 120 120 120
5.589711 2.350813 26.120146 120 120 120
5.630815 2.346173 26.068588 40 30 26
5.668261 2.340108 26.001198 30 35 40
5.710508 2.336117 25.956854 30 35 40
5.752608 2.332138 25.912647 30 35 40
5.800053 2.330378 25.893093 30 35 40
5.850095 2.329684 25.885378 30 35 40
5.898362 2.328301 25.870010 30 35 40
5.948328 2.327607 25.862297 30 35 40
5.997208 2.326503 25.850037 30 35 40
6.047071 2.325796 25.842182 30 35 40
6.096166 2.324809 25.831211 30 35 40
6.142982 2.322977 25.810850 30 35 40
6.190311 2.321367 25.792961 30 35 40
6.234709 2.318693 25.763260 30 35 40
6.280006 2.316396 25.737730 30 35 40
6.325242 2.314113 25.712366 33 23 22
6.369358 2.311461 25.682896 34 40 40
6.416340 2.309882 25.665359 43 38 15
6.462772 2.308133 25.645922 29 29 26
6.511447 2.307205 25.635616 40 15 23
6.561028 2.306611 25.629015 21 17 42
6.609421 2.305612 25.617912 33 33 30
6.658845 2.304985 25.610941 15 35 21
6.707319 2.304041 25.600452 41 24 37
6.757023 2.303531 25.594786 32 34 26
6.805719 2.302687 25.585411 38 35 25
6.851870 2.301001 25.566681 43 44 27
6.898371 2.299457 25.549522 35 26 44
6.940592 2.296519 25.516882 40 44 41
6.982970 2.293676 25.485291 43 22 16
7.025315 2.290863 25.454039 42 27 44
7.067337 2.287987 25.422075 43 29 31
7.113600 2.286514 25.405714 18 31 43
7.159470 2.284937 25.388191 17 40 27
7.208011 2.284229 25.380320 21 23 43
7.257240 2.283747 25.374964 25 32 30
7.304057 2.282518 25.361309 34 20 35
7.351439 2.281481 25.349791 40 26 30
7.398589 2.280387 25.337635 40 22 31
7.448162 2.280049 25.333883 29 33 41
7.497391 2.279612 25.329023 36 42 15
7.544099 2.278419 25.315769 29 21 27
7.590927 2.277278 25.303091 34 18 37
7.633633 2.274924 25.276932 42 21 19
7.676336 2.272600 25.251106 34 22 21
7.718495 2.270146 25.223841 20 24 15
7.760125 2.267569 25.195210 34 35 23
7.805640 2.266154 25.179485 15 25 44
7.848352 2.263948 25.154976 40 42 24
7.893037 2.262335 25.137060 43 39 31
7.937017 2.260543 25.117144 24 17 39
7.977687 2.257836 25.087065 16 29 33
8.020572 2.255786 25.064287 15 30 21
8.059410 2.252630 25.029224 22 42 31
8.101501 2.250417 25.004633 39 27 28
8.142033 2.247801 24.975561 22 38 30
8.177307 2.243773 24.930813 32 31 41
8.215642 2.240630 24.895884 21 37 15
8.247194 2.235685 24.840946 19 30 35
8.282105 2.231705 24.796722 37 43 27
8.316947 2.227754 24.752817 28 35 15
8.348162 2.222883 24.698704 38 26 15
8.386005 2.219825 24.664721 30 26 32
8.420863 2.216017 24.622406 44 35 28
8.462817 2.214109 24.601212 34 30 40
8.503378 2.211861 24.576237 34 43 34
8.534299 2.207146 24.523848 35 32 16
8.567043 2.202954 24.477264 20 22 42
8.592287 2.196892 24.409906 25 36 37
4.723848 2.469284 26.840046 17 26 19
4.764030 2.462307 26.764212 32 21 18
4.809616 2.458248 26.720091 20 22 16
4.853309 2.453321 26.666531 32 21 32
4.900759 2.450379 26.634558 20 26 44
4.949243 2.448013 26.608835 21 36 33
4.994822 2.444274 26.568201 24 18 38
5.042670 2.441714 26.540367 32 36 18
5.088605 2.438290 26.503151 44 29 41
5.137038 2.436121 26.479576 17 40 32
5.185314 2.433923 26.455685 41 20 38
5.231106 2.430615 26.419729 38 40 42
5.278744 2.428222 26.393719 28 18 25
5.321319 2.423571 26.343163 33 35 39
5.364779 2.419410 26.297937 31 18 42
5.406800 2.414687 26.246601 42 41 33
5.445844 2.408739 26.181944 23 39 26
5.488984 2.404698 26.138018 120 120 120
5.527029 2.398522 26.070892 120 120 120
5.567781 2.393625 26.017668 120 120 120
5.608806 2.388936 25.966694 28 16 35
5.646695 2.383009 25.902269 44 20 16
5.689521 2.379254 25.861460 30 35 40
5.731826 2.375351 25.819036 30 35 40
5.778879 2.373468 25.798565 30 35 40
5.828163 2.372527 25.788334 30 35 40
5.875584 2.370850 25.770103 30 35 40
5.924803 2.369921 25.760014 30 35 40
5.972966 2.368590 25.745544 30 35 40
6.022399 2.367781 25.736748 30 35 40
6.071277 2.366769 25.725750 30 35 40
6.117916 2.364909 25.705528 30 35 40
6.165170 2.363315 25.688208 30 35 40
6.209757 2.360734 25.660152 30 35 40
6.255317 2.358562 25.636543 30 35 40
6.300878 2.356426 25.613325 36 34 40
6.345282 2.353895 25.585815 29 30 44
6.392311 2.352370 25.569242 36 37 43
6.438987 2.350741 25.551537 33 39 27
6.487878 2.349940 25.542828 34 24 25
6.537676 2.349477 25.537796 25 18 17
6.586382 2.348632 25.528612 40 20 21
6.635941 2.348102 25.522848 35 42 18
6.684493 2.347227 25.513332 18 30 32
6.734054 2.346716 25.507782 30 40 43
6.782554 2.345846 25.498322 30 41 44
6.828678 2.344173 25.480143 24 43 38
6.875167 2.342649 25.463581 35 30 19
6.917416 2.339714 25.431675 41 29 39
6.959777 2.336859 25.400644 35 41 43
7.002019 2.334006 25.369635 35 22 23
7.043916 2.331080 25.337826 39 25 16
7.089977 2.329564 25.321348 24 41 22
7.135102 2.327764 25.301781 21 44 39
7.182598 2.326757 25.290836 16 37 42
7.230657 2.325946 25.282019 39 42 18
7.276497 2.324436 25.265614 23 15 37
7.323382 2.323280 25.253042 22 36 27
7.369801 2.321992 25.239046 17 28 35
7.418670 2.321489 25.233572 41 34 18
7.467235 2.320897 25.227144 28 38 31
7.513175 2.319504 25.211996 22 29 17
7.559457 2.318234 25.198191 39 39 15
7.601715 2.315754 25.171242 36 25 36
7.644166 2.313366 25.145283 33 42 36
7.686269 2.310904 25.118525 31 27 29
7.727836 2.308315 25.090376 36 32 27
7.773283 2.306910 25.075106 39 20 18
7.816237 2.304788 25.052040 28 32 40
7.861230 2.303290 25.035763 37 38 35
7.905617 2.301635 25.017775 28 29 18
7.946734 2.299055 24.989729 40 19 18
7.989812 2.297071 24.968163 29 44 31
8.029132 2.294038 24.935192 20 30 35
8.071665 2.291954 24.912546 30 40 24
8.112567 2.289436 24.885176 35 30 31
8.148163 2.285460 24.841959 43 39 43
8.186505 2.282299 24.807592 38 29 29
8.217997 2.277276 24.753002 44 22 29
8.252652 2.273186 24.708540 22 19 17
8.287242 2.269126 24.664410 32 35 17
8.318530 2.264215 24.611034 44 19 32
8.356577 2.261191 24.578167 27 29 22
8.391126 2.257262 24.535456 41 27 22
8.432155 2.255111 24.512079 20 43 42
8.471776 2.252611 24.484901 32 21 34
8.502323 2.247741 24.431963 16 17 20
8.535167 2.243530 24.386190 16 16 17
8.560633 2.237438 24.319981 23 23 21
4.749106 2.507955 26.680370 42 33 34
4.794761 2.503931 26.637562 21 32 15
4.838610 2.499062 26.585770 21 36 35
4.886140 2.496180 26.555111 24 30 16
4.934635 2.493848 26.530298 16 28 15
4.980179 2.490089 26.490313 23 29 15
5.027864 2.487470 26.462444 27 28 24
5.073648 2.483974 26.425251 16 25 27
5.121957 2.481773 26.401838 15 27 29
5.170085 2.479531 26.377987 26 30 22
5.215706 2.476143 26.341949 38 17 30
5.263157 2.473684 26.315786 33 22 29
5.305464 2.468879 26.264675 24 42 32
5.348574 2.464539 26.218502 27 40 37
5.390309 2.459655 26.166548 20 33 29
5.429255 2.453606 26.102186 19 44 39
5.472437 2.449567 26.059223 120 120 120
5.510527 2.443347 25.993052 120 120 120
5.551140 2.438351 25.939905 120 120 120
5.592126 2.433610 25.889471 35 31 31
5.630392 2.427784 25.827488 16 16 30
5.673689 2.424213 25.789497 30 35 40
5.716051 2.420310 25.747978 30 35 40
5.762555 2.418215 25.725691 30 35 40
5.811066 2.416992 25.712681 30 35 40
5.857929 2.415111 25.692671 30 35 40
5.906855 2.414106 25.681976 30 35 40
5.954712 2.412685 25.666862 30 35 40
6.003861 2.411807 25.657526 30 35 40
6.052585 2.410775 25.646547 30 35 40
6.099165 2.408914 25.626743 30 35 40
6.146428 2.407351 25.610117 30 35 40
6.191270 2.404873 25.583759 30 35 40
6.237136 2.402831 25.562031 30 35 40
6.283043 2.400838 25.540825 27 20 24
6.327788 2.398436 25.515274 37 31 40
6.374919 2.396970 25.499676 18 26 23
6.421871 2.395460 25.483616 42 40 35
6.470993 2.394777 25.476351 44 22 34
6.521010 2.394433 25.472694 29 37 19
6.570026 2.393730 25.465218 28 32 21
6.619733 2.393288 25.460512 33 25 30
6.668413 2.392484 25.451958 19 38 31
6.717901 2.391980 25.446594 15 39 27
6.766290 2.391095 25.437180 28 37 29
6.812453 2.389443 25.419601 23 24 39
6.858989 2.387944 25.403664 18 20 15
6.901341 2.385022 25.372578 38 21 23
6.943779 2.382172 25.342258 16 26 21
6.986013 2.379294 25.311640 35 41 36
7.027900 2.376340 25.280214 34 39 19
7.073879 2.374802 25.263855 16 35 37
7.118410 2.372803 25.242588 23 33 32
7.164962 2.371501 25.228739 38 21 20
7.211983 2.370372 25.216722 29 15 26
7.257024 2.368612 25.198000 33 29 35
7.303587 2.367370 25.184782 18 36 23
7.349427 2.365912 25.169271 22 28 42
7.397705 2.365253 25.162262 16 37 22
7.445658 2.364500 25.154251 30 16 26
7.490884 2.362896 25.137194 16 20 18
7.536653 2.361485 25.122177 25 33 31
7.578455 2.358857 25.094221 17 39 18
7.620657 2.356387 25.067949 29 22 42
7.662671 2.353892 25.041409 21 22 41
7.704165 2.351271 25.013521 26 29 21
7.749575 2.349871 24.998631 43 44 21
7.792763 2.347820 24.976805 33 31 37
7.838045 2.346421 24.961926 18 36 26
7.882797 2.344883 24.945559 25 36 40
7.924302 2.342404 24.919188 38 35 22
7.967548 2.340467 24.898586 30 17 37
8.007204 2.337507 24.867094 41 31 33
8.050034 2.335504 24.845783 28 40 21
8.091145 2.333029 24.819462 18 29 30
8.126875 2.329043 24.777058 19 20 25
8.165133 2.325826 24.742828 28 26 25
8.196456 2.320683 24.688122 43 21 22
8.230810 2.316455 24.643143 17 35 31
8.265153 2.312275 24.598669 17 21 17
8.296549 2.307324 24.546003 30 38 40
8.334868 2.304346 24.514317 38 27 39
8.369192 2.300304 24.471321 32 40 26
8.409296 2.297889 24.445627 21 42 28
8.448052 2.295136 24.416336 41 41 33
8.478513 2.290173 24.363544 39 28 15
8.511840 2.286037 24.319542 17 23 35
4.734729 2.553562 26.599602 36 21 16
4.780312 2.549500 26.557289 26 40 34
4.824251 2.544660 26.506872 21 31 15
4.871953 2.541888 26.478004 23 32 23
4.920587 2.539658 26.454771 31 27 35
4.966159 2.535911 26.415737 20 18 37
5.013683 2.533229 26.387806 26 36 16
5.059327 2.529664 26.350662 36 31 31
5.107524 2.527434 26.327442 34 19 43
5.155513 2.525149 26.303638 17 16 19
5.200967 2.521681 26.267511 26 40 20
5.248224 2.519147 26.241119 22 35 33
5.290269 2.514187 26.189449 19 33 37
5.333059 2.509675 26.142445 42 43 20
5.374535 2.504637 26.089973 38 44 36
5.413405 2.498495 26.025986 29 38 33
5.456630 2.494460 25.983953 120 120 120
5.494756 2.488191 25.918659 120 120 120
5.535245 2.483100 25.865629 120 120 120
5.576155 2.478291 25.815531 26 24 40
5.614664 2.472513 25.755341 15 31 35
5.658267 2.469062 25.719395 30 35 40
5.700487 2.465075 25.677868 30 35 40
5.746284 2.462693 25.653053 30 35 40
5.793932 2.461139 25.636868 30 35 40
5.840242 2.459049 25.615097 30 35 40
5.888972 2.458006 25.604225 30 35 40
5.936557 2.456507 25.588610 30 35 40
5.985380 2.455540 25.578547 30 35 40
6.033865 2.454453 25.567223 30 35 40
6.080314 2.452564 25.547539 30 35 40
6.127554 2.451022 25.531477 30 35 40
6.172614 2.448640 25.506668 30 35 40
6.218744 2.446719 25.486654 25 20 35
6.264970 2.444867 25.467360 41 23 22
6.310018 2.442588 25.443623 28 39 32
6.357234 2.441178 25.428934 42 42 19
6.404414 2.439777 25.414343 16 30 33
6.453703 2.439195 25.408279 29 40 17
6.503883 2.438956 25.405792 17 30 28
6.553152 2.438382 25.399815 35 33 23
6.602980 2.438023 25.396078 24 30 16
6.651778 2.437293 25.388464 20 17 43
6.701199 2.436800 25.383331 31 17 39
6.749517 2.435916 25.374125 21 39 24
6.795790 2.434313 25.357426 29 31 34
6.842438 2.432867 25.342361 32 19 33
6.885006 2.430002 25.312523 34 36 43
6.927613 2.427193 25.283260 32 41 41
6.969958 2.424333 25.253469 42 29 22
7.011987 2.421406 25.222975 44 23 41
7.057980 2.419879 25.207071 34 37 25
7.102004 2.417703 25.184410 44 16 41
7.147632 2.416101 25.167717 25 25 19
7.193614 2.414640 25.152496 42 32 18
7.237893 2.412631 25.131575 38 24 28
7.284169 2.411311 25.117823 15 44 24
7.329458 2.409685 25.100883 15 25 17
7.377149 2.408865 25.092342 39 37 16
7.424473 2.407937 25.082678 16 24 24
7.468950 2.406105 25.063589 22 23 38
7.514180 2.404538 25.047266 40 30 44
7.555468 2.401738 25.018105 17 37 24
7.597344 2.399161 24.991262 38 34 19
7.639218 2.396617 24.964764 31 19 32
7.680607 2.393955 24.937035 25 21 32
7.725995 2.392566 24.922564 24 24 29
7.769424 2.390592 24.902000 19 42 37
7.814999 2.389299 24.888531 31 22 15
7.860128 2.387887 24.873821 44 22 21
7.902058 2.385527 24.849239 24 41 35
7.945518 2.383655 24.829742 30 19 34
7.985568 2.380791 24.799902 32 31 16
8.028708 2.378876 24.779963 43 20 23
8.070057 2.376458 24.754776 30 28 30
8.106010 2.372491 24.713444 25 42 42
8.144269 2.369242 24.679604 28 21 15
8.175527 2.364008 24.625082 43 28 26
8.209638 2.359657 24.579756 44 40 37
8.243778 2.355365 24.535053 39 19 41
8.275400 2.350409 24.483431 22 27 22
8.314111 2.347514 24.453268 21 42 24
8.348084 2.343322 24.409601 15 23 33
8.386892 2.340528 24.380501 23 42 32
8.424432 2.337415 24.348068 24 18 27
8.454754 2.332346 24.295269 38 25 28
8.488742 2.328341 24.253548 25 23 25
4.716831 2.596907 26.499050 43 31 22
4.762479 2.592905 26.458216 27 44 44
4.806622 2.588181 26.410011 34 16 24
4.854470 2.585533 26.382988 41 37 39
4.903191 2.583402 26.361244 15 30 25
4.948834 2.579712 26.323587 43 15 15
4.996260 2.577018 26.296104 39 23 21
5.041805 2.573421 26.259401 38 23 31
5.089876 2.571175 26.236475 42 44 16
5.137685 2.568843 26.212679 33 24 40
5.182940 2.565293 26.176462 24 40 44
5.229971 2.562686 26.149855 33 31 32
5.271685 2.557550 26.097448 31 39 19
5.314072 2.552839 26.049374 20 16 30
5.355178 2.547609 25.996010 24 16 33
5.393818 2.541318 25.931818 21 16 34
5.436950 2.537243 25.890240 120 120 120
5.474964 2.530879 25.825300 120 120 120
5.515221 2.525662 25.772062 120 120 120
5.555954 2.520757 25.722010 15 19 39
5.594549 2.514981 25.663071 31 33 34
5.638322 2.511616 25.628736 43 23 19
5.680225 2.507487 25.586601 30 35 40
5.725216 2.504782 25.558998 30 35 40
5.771864 2.502844 25.539223 30 35 40
5.817356 2.500443 25.514721 30 35 40
5.865623 2.499265 25.502707 30 35 40
5.912654 2.497587 25.485577 30 35 40
5.960946 2.496464 25.474127 30 35 40
6.009035 2.495277 25.462011 30 35 40
6.055182 2.493310 25.441942 30 35 40
6.102276 2.491763 25.426149 30 35 40
6.147433 2.489456 25.402617 44 38 16
6.193750 2.487654 25.384220 18 15 35
6.240231 2.485946 25.366795 38 27 28
6.285490 2.483782 25.344719 19 23 21
6.332704 2.482420 25.330814 32 20 43
6.380021 2.481119 25.317545 18 40 31
6.429389 2.480630 25.312555 35 32 34
6.479652 2.480492 25.311142 41 33 29
6.529116 2.480052 25.306652 31 25 39
6.579021 2.479785 25.303928 39 39 41
6.627906 2.479140 25.297352 25 30 39
6.677233 2.478670 25.292551 44 31 28
6.725464 2.477803 25.283701 39 26 36
6.771869 2.476281 25.268169 21 29 44
6.818653 2.474919 25.254271 33 42 33
6.861517 2.472164 25.226166 22 33 37
6.904360 2.469443 25.198393 20 16 18
6.946867 2.466641 25.169807 18 15 18
6.989111 2.463787 25.140686 41 33 29
7.035149 2.462302 25.125532 36 44 42
7.078631 2.459950 25.101528 24 23 32
7.123235 2.458018 25.081812 37 17 26
7.168025 2.456176 25.063025 15 15 21
7.211412 2.453883 25.039625 19 37 23
7.257308 2.452470 25.025200 30 44 30
7.301936 2.450650 25.006630 16 37 42
7.348936 2.449645 24.996380 30 42 30
7.395544 2.448525 24.984947 40 30 44
7.439172 2.446439 24.963663 34 44 25
7.483776 2.444700 24.945919 26 33 19
7.524450 2.441709 24.915396 27 42 36
7.565904 2.439009 24.887842 18 35 30
7.607572 2.436412 24.861345 17 27 24
7.648824 2.433717 24.833845 15 37 24
7.694188 2.432356 24.819962 26 26 21
7.737912 2.430498 24.800999 22 37 34
7.783813 2.429343 24.789213 39 34 23
7.829407 2.428107 24.776604 40 18 31
7.871919 2.425937 24.754461 15 44 30
7.915710 2.424186 24.736593 22 31 26
7.956386 2.421509 24.709272 38 19 31
8.000036 2.419764 24.691469 34 21 43
8.041826 2.417481 24.668179 29 33 43
8.078298 2.413638 24.628958 36 40 34
8.116743 2.410427 24.596191 16 17 38
8.148175 2.405184 24.542696 15 33 35
8.182169 2.400756 24.497513 44 40 40
8.216223 2.396398 24.453045 39 38 42
8.248420 2.391554 24.403608 39 30 26
8.287844 2.388849 24.376011 20 18 44
8.321266 2.384456 24.331188 29 40 22
8.357992 2.381056 24.296488 24 16 42
8.393453 2.377336 24.258533 26 23 44
8.423183 2.372046 24.204550 40 32 35
8.457848 2.368198 24.165281 15 37 25
4.751411 2.639673 26.396730 37 17 29
4.795709 2.635005 26.350048 16 24 16
4.843655 2.632421 26.324211 35 34 39
4.892447 2.630348 26.303480 17 39 40
4.938189 2.626696 26.266962 21 18 40
4.985612 2.624006 26.240063 30 21 37
5.031149 2.620390 26.203901 27 33 30
5.079159 2.618123 26.181231 42 30 32
5.126853 2.615741 26.157413 44 34 36
5.171994 2.612118 26.121180 35 18 44
5.218891 2.609446 26.094456 37 30 41
5.260391 2.604154 26.041542 20 33 44
5.302533 2.599281 25.992811 44 32 26
5.343386 2.593876 25.938765 44 41 32
5.381815 2.587411 25.874111 28 43 44
5.424806 2.583241 25.832411 120 120 120
5.462648 2.576721 25.767208 120 120 120
5.502726 2.571367 25.713675 120 120 120
5.543283 2.566335 25.663349 17 25 37
5.581749 2.560435 25.604353 20 15 16
5.625449 2.557022 25.570223 41 39 36
5.666989 2.552698 25.526978 41 18 34
5.711429 2.549745 25.497450 26 20 31
5.757440 2.547540 25.475399 34 36 40
5.802339 2.544886 25.448856 30 35 40
5.850239 2.543582 25.435820 34 27 15
5.896800 2.541724 25.417240 15 16 43
5.944671 2.540458 25.404575 30 35 40
5.992424 2.539163 25.391628 43 40 32
6.038263 2.537085 25.370852 40 26 22
6.085202 2.535501 25.355007 35 16 26
6.130306 2.533184 25.331844 28 25 38
6.176655 2.531416 25.314161 26 22 44
6.223210 2.529760 25.297602 31 44 17
6.268506 2.527623 25.276234 21 31 22
6.315657 2.526263 25.262627 40 22 35
6.362961 2.524985 25.249846 40 33 30
6.412292 2.524524 25.245243 43 21 26
6.462529 2.524425 25.244253 43 35 15
6.512022 2.524039 25.240395 26 17 19
6.561930 2.523819 25.238192 32 19 32
6.610845 2.523223 25.232233 34 42 24
6.660111 2.522769 25.227694 32 20 15
6.708308 2.521920 25.219202 19 15 17
6.754831 2.520459 25.204592 31 30 28
6.801726 2.519158 25.191578 39 38 21
6.844843 2.516487 25.164865 41 19 40
6.887885 2.513827 25.138266 20 18 43
6.930562 2.511073 25.110731 17 16 26
6.973034 2.508286 25.082855 31 40 19
7.019156 2.506841 25.068413 17 44 21
7.062383 2.504391 25.043911 20 36 41
7.106394 2.502251 25.022514 38 21 32
7.150476 2.500166 25.001663 27 37 31
7.193342 2.497688 24.976883 24 36 37
7.238997 2.496206 24.962057 19 20 32
7.283230 2.494257 24.942570 42 16 22
7.329820 2.493136 24.931362 41 23 43
7.375989 2.491888 24.918880 42 39 43
7.419100 2.489631 24.896309 36 21 27
7.463317 2.487772 24.877722 17 16 15
7.503588 2.484632 24.846317 34 20 41
7.544733 2.481820 24.818199 30 40 18
7.586226 2.479159 24.791590 23 23 32
7.627381 2.476422 24.764223 34 24 21
7.672720 2.475071 24.750710 30 22 33
7.716638 2.473281 24.732813 18 36 18
7.762744 2.472211 24.722115 27 35 16
7.808630 2.471086 24.710855 32 41 43
7.851569 2.469047 24.690468 21 24 27
7.895629 2.467384 24.673841 15 44 15
7.936809 2.464847 24.648474 39 28 17
7.980864 2.463230 24.632298 35 33 38
8.023044 2.461056 24.610563 30 22 41
8.060002 2.457318 24.573177 24 27 26
8.098700 2.454152 24.541515 35 18 28
8.130429 2.448924 24.489243 24 29 44
8.164476 2.444454 24.444540 24 33 33
8.198602 2.440060 24.400602 32 35 34
8.231398 2.435325 24.353249 32 27 24
8.271481 2.432789 24.327887 19 30 15
8.304445 2.428200 24.282001 23 42 31
8.339414 2.424248 24.242483 43 28 21
8.373050 2.419957 24.199566 22 32 20
8.402138 2.414408 24.144075 40 38 25
4.779546 2.678646 26.261240 23 39 31
4.827442 2.676082 26.236099 30 36 16
4.876113 2.673998 26.215664 41 42 40
4.921753 2.670313 26.179537 17 31 42
4.969021 2.667580 26.152740 29 40 39
5.014312 2.663853 26.116207 16 28 38
5.062021 2.661475 26.092894 29 19 32
5.109368 2.658957 26.068205 37 29 17
5.154145 2.655166 26.031034 39 15 32
5.200746 2.652380 26.003729 25 23 40
5.241932 2.646916 25.950159 37 28 31
5.283785 2.641892 25.900906 38 35 32
5.324405 2.636356 25.846626 43 33 29
5.362665 2.629769 25.782045 36 38 39
5.405545 2.625550 25.740688 120 120 120
5.443320 2.618956 25.676039 120 120 120
5.483319 2.613545 25.622988 120 120 120
5.523779 2.608451 25.573051 24 20 27
5.562169 2.602483 25.514538 24 27 34
5.605757 2.599033 25.480715 39 35 25
5.646894 2.594519 25.436460 20 30 39
5.690758 2.591327 25.405169 27 16 42
5.736057 2.588840 25.380785 44 39 18
5.780233 2.585894 25.351898 16 18 38
5.827609 2.584418 25.337429 41 27 42
5.873508 2.582318 25.316843 25 40 41
5.920791 2.580858 25.302526 19 15 27
5.968040 2.579407 25.288307 43 30 32
6.013377 2.577161 25.266289 21 26 28
6.059995 2.575498 25.249981 41 38 44
6.104884 2.573133 25.226795 18 31 25
6.151144 2.571380 25.209606 31 28 39
6.197647 2.569756 25.193686 19 32 16
6.242784 2.567597 25.172516 43 37 37
6.289685 2.566192 25.158741 43 42 25
6.336727 2.564866 25.145741 25 36 25
6.385794 2.564374 25.140921 30 18 26
6.435781 2.564257 25.139771 38 24 36
6.485053 2.563858 25.135866 17 39 32
6.534778 2.563644 25.133760 16 34 38
6.583491 2.563038 25.127827 34 16 31
6.632478 2.562548 25.123024 44 33 38
6.680490 2.561692 25.114626 38 32 19
6.727022 2.560284 25.100828 17 32 17
6.773999 2.559066 25.088886 24 36 44
6.817390 2.556521 25.063932 34 27 25
6.860685 2.553978 25.038996 33 25 43
6.903579 2.551323 25.012968 44 24 31
6.946259 2.548627 24.986544 38 24 15
6.992374 2.547222 24.972763 36 41 25
7.035363 2.544706 24.948095 44 28 35
7.078905 2.542424 24.925722 40 42 35
7.122398 2.540156 24.903488 32 35 20
7.164753 2.537517 24.877613 33 20 19
7.210065 2.535954 24.862293 30 40 34
7.253801 2.533862 24.841785 23 22 20
7.299896 2.532617 24.829578 36 43 43
7.345563 2.531241 24.816092 39 33 35
7.388117 2.528818 24.792337 36 22 19
7.431902 2.526847 24.773006 21 41 36
7.471766 2.523577 24.740948 24 43 33
7.512606 2.520677 24.712519 20 22 17
7.553927 2.517976 24.686035 44 31 24
7.594988 2.515223 24.659052 43 21 31
7.640288 2.513901 24.646091 25 38 22
7.684348 2.512191 24.629322 39 28 18
7.730562 2.511202 24.619623 35 33 33
7.776650 2.510185 24.609653 26 23 44
7.819932 2.508280 24.590981 39 27 34
7.864194 2.506712 24.575607 34 43 21
7.905841 2.504335 24.552301 30 36 32
7.950229 2.502850 24.537743 16 27 18
7.992777 2.500808 24.517721 28 29 21
8.030361 2.497246 24.482807 24 40 15
8.069477 2.494202 24.452961 41 42 32
8.101562 2.489034 24.402294 16 17 43
8.135717 2.484560 24.358433 18 26 17
8.169609 2.480060 24.314312 44 26 27
8.201969 2.475150 24.266180 44 15 44
8.241453 2.472436 24.239569 24 26 43
8.273385 2.467501 24.191185 21 29 31
8.307098 2.463151 24.148540 16 40 37
8.339809 2.458556 24.103495 33 44 23
4.767544 2.724311 26.195297 36 28 22
4.815279 2.721679 26.169992 37 30 22
4.863723 2.719501 26.149046 38 29 41
4.909118 2.715682 26.112329 16 27 27
4.956157 2.712844 26.085035 39 25 42
5.001107 2.708933 26.047432 34 30 23
5.048455 2.706388 26.022963 22 28 17
5.095424 2.703694 25.997059 25 21 31
5.139811 2.699698 25.958639 19 25 18
5.186124 2.696784 25.930618 33 29 22
5.227052 2.691156 25.876497 15 32 21
5.268719 2.686014 25.827053 27 17 22
5.309253 2.680399 25.773071 37 34 37
5.347500 2.673750 25.709135 31 23 41
5.390400 2.669531 25.668570 120 120 120
5.428292 2.662936 25.605152 120 120 120
5.468377 2.657529 25.553164 120 120 120
5.508892 2.652429 25.504129 15 41 26
5.547353 2.646443 25.446571 43 40 29
5.590910 2.642975 25.413225 20 18 15
5.631852 2.638345 25.368702 38 39 29
5.675411 2.635012 25.336658 21 34 37
5.720285 2.632343 25.310995 44 40 43
5.763966 2.629177 25.280552 15 18 34
5.810925 2.627549 25.264893 30 32 18
5.856270 2.625225 25.242544 20 30 16
5.903083 2.623593 25.226852 21 17 34
5.949896 2.621988 25.211424 43 44 20
5.994775 2.619565 25.188129 23 20 42
6.041093 2.617807 25.171219 26 32 29
6.085718 2.615350 25.147596 27 41 30
6.131840 2.613571 25.130493 35 32 37
6.178225 2.611933 25.114737 32 40 39
6.223127 2.609698 25.093254 23 15 15
6.269762 2.608221 25.079046 20 42 43
6.316485 2.606803 25.065418 31 24 27
6.365267 2.606251 25.060108 34 28 16
6.414967 2.606080 25.058466 32 27 16
6.463944 2.605621 25.054045 24 38 35
6.513423 2.605369 25.051628 33 30 39
6.561858 2.604707 25.045259 33 20 19
6.610529 2.604148 25.039881 40 39 40
6.658307 2.603248 25.031229 16 24 21
6.704751 2.601844 25.017729 21 29 40
6.751731 2.600667 25.006411 17 21 25
6.795279 2.598195 24.982645 37 17 24
6.838745 2.595728 24.958923 18 31 30
6.881768 2.593130 24.933941 17 34 22
6.924461 2.590446 24.908133 26 27 15
6.970406 2.589008 24.894308 23 36 30
7.013204 2.586430 24.869518 39 19 31
7.056586 2.584102 24.847136 40 31 32
7.099859 2.581767 24.824682 31 38 18
7.141944 2.579035 24.798416 42 16 38
7.186972 2.577397 24.782663 21 20 44
7.230359 2.575197 24.761505 23 43 34
7.276146 2.573875 24.748795 41 39 31
7.321520 2.572426 24.734865 28 19 17
7.363775 2.569908 24.710653 23 32 43
7.407328 2.567874 24.691093 18 38 17
7.447034 2.564541 24.659052 26 22 31
7.487760 2.561602 24.630789 20 36 39
7.529034 2.558887 24.604685 24 42 15
7.570082 2.556132 24.578188 36 40 20
7.615352 2.554828 24.565653 36 35 25
7.659468 2.553156 24.549578 41 39 40
7.705682 2.552200 24.540388 34 18 21
7.751798 2.551225 24.531006 35 38 40
7.795151 2.549358 24.513054 36 17 24
7.839408 2.547808 24.498150 26 15 27
7.881171 2.545471 24.475687 18 30 18
7.925579 2.544013 24.461662 19 23 19
7.968273 2.542026 24.442556 31 38 18
8.006329 2.538592 24.409540 20 37 16
8.045901 2.535678 24.381519 22 35 31
8.078406 2.530585 24.332548 19 22 27
8.112888 2.526169 24.290083 25 42 18
8.146509 2.521539 24.245564 21 20 33
8.177494 2.516152 24.193769 38 32 18
8.215152 2.512870 24.162210 30 16 36
8.245907 2.507527 24.110840 18 42 28
8.279691 2.503162 24.068869 33 32 40
8.313099 2.498735 24.026299 38 32 32
4.803121 2.767016 26.103920 21 35 18
4.851213 2.764670 26.081793 41 25 40
4.896266 2.760661 26.043970 37 23 24
4.943037 2.757694 26.015982 29 20 37
4.987551 2.753544 25.976828 41 25 16
5.034439 2.750776 25.950718 25 19 27
5.080943 2.747857 25.923178 35 24 44
5.124857 2.743610 25.883118 16 23 25
5.170850 2.740550 25.854248 40 16 26
5.211547 2.734772 25.799740 35 38 24
5.253098 2.729551 25.750483 37 28 37
5.293636 2.723910 25.697262 31 27 44
5.331906 2.717221 25.634165 32 22 30
5.374806 2.712997 25.594313 120 120 120
5.412819 2.706410 25.532167 120 120 120
5.453040 2.701038 25.481495 120 120 120
5.493648 2.695957 25.433558 16 43 17
5.532134 2.689937 25.376760 44 30 40
5.575554 2.686403 25.343428 16 23 21
5.616338 2.681675 25.298820 30 29 27
5.659747 2.678273 25.266727 25 26 43
5.704395 2.675513 25.240686 30 32 38
5.747749 2.672199 25.209427 28 39 15
5.794375 2.670451 25.192934 42 17 16
5.839289 2.667951 25.169350 40 35 21
5.885734 2.666187 25.152708 41 22 36
5.932194 2.664460 25.136414 22 44 29
5.976664 2.661875 25.112032 30 21 36
6.022669 2.660012 25.094456 25 25 27
6.066962 2.657429 25.070089 18 25 17
6.112860 2.655587 25.052704 32 28 15
6.159010 2.653882 25.036627 34 15 33
6.203534 2.651510 25.014250 23 16 44
6.249790 2.649911 24.999159 33 26 39
6.296009 2.648321 24.984163 20 17 42
6.344347 2.647641 24.977743 32 40 30
6.393597 2.647349 24.974989 21 31 43
6.442076 2.646744 24.969286 22 29 24
6.491188 2.646407 24.966106 15 19 32
6.539186 2.645625 24.958725 19 31 39
6.587446 2.644959 24.952448 34 41 38
6.634931 2.643995 24.943350 20 17 33
6.681193 2.642561 24.929825 23 26 27
6.728128 2.641413 24.918991 27 40 15
6.771778 2.639002 24.896244 44 38 16
6.815379 2.636606 24.873646 36 44 39
6.858528 2.634072 24.849739 18 21 35
6.901271 2.631420 24.824715 18 27 23
6.947096 2.629972 24.811058 24 17 25
6.989949 2.627428 24.787054 20 44 23
7.033501 2.625180 24.765848 32 22 29
7.076903 2.622908 24.744415 32 41 38
7.118959 2.620173 24.718609 39 21 21
7.163758 2.618477 24.702614 36 21 42
7.206912 2.616208 24.681206 30 33 21
7.252479 2.614839 24.668297 21 35 39
7.297657 2.613350 24.654245 35 19 15
7.339736 2.610778 24.629986 42 42 31
7.383140 2.608710 24.610468 15 23 43
7.422758 2.605339 24.578669 26 27 35
7.463408 2.602373 24.550684 21 30 25
7.504632 2.599644 24.524940 43 27 28
7.545658 2.596882 24.498890 36 35 31
7.590868 2.595587 24.486670 21 20 30
7.634914 2.593913 24.470877 42 22 20
7.680978 2.592942 24.461714 39 32 15
7.726952 2.591952 24.452381 15 24 33
7.770242 2.590081 24.434723 17 16 16
7.814450 2.588537 24.420156 44 34 22
7.856266 2.586224 24.398342 35 15 38
7.900659 2.584784 24.384750 39 44 42
7.943418 2.582829 24.366312 27 39 19
7.981778 2.579477 24.334690 20 33 30
8.021629 2.576645 24.307968 32 26 24
8.054209 2.571524 24.259665 32 22 34
8.088661 2.567060 24.217546 20 25 42
8.121665 2.562192 24.171623 36 34 30
8.150967 2.556220 24.115286 23 32 33
8.186654 2.552310 24.078394 23 28 41
8.216367 2.546593 24.024466 38 38 15
8.250647 2.542350 23.984438 18 29 35
4.834501 2.807130 25.991941 16 18 38
4.879222 2.802957 25.953310 17 25 38
4.925738 2.799893 25.924934 25 44 43
4.969800 2.795512 25.884373 36 25 23
5.016168 2.792506 25.856537 17 19 17
5.062132 2.789338 25.827206 34 27 21
5.105510 2.784823 25.785402 35 15 19
5.151131 2.781611 25.755657 34 16 32
5.191577 2.775695 25.700876 17 26 44
5.233038 2.770432 25.652147 27 25 25
5.273579 2.764789 25.599899 32 23 24
5.311797 2.758048 25.537485 33 26 39
5.354575 2.753781 25.497976 120 120 120
5.392573 2.747160 25.436665 120 120 120
5.432834 2.741804 25.387075 120 120 120
5.473438 2.736719 25.339993 27 32 34
5.511797 2.730615 25.283474 43 36 33
5.554961 2.726981 25.249823 30 34 29
5.595469 2.722120 25.204817 21 35 23
5.638663 2.718641 25.172604 33 38 29
5.683066 2.715802 25.146311 35 28 39
5.726117 2.712371 25.114550 32 31 26
5.772438 2.710536 25.097557 19 43 40
5.817013 2.707920 25.073330 17 19 32
5.863168 2.706077 25.056273 31 41 28
5.909334 2.704271 25.039549 15 37 17
5.953462 2.701571 25.014547 29 28 39
5.999160 2.699622 24.996500 27 36 32
6.043113 2.696927 24.971542 28 29 26
6.088772 2.695030 24.953985 35 31 34
6.134619 2.693247 24.937475 43 30 43
6.178649 2.690702 24.913906 24 25 41
6.224411 2.688946 24.897644 22 26 29
6.269938 2.687116 24.880705 34 33 30
6.317649 2.686244 24.872633 29 38 15
6.366284 2.685776 24.868296 22 26 16
6.414089 2.684968 24.860811 44 19 39
6.462715 2.684513 24.856598 21 15 19
6.510158 2.683577 24.847931 32 19 17
6.557912 2.682782 24.840576 24 28 28
6.605041 2.681746 24.830982 33 32 26
6.651094 2.680292 24.817514 39 36 27
6.697988 2.679195 24.807364 27 39 40
6.741790 2.676887 24.785992 37 35 30
6.785522 2.674585 24.764677 42 36 19
6.828868 2.672166 24.742275 40 39 44
6.871894 2.669657 24.719042 38 35 27
6.917839 2.668309 24.706568 44 36 25
6.960986 2.665909 24.684347 26 29 27
7.004799 2.663797 24.664785 23 39 44
7.048350 2.661615 24.644581 25 22 26
7.090424 2.658909 24.619528 20 22 22
7.134999 2.657172 24.603445 40 40 43
7.177887 2.654835 24.581804 17 34 29
7.223198 2.653420 24.568701 34 41 21
7.268092 2.651871 24.554365 32 25 19
7.309904 2.649227 24.529879 16 15 39
7.353073 2.647106 24.510242 22 32 31
7.392479 2.643668 24.478407 41 21 25
7.432930 2.640646 24.450428 29 26 36
7.474001 2.637883 24.424841 31 31 20
7.514942 2.635110 24.399162 39 23 29
7.560080 2.633834 24.387354 25 24 29
7.604042 2.632169 24.371931 32 31 36
7.649893 2.631173 24.362717 18 37 29
7.695716 2.630181 24.353531 41 23 23
7.739070 2.628363 24.336697 26 42 27
7.783386 2.626893 24.323080 15 39 31
7.825533 2.624713 24.302898 22 16 18
7.870270 2.623423 24.290956 34 31 19
7.913300 2.621584 24.273928 21 19 38
7.951872 2.618299 24.243511 27 24 33
7.991681 2.615459 24.217216 41 17 34
8.023753 2.610137 24.167931 40 25 39
8.057396 2.605386 24.123941 42 21 44
8.089367 2.600154 24.075497 25 29 29
8.117522 2.593764 24.016336 37 35 37
8.152355 2.589572 23.977514 24 43 42
8.181461 2.583619 23.922400 25 15 28
4.867739 2.848145 25.892227 19 32 24
4.914117 2.845015 25.863773 24 33 44
4.957915 2.840472 25.822474 43 26 16
5.003944 2.837288 25.793526 19 34 34
5.049548 2.833930 25.763002 15 27 19
5.092581 2.829212 25.720108 41 20 38
5.137970 2.825883 25.689850 32 15 16
5.178284 2.819858 25.635069 35 37 27
5.219749 2.814570 25.587004 16 42 21
5.260333 2.808916 25.535597 20 41 42
5.298492 2.802087 25.473518 33 31 19
5.341119 2.797729 25.433901 120 120 120
5.379022 2.791002 25.372747 120 120 120
5.419262 2.785602 25.323656 120 120 120
5.459810 2.780459 25.276897 37 30 43
5.497994 2.774217 25.220156 19 16 29
5.540903 2.770451 25.185923 21 29 24
5.581215 2.765467 25.140610 41 31 22
5.624312 2.761939 25.108538 43 19 32
5.668665 2.759085 25.082590 30 20 15
5.711645 2.755618 25.051075 33 28 22
5.757874 2.753766 25.034237 37 18 38
5.802386 2.751131 25.010286 21 40 33
5.848497 2.749294 24.993578 34 20 34
5.894593 2.747480 24.977091 15 25 27
5.938617 2.744739 24.952173 22 20 30
5.984167 2.742743 24.934029 27 31 28
6.027917 2.739962 24.908747 34 23 19
6.073413 2.738014 24.891037 25 20 21
6.119006 2.736141 24.874008 43 38 37
6.162655 2.733436 24.849415 26 24 20
6.208031 2.731534 24.832125 21 43 23
6.253009 2.729488 24.813526 23 39 43
6.300223 2.728443 24.804029 39 34 32
6.348361 2.727811 24.798285 30 37 38
6.395619 2.726814 24.789223 30 40 37
6.443873 2.726254 24.784126 23 15 39
6.490891 2.725183 24.774393 32 37 17
6.538284 2.724285 24.766226 23 36 36
6.585162 2.723187 24.756247 44 15 43
6.631051 2.721700 24.742729 40 18 31
6.677906 2.720628 24.732985 38 20 30
6.721796 2.718373 24.712484 40 33 23
6.765583 2.716110 24.691910 31 22 35
6.809079 2.713763 24.670576 29 38 37
6.852418 2.711389 24.648987 41 44 24
6.898609 2.710168 24.637890 15 20 26
6.942166 2.707937 24.617611 42 24 33
6.986304 2.705963 24.599663 18 17 34
7.030079 2.703876 24.580694 39 32 22
7.072298 2.701225 24.556591 24 19 16
7.116777 2.699467 24.540611 35 29 26
7.159566 2.697097 24.519060 43 19 18
7.204752 2.695655 24.505959 32 27 31
7.249490 2.694067 24.491520 32 42 29
7.291155 2.691366 24.466965 37 23 16
7.334182 2.689200 24.447273 41 35 25
7.373431 2.685687 24.415335 15 29 18
7.413714 2.682594 24.387218 18 18 30
7.454642 2.679773 24.361574 38 22 23
7.495500 2.676964 24.336039 18 18 21
7.540579 2.675689 24.324450 31 23 19
7.584451 2.674005 24.309137 36 33 24
7.630086 2.672960 24.299637 36 28 38
7.675775 2.671947 24.290426 40 28 38
7.719188 2.670160 24.274178 33 19 21
7.763652 2.668755 24.261412 43 40 36
7.806150 2.666697 24.242701 24 26 44
7.851299 2.665564 24.232403 20 41 28
7.894579 2.663815 24.216501 20 27 28
7.933137 2.660503 24.186392 36 33 41
7.972632 2.657544 24.159491 19 40 43
8.003903 2.651896 24.108141 42 28 43
8.036469 2.646741 24.061283 18 28 22
8.067485 2.641141 24.010372 23 37 19
8.095316 2.634570 23.950640 16 21 19
8.130433 2.630434 23.913038 21 30 42
4.896837 2.886556 25.772825 35 41 30
4.940075 2.881711 25.729559 36 16 30
4.985429 2.878186 25.698090 22 21 43
5.030347 2.874484 25.665035 18 44 17
5.072746 2.869432 25.619928 26 41 16
5.117748 2.865939 25.588739 17 17 33
5.157814 2.859778 25.533733 31 36 16
5.199242 2.854486 25.486483 17 26 42
5.239835 2.848842 25.436092 18 15 19
5.277787 2.841885 25.373976 27 29 39
5.320068 2.837370 25.333658 120 120 120
5.357772 2.830521 25.272511 120 120 120
5.398073 2.825159 25.224638 120 120 120
5.438607 2.820018 25.178736 39 29 34
5.476361 2.813543 25.120920 43 27 32
5.518621 2.809480 25.084642 26 25 24
5.558539 2.804308 25.038464 42 20 16
5.601653 2.800827 25.007381 18 26 27
5.646160 2.798097 24.983007 35 42 38
5.689138 2.794664 24.952358 16 21 42
5.735217 2.792802 24.935728 35 42 27
5.779604 2.790154 24.912086 25 19 24
5.825596 2.788319 24.895708 32 22 39
5.871516 2.786482 24.879307 26 18 36
5.915284 2.783663 24.854134 40 26 26
5.960522 2.781577 24.835510 35 41 44
6.003871 2.778651 24.809385 39 44 15
6.049028 2.776603 24.791100 40 39 39
6.094191 2.774591 24.773136 34 19 31
6.137253 2.771663 24.746988 36 17 21
6.182088 2.769576 24.728354 24 40 28
6.226264 2.767229 24.707397 24 30 25
6.272735 2.765930 24.695807 17 15 32
6.320132 2.765058 24.688015 41 35 33
6.366583 2.763788 24.676680 34 27 17
6.414285 2.763077 24.670328 15 37 16
6.460683 2.761819 24.659096 37 28 21
6.507551 2.760779 24.649813 39 43 43
6.554067 2.759607 24.639349 21 26 32
6.599694 2.758081 24.625723 31 39 29
6.646438 2.757041 24.616436 21 29 25
6.690422 2.754880 24.597141 25 23 27
6.734283 2.752700 24.577677 31 38 19
6.777983 2.750486 24.557911 22 40 23
6.821646 2.748289 24.538294 22 42 32
6.868015 2.747206 24.528625 40 38 44
6.912319 2.745318 24.511770 23 40 26
6.957390 2.743759 24.497852 15 23 15
7.002013 2.742047 24.482563 33 40 30
7.044767 2.739632 24.460997 33 25 41
7.089143 2.737876 24.445320 37 19 41
7.131841 2.735501 24.424114 19 16 39
7.176906 2.734059 24.411243 16 43 21
7.221440 2.732437 24.396755 28 32 18
7.262920 2.729688 24.372215 22 18 40
7.305739 2.727476 24.352465 18 25 28
7.344719 2.723869 24.320263 36 41 31
7.384745 2.720696 24.291925 20 15 19
7.425366 2.717781 24.265902 40 41 40
7.465854 2.714856 24.239786 37 19 25
7.510599 2.713507 24.227739 27 23 30
7.553946 2.711673 24.211367 33 22 23
7.598960 2.710457 24.200508 39 30 43
7.644127 2.709311 24.190275 28 20 33
7.687334 2.707489 24.174006 27 40 38
7.731868 2.706154 24.162086 29 30 35
7.774412 2.704143 24.144136 21 38 19
7.819541 2.703051 24.134386 35 40 40
7.862600 2.701262 24.118406 19 36 24
7.900756 2.697819 24.087669 27 18 37
7.939758 2.694706 24.059872 30 29 28
7.969795 2.688605 24.005405 22 37 44
8.000799 2.682903 23.954489 31 25 36
8.030266 2.676755 23.899601 41 24 44
8.056894 2.669740 23.836964 19 43 18
4.926936 2.925368 25.661127 31 25 15
4.971653 2.921487 25.627079 38 23 29
5.015941 2.917435 25.591536 35 35 44
5.057774 2.912052 25.544313 44 38 19
5.102468 2.908407 25.512342 33 38 21
5.142321 2.902102 25.457035 15 32 18
5.183712 2.896780 25.410353 42 42 44
5.224287 2.891110 25.360617 30 29 20
5.261988 2.883974 25.298019 31 41 39
5.303907 2.879264 25.256701 120 120 120
5.341477 2.872304 25.195648 120 120 120
5.382035 2.867065 25.149694 120 120 120
5.422711 2.861986 25.105143 28 28 22
5.459961 2.855209 25.045692 43 29 21
5.501374 2.850712 25.006245 19 31 23
5.540779 2.845265 24.958462 42 33 38
5.583998 2.841856 24.928564 43 32 21
5.628795 2.839304 24.906172 40 20 16
5.671822 2.835911 24.876411 27 38 17
5.717763 2.834022 24.859838 27 27 17
5.761988 2.831322 24.836155 32 40 27
5.807835 2.829458 24.819809 29 16 17
5.853538 2.827557 24.803127 32 29 44
5.897012 2.824619 24.777361 43 30 16
5.941948 2.822425 24.758118 27 23 26
5.984901 2.819334 24.730997 38 16 41
6.029733 2.817170 24.712021 16 24 31
6.074528 2.815025 24.693203 40 29 31
6.117131 2.811907 24.665850 36 34 18
6.161568 2.809675 24.646273 29 30 41
6.205151 2.807092 24.623615 39 21 20
6.251061 2.805594 24.610477 25 20 36
6.297894 2.804531 24.601147 26 26 31
6.343738 2.803047 24.588131 25 38 18
6.391019 2.802216 24.580843 20 22 42
6.436966 2.800817 24.568573 41 18 39
6.483451 2.799672 24.558527 16 22 31
6.529710 2.798447 24.547781 27 19 16
6.575138 2.796887 24.534096 15 32 28
6.621783 2.795864 24.525122 33 40 32
6.665834 2.793769 24.506744 31 19 18
6.709771 2.791657 24.488216 23 34 42
6.753641 2.789547 24.469713 21 17 15
6.797460 2.787448 24.451294 19 33 19
6.843836 2.786419 24.442272 16 43 33
6.888848 2.784853 24.428539 36 20 38
6.935052 2.783788 24.419197 22 29 24
6.980743 2.782534 24.408192 20 21 22
7.024060 2.780357 24.389097 24 21 20
7.068252 2.778554 24.373283 31 35 40
7.110791 2.776131 24.352024 35 17 23
7.155767 2.774685 24.339342 31 25 22
7.200154 2.773032 24.324846 30 24 29
7.241475 2.770229 24.300253 20 22 29
7.284104 2.767960 24.280348 29 15 18
7.322809 2.764239 24.247713 19 33 39
7.362578 2.760967 24.219007 36 37 41
7.402856 2.757927 24.192341 27 24 17
7.442888 2.754835 24.165220 24 16 22
7.487213 2.753362 24.152300 32 15 24
7.529905 2.751312 24.134312 31 42 21
