ply
format ascii 1.0
element vertex 1253
property float x
property float y
property float z
property uchar red
property uchar green
property uchar blue
end_header
-9.448079 4.233230 30.675581 38 44 26
-9.394205 4.236602 30.700016 15 24 24
-9.341759 4.240667 30.729469 42 41 28
-9.291079 4.245593 30.765163 35 42 16
-9.236754 4.248907 30.789181 32 44 36
-9.187697 4.254705 30.831198 28 33 19
-9.137111 4.259869 30.868618 40 17 31
-9.086377 4.265034 30.906046 34 22 38
-9.037185 4.270999 30.949265 42 36 40
-8.982662 4.274508 30.974695 41 33 38
-8.929907 4.278914 31.006620 16 33 29
-8.873567 4.281651 31.026459 38 40 32
-8.816243 4.283949 31.043110 34 19 21
-8.761478 4.287532 31.069071 41 30 43
-8.704371 4.290011 31.087038 37 25 42
-8.648506 4.293143 31.109734 44 42 34
-8.590413 4.295206 31.124683 22 38 30
-8.531378 4.296825 31.136415 30 15 43
-8.473086 4.298845 31.151051 38 19 22
-8.412885 4.299919 31.158834 43 18 34
-8.354046 4.301710 31.171812 34 21 40
-8.295507 4.303684 31.186117 33 25 16
-8.235483 4.304912 31.195013 30 27 16
-8.173501 4.305127 31.196569 44 31 24
-8.109395 4.304217 31.189981 27 24 42
-8.042764 4.301944 31.173506 16 44 35
-7.974962 4.299003 31.152195 43 33 28
-7.908094 4.296523 31.134228 40 27 21
-7.843783 4.295405 31.126123 30 42 28
-7.782521 4.295951 31.130083 15 25 39
-7.724445 4.298280 31.146955 31 41 25
-7.667613 4.301344 31.169157 36 34 30
-7.611253 4.304725 31.193661 15 17 38
-7.554329 4.307841 31.216236 34 21 27
-7.494557 4.309370 31.227322 18 41 25
-7.432859 4.309809 31.230499 40 40 29
-7.369249 4.309137 31.225630 26 36 20
-7.303452 4.307164 31.211334 30 39 28
-7.236458 4.304445 31.191631 21 40 31
-7.169979 4.301987 31.173820 23 39 26
-7.102722 4.299016 31.152288 34 16 32
-7.036767 4.296787 31.136139 15 20 22
-6.972502 4.295559 31.127239 17 29 26
-6.908371 4.294393 31.118790 28 21 40
-6.845786 4.294175 31.117210 20 20 29
-6.790564 4.298614 31.149376 22 20 23
-6.738518 4.305164 31.196840 120 120 120
-6.689786 4.313974 31.260683 120 120 120
-6.642776 4.324071 31.333847 120 120 120
-6.590617 4.330977 31.383890 25 44 36
-6.540950 4.339668 31.446873 15 37 28
-6.484980 4.344307 31.480486 35 26 37
-6.429574 4.349418 31.517521 17 32 38
-6.381420 4.359584 31.591188 16 42 26
-6.331023 4.368406 31.655113 41 23 18
-6.284044 4.379788 31.737597 19 44 40
-6.230734 4.386945 31.789459 30 30 22
-6.176615 4.393674 31.838221 33 25 43
-6.126655 4.403533 31.909660 44 31 35
-6.072276 4.410390 31.959347 33 33 33
-6.022929 4.421086 32.036858 22 26 25
-5.970158 4.429472 32.097622 17 23 17
-5.917333 4.437999 32.159416 17 16 32
-5.867033 4.448630 32.236446 32 33 43
-5.811297 4.455328 32.284985 16 35 41
-5.763165 4.468072 32.377331 43 15 24
-5.713268 4.479722 32.461750 21 28 26
-5.664159 4.492264 32.552639 27 32 23
-5.617649 4.507183 32.660748 39 20 38
-5.563874 4.516556 32.728668 18 37 16
-5.516978 4.531804 32.839157 36 24 25
-5.466550 4.544482 32.931026 38 19 25
-5.415682 4.557099 33.022453 37 18 34
-5.368016 4.572754 33.135899 23 16 21
-5.313153 4.582595 33.207207 44 35 23
-5.261745 4.595702 33.302185 26 38 36
-5.204832 4.604274 33.364307 23 44 23
-5.147075 4.612314 33.422565 42 16 39
-5.093357 4.624232 33.508926 37 37 31
-5.035397 4.632565 33.569313 26 16 41
-4.982726 4.646055 33.667065 19 18 43
-4.927331 4.657340 33.748840 23 15 35
-4.871402 4.668427 33.829178 40 25 36
-4.817252 4.681555 33.924309 26 16 17
-4.757320 4.689358 33.980854 25 26 17
-4.700566 4.700566 34.062073 40 34 21
-4.641071 4.709322 34.125523 22 32 29
-4.580022 4.716739 34.179272 32 30 30
-4.520023 4.725479 34.242599 32 36 35
-4.455970 4.730184 34.276695 37 42 17
-11.066554 4.303660 30.740429 39 40 42
-11.002980 4.302841 30.734581 22 31 24
-10.944016 4.303826 30.741617 18 38 18
-10.886115 4.305243 30.751738 26 25 21
-10.824821 4.305327 30.752333 23 30 19
-10.761608 4.304643 30.747452 16 36 29
-10.696053 4.303010 30.735785 23 17 35
-10.630779 4.301471 30.724794 33 23 42
-10.564389 4.299460 30.710432 25 33 26
-10.496803 4.296937 30.692406 31 28 36
-10.431033 4.295131 30.679508 20 39 16
-10.362194 4.292033 30.657379 34 35 42
-10.294309 4.289296 30.637825 21 31 20
-10.226641 4.286616 30.618685 34 43 33
-10.158305 4.283622 30.597303 42 32 25
-10.093140 4.281938 30.585272 26 34 29
-10.027248 4.279923 30.570879 17 20 17
-9.962835 4.278518 30.560843 34 33 23
-9.899944 4.277753 30.555382 16 19 43
-9.837808 4.277308 30.552198 15 29 17
-9.777330 4.277582 30.554155 30 20 25
-9.716543 4.277724 30.555168 27 20 25
-9.654208 4.277181 30.551292 27 32 26
-9.593323 4.277278 30.551985 27 42 30
-9.535277 4.278650 30.561785 44 16 15
-9.478170 4.280464 30.574743 42 17 33
-9.425601 4.284364 30.602602 38 34 31
-9.372428 4.288039 30.628851 35 16 22
-9.320665 4.292412 30.660084 43 37 39
-9.270689 4.297670 30.697645 20 18 24
-9.216801 4.301174 30.722672 33 30 26
-9.168029 4.307128 30.765200 42 43 21
-9.117539 4.312349 30.802496 22 17 37
-9.066720 4.317486 30.839184 20 23 17
-9.017385 4.323404 30.881456 26 31 20
-8.962748 4.326844 30.906027 44 30 29
-8.909832 4.331169 30.936918 43 44 29
-8.853453 4.333858 30.956129 27 15 30
-8.796110 4.336111 30.972219 27 24 15
-8.741227 4.339616 30.997257 20 19 43
-8.684082 4.342041 31.014580 16 44 43
-8.628130 4.345102 31.036440 19 19 43
-8.570024 4.347114 31.050812 17 25 25
-8.511018 4.348696 31.062111 36 24 30
-8.452735 4.350673 31.076233 35 21 17
-8.392605 4.351721 31.083723 36 28 18
-8.333917 4.353539 31.096704 25 35 36
-8.275597 4.355577 31.111265 35 44 25
-8.215843 4.356886 31.120617 28 27 41
-8.154157 4.357183 31.122738 33 37 36
-8.090305 4.356318 31.116556 32 25 19
-8.023877 4.354042 31.100298 18 39 38
-7.956192 4.351042 31.078875 31 30 18
-7.889403 4.348490 31.060642 31 16 23
-7.825208 4.347338 31.052412 26 41 36
-7.764081 4.347885 31.056324 34 26 25
-7.706015 4.350170 31.072639 38 20 37
-7.649137 4.353167 31.094053 17 30 42
-7.592691 4.356462 31.117588 42 28 21
-7.535685 4.359487 31.139194 18 15 15
-7.475930 4.360959 31.149710 41 30 37
-7.414231 4.361313 31.152233 30 38 22
-7.350693 4.360580 31.147003 20 37 40
-7.284986 4.358538 31.132418 23 27 27
-7.218040 4.355714 31.112242 37 40 30
-7.151634 4.353169 31.094061 34 39 38
-7.084467 4.350111 31.072224 38 24 25
-7.018623 4.347820 31.055855 43 24 24
-6.954520 4.346575 31.046965 42 43 34
-6.890633 4.345444 31.038889 17 18 44
-6.828316 4.345292 31.037798 38 18 28
-6.773382 4.349878 31.070560 18 44 28
-6.721595 4.356589 31.118494 120 120 120
-6.673076 4.365564 31.182600 120 120 120
-6.626247 4.375823 31.255880 120 120 120
-6.574207 4.382805 31.305750 18 39 38
-6.524607 4.391563 31.368305 34 42 16
-6.468705 4.396207 31.401480 17 26 27
-6.413329 4.401304 31.437889 37 41 31
-6.365123 4.411472 31.510511 24 40 31
-6.314704 4.420293 31.573519 30 35 31
-6.267667 4.431684 31.654882 23 33 37
-6.214407 4.438862 31.706160 20 23 28
-6.160328 4.445598 31.754271 44 36 33
-6.110291 4.455420 31.824430 15 40 28
-6.055864 4.462215 31.872967 32 28 15
-6.006348 4.472812 31.948658 17 31 38
-5.953447 4.481089 32.007782 29 35 21
-5.900525 4.489530 32.068073 38 37 29
-5.850144 4.500111 32.143650 23 43 25
-5.794492 4.506827 32.191620 17 20 27
-5.746357 4.519606 32.282902 29 44 17
-5.696429 4.531250 32.366074 34 31 33
-5.647382 4.543871 32.456219 33 22 30
-5.601065 4.559006 32.564331 27 32 26
-5.547592 4.568605 32.632893 34 30 16
-5.501325 4.584438 32.745983 23 23 38
-5.451610 4.597744 32.841026 17 16 40
-5.401537 4.611068 32.936199 35 42 20
-5.354657 4.627481 33.053436 36 40 16
-5.300295 4.637758 33.126842 29 17 44
-5.249580 4.651526 33.225189 22 41 25
-5.193219 4.660581 33.289864 41 18 40
-5.136027 4.669116 33.350826 25 38 33
-5.083076 4.681781 33.441292 25 30 36
-5.025714 4.690666 33.504757 33 15 35
-4.973656 4.704809 33.605782 25 16 17
-4.918606 4.716472 33.689083 31 36 23
-4.862934 4.727853 33.770378 20 42 26
-4.809122 4.741388 33.867054 40 39 36
-4.749435 4.749435 33.924538 44 36 26
-4.693084 4.761100 34.007854 37 31 21
-4.634231 4.770532 34.075226 44 18 28
-4.573456 4.778238 34.130272 18 15 29
-4.512852 4.786358 34.188274 26 22 28
-10.967842 4.350373 30.636429 25 21 30
-10.908994 4.351340 30.643242 43 34 33
-10.850995 4.352659 30.652529 32 29 42
-10.789275 4.352491 30.651348 31 41 39
-10.725629 4.351541 30.644655 18 20 30
-10.659592 4.349604 30.631012 15 15 39
-10.594046 4.347846 30.618631 41 44 33
-10.527731 4.345750 30.603870 30 33 44
-10.460565 4.343276 30.586449 27 18 27
-10.395485 4.341644 30.574957 28 36 18
-10.327466 4.338758 30.554632 23 44 44
-10.260284 4.336191 30.536558 35 34 33
-10.193127 4.333605 30.518345 15 26 35
-10.125162 4.330641 30.497475 36 37 20
-10.060105 4.328894 30.485167 27 15 43
-9.993801 4.326585 30.468906 36 21 32
-9.928766 4.324800 30.456337 32 36 44
-9.865111 4.323598 30.447874 42 28 27
-9.802157 4.322691 30.441483 31 44 27
-9.741270 4.322688 30.441467 44 18 43
-9.680353 4.322673 30.441360 26 21 31
-9.618265 4.322132 30.437548 39 32 19
-9.558078 4.322443 30.439737 42 25 31
-9.500972 4.324160 30.451832 38 25 18
-9.444786 4.326321 30.467051 22 29 21
-9.393589 4.330810 30.498665 25 43 22
-9.341649 4.335014 30.528265 15 20 20
-9.291027 4.339887 30.562588 29 17 44
-9.242239 4.345688 30.603439 23 30 20
-9.189025 4.349472 30.630083 38 22 19
-9.140666 4.355619 30.673376 28 29 43
-9.090213 4.360846 30.710180 22 41 32
-9.039100 4.365824 30.745237 24 28 41
-8.989365 4.371541 30.785498 23 17 23
-8.934414 4.374782 30.808325 40 28 26
-8.881054 4.378853 30.836992 42 19 43
-8.824481 4.381386 30.854830 42 18 16
-8.766979 4.383489 30.869644 42 16 31
-8.711736 4.386760 30.892679 27 22 17
-8.654383 4.389009 30.908512 40 22 44
-8.598099 4.391835 30.928415 31 37 19
-8.539818 4.393674 30.941368 19 15 21
-8.480714 4.395115 30.951511 33 44 27
-8.422279 4.396925 30.964262 38 41 20
-8.362179 4.397887 30.971033 44 38 37
-8.303555 4.399645 30.983416 32 39 21
-8.245407 4.401683 30.997770 15 15 15
-8.185910 4.403027 31.007235 16 28 15
-8.124491 4.403350 31.009506 39 24 41
-8.060924 4.402505 31.003553 24 29 42
-7.994755 4.400214 30.987421 40 30 35
-7.927352 4.397203 30.966217 36 24 26
-7.860717 4.394574 30.947706 32 26 28
-7.796498 4.393265 30.938486 17 23 35
-7.735303 4.393652 30.941212 30 30 28
-7.676898 4.395643 30.955235 25 34 28
-7.619706 4.398367 30.974413 17 41 31
-7.562938 4.401382 30.995646 40 25 17
-7.505564 4.404091 31.014729 16 32 32
-7.445706 4.405376 31.023773 26 24 26
-7.383839 4.405484 31.024534 21 22 35
-7.320301 4.404588 31.018227 17 25 33
-7.254669 4.402406 31.002859 35 39 33
-7.187741 4.399393 30.981642 23 20 39
-7.121467 4.396732 30.962902 39 38 27
-7.054405 4.393533 30.940372 30 29 20
-6.988694 4.391126 30.923424 38 27 27
-6.924816 4.389839 30.914356 37 44 30
-6.861247 4.388726 30.906519 28 35 15
-6.799328 4.388657 30.906038 17 19 44
-6.744811 4.393409 30.939499 18 43 26
-6.693384 4.400280 30.987888 120 120 120
-6.645187 4.409423 31.052275 120 120 120
-6.598650 4.419850 31.125708 120 120 120
-6.546864 4.426927 31.175541 32 38 18
-6.497478 4.435778 31.237875 18 41 21
-6.441816 4.440475 31.270952 32 28 28
-6.386621 4.445589 31.306965 24 28 21
-6.338499 4.455777 31.378710 31 24 16
-6.288163 4.464596 31.440817 43 40 27
-6.241198 4.476010 31.521200 28 22 43
-6.188145 4.483248 31.572170 44 27 16
-6.134256 4.490022 31.619875 21 15 31
-6.084264 4.499821 31.688877 43 44 16
-6.029888 4.506548 31.736252 34 35 21
-5.980308 4.517041 31.810148 30 27 43
-5.927413 4.525229 31.867811 40 21 35
-5.874517 4.533594 31.926722 25 38 36
-5.824154 4.544120 32.000847 41 30 20
-5.768661 4.550832 32.048115 20 17 43
-5.720515 4.563557 32.137726 23 44 19
-5.670509 4.575070 32.218803 30 30 21
-5.621470 4.587637 32.307301 38 23 17
-5.575266 4.602836 32.414337 40 17 43
-5.522109 4.612585 32.482994 39 42 39
-5.476445 4.628900 32.597885 26 43 16
-5.427448 4.642757 32.695473 16 32 19
-5.378210 4.656743 32.793964 38 41 42
-5.332170 4.673878 32.914631 34 25 22
-5.278419 4.684597 32.990120 29 40 43
-5.228559 4.699085 33.092148 26 24 34
-5.172909 4.708674 33.159676 23 15 32
-5.116540 4.717848 33.224285 38 19 34
-5.064729 4.731523 33.320587 21 30 39
-5.008334 4.741223 33.388893 20 26 24
-4.957390 4.756414 33.495876 20 25 39
-4.903073 4.768742 33.582691 36 32 35
-4.848059 4.780725 33.667076 17 19 30
-4.795194 4.795194 33.768974 22 17 32
-4.736257 4.803918 33.830410 35 38 26
-4.680611 4.816281 33.917473 29 26 16
-4.622313 4.826239 33.987598 28 20 44
-4.561639 4.833975 34.042080 15 38 35
-10.884444 4.402696 30.574280 40 36 42
-10.826126 4.403848 30.582277 21 18 22
-10.763732 4.403345 30.578785 36 27 33
-10.699466 4.402066 30.569902 33 27 39
-10.632722 4.399747 30.553799 37 43 20
-10.566774 4.397732 30.539808 18 39 30
-10.500350 4.395495 30.524273 35 27 17
-10.433307 4.392971 30.506744 42 40 15
-10.368648 4.391427 30.496023 25 38 44
-10.301108 4.388638 30.476652 34 40 27
-10.234327 4.386140 30.459307 41 27 27
-10.167491 4.383589 30.441591 24 28 18
-10.099809 4.380640 30.421110 30 33 23
-10.034924 4.378876 30.408861 29 29 18
-9.968408 4.376374 30.391487 39 36 36
-9.902935 4.374302 30.377100 20 43 34
-9.838736 4.372771 30.366468 26 38 33
-9.775226 4.371530 30.357845 27 39 34
-9.714073 4.371333 30.356478 34 31 17
-9.653209 4.371264 30.356003 36 26 31
-9.591471 4.370797 30.352757 29 29 24
-9.531983 4.371355 30.356634 31 20 41
-9.475775 4.373434 30.371073 42 38 31
-9.420401 4.375928 30.388390 41 35 19
-9.370392 4.380962 30.423349 42 32 25
-9.319499 4.385647 30.455879 38 21 15
-9.269832 4.390973 30.492868 34 28 35
-9.222014 4.397252 30.536470 39 31 15
-9.169342 4.401284 30.564472 29 26 21
-9.121261 4.407589 30.608259 31 34 35
-9.070802 4.412823 30.644602 33 24 16
-9.019374 4.417653 30.678144 33 18 32
-8.969209 4.423172 30.716471 39 31 17
-8.913884 4.426205 30.737532 16 24 23
-8.859994 4.429997 30.763866 21 26 27
-8.803129 4.432345 30.780172 31 37 15
-8.745348 4.434261 30.793480 17 28 21
-8.689657 4.437272 30.814386 44 27 31
-8.632043 4.439337 30.828726 31 21 36
-8.575339 4.441902 30.846544 17 24 15
-8.516791 4.443543 30.857939 43 33 20
-8.457494 4.444814 30.866766 32 27 28
-8.398805 4.446426 30.877958 44 41 30
-8.338650 4.447280 30.883890 28 16 40
-8.279941 4.448924 30.895304 34 21 31
-8.221798 4.450898 30.909014 35 17 42
-8.162389 4.452212 30.918140 22 16 40
-8.101064 4.452493 30.920090 16 41 40
-8.037678 4.451637 30.914145 25 29 15
-7.971636 4.449285 30.897814 34 37 35
-7.904420 4.446236 30.876642 30 36 39
-7.837838 4.443499 30.857630 35 32 41
-7.773431 4.441961 30.846949 39 30 29
-7.712014 4.442120 30.848055 20 19 16
-7.653164 4.443773 30.859533 36 27 42
-7.595641 4.446229 30.876589 17 39 34
-7.538563 4.448988 30.895750 29 36 37
-7.480826 4.451401 30.912506 30 24 37
-7.420870 4.452522 30.920290 40 25 25
-7.358854 4.452416 30.919554 26 27 18
-7.295310 4.451376 30.912333 15 17 19
-7.229763 4.449085 30.896421 18 39 31
-7.162899 4.445937 30.874563 29 16 32
-7.096785 4.443205 30.855589 15 36 33
-7.029866 4.439915 30.832745 39 15 38
-6.964292 4.437425 30.815453 22 15 28
-6.900605 4.436104 30.806274 21 25 17
-6.837312 4.435013 30.798702 18 18 38
-6.775722 4.435018 30.798737 39 44 27
-6.721540 4.439917 30.832754 40 24 25
-6.670408 4.446939 30.881519 120 120 120
-6.622479 4.456248 30.946165 120 120 120
-6.576206 4.466857 31.019840 120 120 120
-6.524653 4.474048 31.069778 42 34 19
-6.475504 4.483042 31.132233 32 23 21
-6.420097 4.487835 31.165520 37 23 19
-6.365122 4.493027 31.201578 18 17 28
-6.317168 4.503328 31.273111 29 26 43
-6.266965 4.512215 31.334826 34 17 43
-6.220163 4.523755 31.414963 43 33 38
-6.167353 4.531117 31.466087 20 25 30
-6.113689 4.537996 31.513859 24 19 35
-6.063831 4.547873 31.582455 24 25 27
-6.009566 4.554619 31.629295 39 25 31
-5.960045 4.565141 31.702368 37 31 40
-5.907248 4.573354 31.759399 16 44 20
-5.854449 4.581743 31.817659 17 27 33
-5.804167 4.592308 31.891026 22 38 22
-5.748817 4.599054 31.937872 16 15 19
-5.700649 4.611761 32.026115 29 17 39
-5.650565 4.623190 32.105484 25 35 21
-5.601451 4.635684 32.192249 16 40 25
-5.555206 4.650870 32.297710 37 21 19
-5.502176 4.660667 32.365742 19 23 21
-5.456738 4.677204 32.480583 34 44 30
-5.408087 4.691353 32.578838 15 33 20
-5.359270 4.705701 32.678478 23 17 21
-5.313616 4.723214 32.800098 20 42 34
-5.260185 4.734166 32.876156 16 36 41
-5.210792 4.749076 32.979694 24 38 20
-5.155563 4.758981 33.048481 29 34 15
-5.099747 4.768594 33.115238 16 44 41
-5.048766 4.783042 33.215569 38 22 33
-4.993141 4.793415 33.287605 26 25 32
-4.943128 4.809530 33.399513 35 35 24
-4.889398 4.822420 33.489025 43 20 34
-4.835075 4.835075 33.576912 30 19 16
-4.783438 4.850810 33.686184 40 38 20
-4.725629 4.860647 33.754490 40 33 24
-4.670905 4.873988 33.847137 34 36 18
-4.612958 4.884308 33.918808 31 35 21
-10.859890 4.453775 30.505310 18 44 36
-10.800951 4.454629 30.511160 24 40 43
-10.737638 4.453679 30.504654 24 26 15
-10.672659 4.452024 30.493313 40 33 37
-10.604989 4.449219 30.474106 37 22 16
-10.538394 4.446837 30.457787 20 22 44
-10.471621 4.444351 30.440760 26 42 31
-10.404441 4.441662 30.422342 44 20 20
-10.340049 4.440139 30.411909 21 33 22
-10.272959 4.437432 30.393370 33 30 29
-10.206664 4.435038 30.376976 16 30 29
-10.140330 4.432599 30.360270 34 34 26
-10.073114 4.429743 30.340706 23 20 29
-10.008545 4.428023 30.328924 32 39 35
-9.942046 4.425423 30.311115 39 31 23
-9.876342 4.423147 30.295527 17 21 30
-9.811827 4.421379 30.283417 33 29 38
-9.748044 4.419920 30.273428 38 29 40
-9.686827 4.419615 30.271334 21 38 40
-9.626317 4.419630 30.271437 19 44 31
-9.565200 4.419365 30.269621 31 16 17
-9.506651 4.420290 30.275957 27 19 33
-9.451529 4.422831 30.293362 29 17 22
-9.397026 4.425696 30.312986 18 29 24
-9.348270 4.431323 30.351526 20 26 24
-9.298476 4.436528 30.387177 30 42 44
-9.249781 4.442329 30.426910 44 34 31
-9.202993 4.449129 30.473486 15 36 17
-9.150902 4.453439 30.503006 33 44 22
-9.103082 4.459899 30.547256 40 40 17
-9.052544 4.465106 30.582920 15 39 38
-9.000707 4.469739 30.614649 24 32 19
-8.950037 4.475018 30.650810 40 18 26
-8.894328 4.477834 30.670097 27 36 39
-8.839914 4.481345 30.694145 23 15 26
-8.782803 4.483529 30.709103 21 43 38
-8.724795 4.485282 30.721107 28 19 20
-8.668659 4.488029 30.739925 38 39 30
-8.610754 4.489893 30.752693 17 23 24
-8.553593 4.492175 30.768320 39 21 41
-8.494760 4.493605 30.778116 34 38 37
-8.435241 4.494690 30.785551 18 24 34
-8.376288 4.496096 30.795177 24 20 36
-8.316086 4.496847 30.800320 18 25 44
-8.257266 4.498362 30.810696 35 21 20
-8.199093 4.500254 30.823656 17 44 42
-8.139721 4.501512 30.832275 40 22 19
-8.078405 4.501707 30.833607 18 19 35
-8.015111 4.500793 30.827349 42 42 18
-7.949244 4.498409 30.811022 34 15 33
-7.882405 4.495434 30.790646 30 42 44
-7.816047 4.492688 30.771837 18 35 18
-7.751431 4.490909 30.759647 43 37 36
-7.689646 4.490753 30.758585 37 19 21
-7.630119 4.491925 30.766607 42 33 41
-7.572082 4.494000 30.780821 24 20 30
-7.514495 4.496378 30.797112 37 40 20
-7.456168 4.498350 30.810614 19 21 31
-7.395947 4.499201 30.816446 31 31 19
-7.333565 4.498742 30.813299 39 17 25
-7.269860 4.497456 30.804493 27 40 36
-7.204263 4.494967 30.787447 38 29 43
-7.137292 4.491572 30.764191 31 21 15
-7.071255 4.488710 30.744589 31 39 33
-7.004339 4.485234 30.720783 36 19 39
-6.938792 4.482582 30.702620 41 35 25
-6.875195 4.481154 30.692835 39 18 17
-6.812073 4.480012 30.685013 29 20 24
-6.750746 4.480041 30.685211 36 39 40
-6.696833 4.485035 30.719418 17 16 16
-6.645915 4.492146 30.768124 120 120 120
-6.598216 4.501586 30.832783 120 120 120
-6.552188 4.512356 30.906548 120 120 120
-6.500877 4.519658 30.956558 21 28 40
-6.452033 4.528831 31.019390 21 44 31
-6.396959 4.533767 31.053200 31 44 23
-6.342298 4.539096 31.089697 39 19 24
-6.294594 4.549558 31.161358 18 32 28
-6.244565 4.558533 31.222826 18 36 42
-6.197995 4.570239 31.303007 37 43 38
-6.145487 4.577761 31.354527 17 20 39
-6.092113 4.584786 31.402645 35 19 24
-6.042483 4.594805 31.471268 37 44 32
-5.988397 4.601611 31.517881 16 17 30
-5.939065 4.612253 31.590773 32 37 26
-5.886514 4.620597 31.647926 33 15 20
-5.833945 4.629109 31.706224 18 20 26
-5.783850 4.639792 31.779394 40 30 20
-5.728668 4.646586 31.825933 34 16 23
-5.680493 4.659281 31.912884 19 16 22
-5.630328 4.670613 31.990499 18 21 34
-5.581104 4.682995 32.075310 20 24 18
-5.534791 4.698137 32.179020 32 43 19
-5.481853 4.707945 32.246197 20 31 43
-5.436503 4.724580 32.360134 44 15 27
-5.387986 4.738831 32.457745 19 29 39
-5.339391 4.753360 32.557262 43 22 34
-5.294010 4.771145 32.679077 42 40 37
-5.240902 4.782323 32.755638 25 20 39
-5.191999 4.797670 32.860752 34 36 38
-5.137206 4.807898 32.930809 17 16 28
-5.081989 4.817990 32.999931 27 22 19
-5.031889 4.833262 33.104534 40 44 16
-4.977073 4.844351 33.180489 36 39 31
-4.928127 4.861530 33.298153 33 23 33
-4.875236 4.875236 33.392025 15 19 33
-4.821715 4.888683 33.484131 40 22 18
-4.771143 4.905541 33.599598 38 28 15
-4.714133 4.916167 33.672379 17 43 31
-4.659852 4.929988 33.767044 24 15 38
-4.601754 4.940119 33.836430 36 15 37
-10.764862 4.500564 30.409214 18 23 30
-10.700596 4.499114 30.399422 41 19 16
-10.634970 4.497073 30.385628 18 15 36
-10.566346 4.493733 30.363062 38 21 21
-10.498970 4.490889 30.343843 19 28 25
-10.431782 4.488092 30.324947 42 40 25
-10.364468 4.485208 30.305462 29 17 25
-10.300479 4.483738 30.295527 38 24 39
-10.234147 4.481224 30.278542 29 39 22
-10.168710 4.479075 30.264019 33 22 40
-10.103284 4.476904 30.249353 36 28 27
-10.036869 4.474267 30.231533 38 24 26
-9.972759 4.472631 30.220482 21 33 26
-9.906495 4.470004 30.202730 40 18 36
-9.840716 4.467565 30.186247 17 31 36
-9.776049 4.465603 30.172991 38 36 42
-9.712204 4.463994 30.162123 33 27 21
-9.651086 4.463627 30.159645 31 44 37
-9.591251 4.463853 30.161167 21 37 42
-9.531110 4.463937 30.161739 19 30 28
-9.473884 4.465397 30.171604 32 17 18
-9.420276 4.468593 30.193193 36 18 26
-9.366909 4.471944 30.215836 25 35 41
-9.319765 4.478329 30.258978 28 19 28
-9.271352 4.484183 30.298536 36 29 22
-9.223878 4.490572 30.341703 29 38 20
-9.178457 4.498052 30.392241 32 35 27
-9.127179 4.502742 30.423931 30 22 15
-9.079776 4.509419 30.469048 44 24 40
-9.029131 4.514565 30.503820 22 32 22
-8.976808 4.518937 30.533361 37 34 15
-8.925616 4.523942 30.567179 15 37 43
-8.869543 4.526525 30.584631 26 17 38
-8.814685 4.529769 30.606544 16 32 42
-8.757480 4.531843 30.620560 40 44 40
-8.699370 4.533474 30.631584 18 41 23
-8.642853 4.535965 30.648415 39 32 40
-8.584653 4.537602 30.659475 19 27 28
-8.527039 4.539575 30.672804 21 34 26
-8.467920 4.540769 30.680870 16 20 44
-8.408210 4.541661 30.686897 41 30 41
-8.349032 4.542856 30.694971 24 23 39
-8.288825 4.543504 30.699352 32 28 43
-8.229968 4.544908 30.708836 37 42 25
-8.171848 4.546743 30.721233 40 32 38
-8.112580 4.547961 30.729469 44 29 20
-8.051244 4.548031 30.729939 42 16 44
-7.987993 4.547012 30.723051 29 44 28
-7.922499 4.544689 30.707359 22 29 43
-7.856511 4.542046 30.689497 37 32 39
-7.790778 4.539509 30.672356 24 41 15
-7.726003 4.537494 30.658741 27 34 31
-7.663611 4.536858 30.654446 17 31 18
-7.603057 4.537308 30.657486 24 40 25
-7.544276 4.538833 30.667788 41 41 27
-7.485931 4.540647 30.680046 36 37 29
-7.426663 4.541926 30.688692 24 20 22
-7.365966 4.542346 30.691526 33 42 43
-7.302909 4.541305 30.684492 20 17 15
-7.238824 4.539601 30.672981 40 32 38
-7.172981 4.536757 30.653765 15 31 26
-7.105653 4.532916 30.627813 29 38 26
-7.039546 4.529795 30.606724 20 34 30
-6.972406 4.525948 30.580729 40 20 25
-6.906726 4.522989 30.560736 40 34 20
-6.843111 4.521341 30.549601 34 35 25
-6.780031 4.520021 30.540680 22 40 35
-6.718973 4.520036 30.540787 33 39 38
-6.665267 4.525044 30.574621 30 26 15
-6.614543 4.532187 30.622883 120 120 120
-6.567065 4.541709 30.687222 120 120 120
-6.521275 4.552588 30.760731 120 120 120
-6.470256 4.559990 30.810741 21 40 38
-6.421775 4.569340 30.873919 40 17 33
-6.367131 4.574443 30.908401 44 25 20
-6.312884 4.579935 30.945509 32 21 17
-6.265469 4.590542 31.017174 35 40 24
-6.215637 4.599571 31.078184 33 44 23
-6.169325 4.611414 31.158205 43 44 24
-6.117169 4.619087 31.210045 44 21 21
-6.064151 4.626260 31.258512 22 26 18
-6.014786 4.636397 31.327009 19 43 38
-5.960913 4.643238 31.373228 40 18 44
-5.911842 4.654003 31.445967 44 34 39
-5.859640 4.662509 31.503439 41 34 35
-5.807409 4.671177 31.562004 23 22 42
-5.757599 4.682003 31.635159 19 26 42
-5.702669 4.688861 31.681496 33 36 19
-5.654548 4.701534 31.767124 32 36 30
-5.604327 4.712730 31.842768 34 16 25
-5.555057 4.724991 31.925615 35 34 38
-5.508820 4.740147 32.028023 17 42 19
-5.456153 4.750063 32.095020 41 24 30
-5.411086 4.766909 32.208843 42 17 34
-5.362796 4.781288 32.306000 34 31 36
-5.314563 4.796069 32.405872 41 15 40
-5.269736 4.814327 32.529236 22 41 31
-5.217241 4.825948 32.607758 20 17 21
-5.169221 4.842055 32.716591 37 20 37
-5.115174 4.852857 32.789577 32 27 29
-5.060861 4.863685 32.862736 28 29 26
-5.011979 4.880085 32.973545 19 30 43
-4.958189 4.892080 33.054592 19 44 36
-4.910711 4.910711 33.180477 19 41 19
-4.859257 4.925822 33.282581 16 31 36
-4.806818 4.940341 33.380684 31 38 15
-4.756875 4.957870 33.499123 39 34 31
-4.699835 4.968397 33.570248 22 19 40
-4.644947 4.981537 33.659035 41 37 28
-10.608345 4.546434 30.309557 31 26 18
-10.539140 4.542733 30.284885 24 24 28
-10.471206 4.539540 30.263601 44 22 42
-10.403650 4.536475 30.243168 17 32 38
-10.336184 4.533414 30.222759 28 15 40
-10.272439 4.531958 30.213055 19 15 21
-10.206684 4.529594 30.197290 32 16 27
-10.141990 4.527674 30.184494 33 15 42
-10.077367 4.525764 30.171759 44 20 23
-10.011656 4.523339 30.155590 30 33 30
-9.947938 4.521790 30.145267 28 18 31
-9.882030 4.519221 30.128139 33 41 32
-9.816427 4.516761 30.111738 23 29 36
-9.751902 4.514769 30.098463 35 24 38
-9.688289 4.513178 30.087854 19 22 33
-9.627390 4.512839 30.085592 34 25 28
-9.568261 4.513331 30.088871 31 23 33
-9.508966 4.513750 30.091663 42 44 26
-9.452771 4.515655 30.104366 39 33 36
-9.400304 4.519377 30.129179 18 15 16
-9.347733 4.523096 30.153976 31 32 43
-9.301697 4.530047 30.200314 30 44 35
-9.254185 4.536365 30.242435 43 24 17
-9.207507 4.543178 30.287853 27 23 23
-9.163035 4.551177 30.341177 32 18 44
-9.112350 4.556175 30.374498 21 35 44
-9.065259 4.563050 30.420334 30 42 29
-9.014516 4.568167 30.454447 36 24 35
-8.961864 4.572380 30.482531 32 37 29
-8.910378 4.577249 30.514992 38 18 44
-8.854114 4.579714 30.531427 19 31 40
-8.799105 4.582867 30.552446 27 28 30
-8.741953 4.584941 30.566271 16 43 39
-8.683920 4.586577 30.577183 15 25 20
-8.627243 4.588959 30.593060 25 18 30
-8.568873 4.590468 30.603119 41 36 23
-8.510996 4.592264 30.615095 24 17 42
-8.451728 4.593331 30.622204 18 44 40
-8.391928 4.594121 30.627474 36 21 20
-8.332647 4.595210 30.634731 23 25 34
-8.272473 4.595819 30.638790 34 16 43
-8.213621 4.597176 30.647840 28 15 27
-8.155564 4.599002 30.660013 32 25 39
-8.096361 4.600205 30.668036 26 26 43
-8.034978 4.600178 30.667856 15 44 39
-7.971664 4.599037 30.660246 39 44 42
-7.906506 4.596806 30.645370 43 17 16
-7.841370 4.594553 30.630352 38 37 39
-7.776312 4.592310 30.615400 16 24 40
-7.711465 4.590158 30.601051 20 17 36
-7.648515 4.589109 30.594059 39 38 30
-7.587088 4.588964 30.593096 27 44 25
-7.527687 4.590053 30.600353 41 31 41
-7.468711 4.591421 30.609472 16 42 29
-7.408642 4.592133 30.614222 43 28 24
-7.347494 4.592184 30.614559 19 24 15
-7.283776 4.590615 30.604101 42 25 17
-7.219281 4.588526 30.590174 23 23 42
-7.153128 4.585338 30.568922 35 15 28
-7.085368 4.581057 30.540379 37 19 43
-7.019085 4.577664 30.517759 29 40 38
-6.951631 4.573442 30.489611 32 15 35
-6.885717 4.570166 30.467775 19 19 30
-6.821974 4.568286 30.455242 43 31 29
-6.758786 4.566747 30.444981 41 16 43
-6.697829 4.566702 30.444679 15 37 18
-6.644169 4.571676 30.477840 22 30 17
-6.593488 4.578811 30.525408 120 120 120
-6.546098 4.588387 30.589245 120 120 120
-6.500417 4.599351 30.662342 120 120 120
-6.449580 4.606843 30.712284 33 43 33
-6.401345 4.616355 30.775698 26 40 34
-6.347020 4.621616 30.810776 39 41 35
-6.293079 4.627264 30.848427 37 43 29
-6.245882 4.638031 30.920210 37 33 21
-6.196191 4.647143 30.980955 40 24 32
-6.150058 4.659135 31.060900 24 25 28
-6.098142 4.666945 31.112968 43 23 32
-6.045375 4.674259 31.161728 43 42 29
-5.996207 4.684537 31.230246 35 36 26
-5.942500 4.691448 31.276318 23 29 21
-5.893662 4.702390 31.349266 24 32 37
-5.841771 4.711106 31.407372 29 16 20
-5.789844 4.719981 31.466541 37 19 44
-5.740292 4.731010 31.540066 36 42 23
-5.685557 4.737964 31.586428 28 18 15
-5.637511 4.750712 31.671412 23 39 18
-5.587285 4.761890 31.745935 34 30 42
-5.538020 4.774155 31.827700 44 16 18
-5.491915 4.789461 31.929741 28 32 26
-5.439500 4.799559 31.997061 39 36 33
-5.394655 4.816656 32.111042 28 19 25
-5.346451 4.831131 32.207539 22 42 40
-5.298414 4.846110 32.307400 38 27 26
-5.254011 4.864825 32.432167 32 44 28
-5.202027 4.876900 32.512669 36 29 17
-5.154731 4.893732 32.624882 39 24 35
-5.101275 4.905072 32.700481 35 44 32
-5.047642 4.916534 32.776894 24 32 43
-4.999623 4.933838 32.892254 28 25 33
-4.946510 4.946510 32.976734 42 15 22
-4.900109 4.966327 33.108845 39 18 41
-4.849926 4.982800 33.218670 27 20 40
-4.798285 4.998213 33.321423 40 15 29
-4.748304 5.015814 33.438759 35 15 20
-10.500883 4.586593 30.174952 35 41 42
-10.431664 4.582696 30.149319 26 26 31
-10.363057 4.579025 30.125166 39 21 37
-10.294725 4.575433 30.101536 26 38 33
-10.230867 4.573799 30.090784 19 24 26
-10.165615 4.571519 30.075785 16 36 31
-10.102009 4.569957 30.065504 27 15 25
-10.038647 4.568486 30.055828 24 19 25
-9.973801 4.566318 30.041569 27 15 37
-9.910440 4.564809 30.031637 19 41 22
-9.844785 4.562217 30.014587 29 37 25
-9.779248 4.559649 29.997692 40 36 16
-9.714806 4.557563 29.983969 21 27 24
-9.651491 4.555983 29.973576 37 35 37
-9.590991 4.555721 29.971846 43 24 28
-9.532783 4.556551 29.977306 29 17 21
-9.474566 4.557386 29.982803 38 32 38
-9.419582 4.559798 29.998669 20 39 23
-9.368316 4.564052 30.026655 28 17 34
-9.316513 4.568097 30.053267 17 19 28
-9.271571 4.575580 30.102503 22 44 29
-9.225040 4.582373 30.147190 28 32 41
-9.179226 4.589613 30.194822 41 31 21
-9.135737 4.598119 30.250784 28 43 26
-9.085674 4.603408 30.285582 37 36 37
-9.038694 4.610340 30.331186 29 20 21
-8.987549 4.615228 30.363342 17 44 30
-8.934248 4.619067 30.388599 32 42 37
-8.882254 4.623639 30.418676 29 39 40
-8.825815 4.625944 30.433844 19 37 42
-8.770744 4.629004 30.453972 18 21 37
-8.713839 4.631131 30.467968 26 22 16
-8.656109 4.632847 30.479256 31 33 34
-8.599444 4.635161 30.494482 27 24 38
-8.541000 4.636543 30.503572 26 32 18
-8.483010 4.638192 30.514423 40 31 37
-8.423714 4.639147 30.520704 44 38 28
-8.363962 4.639862 30.525408 17 27 22
-8.304789 4.640911 30.532312 36 21 44
-8.244837 4.641538 30.536434 34 42 38
-8.186221 4.642931 30.545601 30 27 21
-8.128403 4.644802 30.557905 17 35 29
-8.069448 4.646046 30.566092 16 33 25
-8.008246 4.646005 30.565825 32 43 23
-7.945070 4.644810 30.557961 29 36 32
-7.880334 4.642677 30.543930 26 16 20
-7.815858 4.640666 30.530697 34 26 38
-7.751425 4.638648 30.517420 24 32 32
-7.687025 4.636618 30.504068 36 15 43
-7.624276 4.635560 30.497103 32 24 19
-7.562350 4.634989 30.493347 41 20 24
-7.502144 4.635471 30.496519 22 33 18
-7.442076 4.636047 30.500311 28 20 23
-7.380891 4.635931 30.499548 21 33 15
-7.319143 4.635457 30.496429 32 37 27
-7.254602 4.633191 30.481520 33 37 24
-7.189644 4.630618 30.464592 31 28 35
-7.123158 4.627009 30.440847 33 22 28
-7.054909 4.622182 30.409092 32 39 30
-6.988464 4.618463 30.384626 40 24 42
-6.920665 4.613776 30.353792 44 32 44
-6.854543 4.610135 30.329836 34 21 31
-6.790709 4.607981 30.315664 28 42 37
-6.727486 4.606207 30.303993 20 17 41
-6.666740 4.606111 30.303364 35 35 44
-6.613203 4.611041 30.335794 17 39 16
-6.562616 4.618137 30.382481 120 120 120
-6.515354 4.627728 30.445580 120 120 120
-6.469840 4.638753 30.518114 120 120 120
-6.419275 4.646333 30.567978 37 20 35
-6.371385 4.656012 30.631657 42 40 21
-6.317490 4.661449 30.667427 28 39 44
-6.263939 4.667249 30.705584 34 21 43
-6.216946 4.678098 30.776962 34 31 30
-6.167357 4.687192 30.836786 37 30 26
-6.121334 4.699206 30.915829 27 40 39
-6.069649 4.707075 30.967598 27 29 24
-6.017136 4.714457 31.016165 39 28 37
-5.968165 4.724797 31.084192 25 25 22
-5.914665 4.731732 31.129814 41 17 31
-5.866100 4.742805 31.202662 26 36 41
-5.814606 4.751721 31.261324 18 29 28
-5.763033 4.760767 31.320833 38 40 27
-5.713672 4.771858 31.393801 17 36 28
-5.659059 4.778761 31.439215 34 34 25
-5.610885 4.791318 31.521826 34 34 18
-5.560472 4.802226 31.593594 18 17 37
-5.511030 4.814233 31.672586 41 18 24
-5.464840 4.829393 31.772326 28 20 23
-5.412599 4.839501 31.838820 21 26 37
-5.367809 4.856589 31.951246 38 37 21
-5.319581 4.870941 32.045666 24 35 32
-5.271704 4.885970 32.144539 17 41 29
-5.227764 4.905063 32.270149 20 30 24
-5.176464 4.917640 32.352898 24 31 18
-5.130118 4.935303 32.469101 35 33 43
-5.077457 4.947266 32.547802 29 26 34
-5.024755 4.959498 32.628277 16 39 26
-4.978021 4.978021 32.750137 33 23 39
-4.926006 4.991686 32.840038 20 20 37
-4.880699 5.012610 32.977695 25 39 39
-4.831434 5.029986 33.092014 19 20 36
-4.780065 5.045624 33.194893 27 34 40
-10.402235 4.629896 30.064262 19 32 22
-10.332426 4.625563 30.036121 15 31 31
-10.262982 4.621343 30.008718 27 35 22
-10.198737 4.619428 29.996284 28 28 23
-10.133684 4.617122 29.981314 43 21 17
-10.070983 4.615867 29.973164 22 25 28
-10.008723 4.614800 29.966236 36 40 32
-9.944510 4.612815 29.953342 39 40 20
-9.881316 4.611281 29.943382 25 26 37
-9.815740 4.608610 29.926037 33 16 39
-9.750202 4.605924 29.908596 25 42 30
-9.685800 4.603744 29.894444 34 35 21
-9.622745 4.602182 29.884300 22 17 43
-9.562643 4.602022 29.883261 19 15 17
-9.505128 4.603112 29.890339 24 33 30
-9.447682 4.604250 29.897728 38 34 21
-9.393483 4.606995 29.915550 25 16 31
-9.342900 4.611560 29.945192 26 29 30
-9.291474 4.615764 29.972496 40 21 19
-9.247110 4.623555 30.023085 44 44 23
-9.201177 4.630658 30.069206 32 22 44
-9.155918 4.638195 30.118151 28 42 25
-9.112987 4.647020 30.175453 18 27 41
-9.063296 4.652492 30.210985 39 19 33
-9.016230 4.659394 30.255804 37 27 21
-8.964605 4.664017 30.285828 32 43 24
-8.910696 4.667507 30.308489 30 31 44
-8.858251 4.671818 30.336477 38 33 25
-8.801719 4.674016 30.350756 27 40 44
-8.746666 4.677037 30.370369 19 16 33
-8.690013 4.679238 30.384661 18 22 44
-8.632572 4.681042 30.396379 15 37 25
-8.576014 4.683355 30.411398 34 32 40
-8.517599 4.684680 30.419998 34 43 42
-8.459637 4.686274 30.430349 44 27 20
-8.400427 4.687195 30.436331 37 18 42
-8.340826 4.687910 30.440971 22 17 26
-8.281875 4.689003 30.448071 17 31 35
-8.222195 4.689697 30.452576 15 38 16
-8.163908 4.691201 30.462345 30 24 20
-8.106380 4.693167 30.475113 43 33 27
-8.047715 4.694500 30.483768 31 28 31
-7.986831 4.694549 30.484087 43 31 23
-7.923935 4.693407 30.476671 43 39 15
-7.859436 4.691291 30.462929 16 34 26
-7.795005 4.689183 30.449238 22 30 25
-7.730774 4.687162 30.436117 18 27 16
-7.667244 4.685538 30.425570 39 38 30
-7.605559 4.685025 30.422237 35 31 25
-7.543867 4.684498 30.418818 20 16 32
-7.482942 4.684444 30.418465 43 20 30
-7.421774 4.684235 30.417109 29 36 34
-7.359678 4.683431 30.411892 36 30 33
-7.297531 4.682582 30.406378 31 20 21
-7.232432 4.679809 30.388371 30 37 17
-7.167175 4.676885 30.369385 28 21 31
-7.100492 4.672974 30.343985 33 37 17
-7.031918 4.667739 30.309992 40 42 37
-6.965374 4.663772 30.284237 44 19 21
-6.897370 4.658750 30.251621 35 33 40
-6.831123 4.654836 30.226206 42 16 15
-6.767249 4.652484 30.210934 27 39 24
-6.704037 4.650548 30.198366 31 30 21
-6.643469 4.650428 30.197586 33 25 38
-6.590033 4.655345 30.229511 32 18 23
-6.539490 4.662414 30.275417 120 120 120
-6.492322 4.672045 30.337952 120 120 120
-6.447011 4.683206 30.410429 120 120 120
-6.396740 4.690943 30.460667 21 31 25
-6.349188 4.700841 30.524944 16 39 40
-6.295662 4.706466 30.561464 28 35 34
-6.242370 4.712377 30.599854 18 30 32
-6.195403 4.723228 30.670313 41 34 17
-6.145721 4.732206 30.728607 19 25 33
-6.099608 4.744140 30.806103 33 43 33
-6.048023 4.752018 30.857258 32 44 22
-5.995662 4.759443 30.905472 17 16 37
-5.946775 4.769809 30.972786 24 29 19
-5.893413 4.776766 31.017963 18 15 22
-5.844979 4.787908 31.090313 37 23 38
-5.793734 4.796962 31.149107 42 19 37
-5.742335 4.806084 31.208340 24 36 44
-5.692959 4.817120 31.279997 37 19 19
-5.638302 4.823880 31.323898 38 21 44
-5.589805 4.836123 31.403397 17 38 36
-5.539082 4.846697 31.472057 21 32 20
-5.489297 4.858343 31.547684 43 31 30
-5.442736 4.873148 31.643816 41 43 28
-5.390405 4.883073 31.708265 37 30 29
-5.345372 4.899924 31.817688 39 28 37
-5.296928 4.914018 31.909206 43 40 21
-5.249030 4.928967 32.006279 15 26 16
-5.205267 4.948216 32.131275 40 33 35
-5.154406 4.961116 32.215038 36 32 36
-5.108671 4.979337 32.333359 30 17 16
-5.056543 4.991715 32.413734 19 42 33
-5.004519 5.004519 32.496876 21 22 36
-4.958819 5.024067 32.623810 29 33 15
-4.907774 5.038648 32.718491 31 42 25
-4.863133 5.060287 32.859005 30 23 36
-10.233363 4.667850 29.922115 31 42 36
-10.168523 4.665557 29.907419 31 40 30
-10.103413 4.663114 29.891754 26 29 23
-10.041468 4.662110 29.885321 31 27 42
-9.980157 4.661391 29.880709 16 41 36
-9.916326 4.659479 29.868452 28 43 34
-9.853107 4.657832 29.857901 31 38 33
-9.787386 4.654976 29.839590 16 16 20
-9.721661 4.652083 29.821045 41 42 36
-9.657186 4.649756 29.806129 43 26 42
-9.594261 4.648151 29.795841 34 29 17
-9.534496 4.648067 29.795301 44 28 37
-9.477504 4.649341 29.803471 32 31 34
-9.420619 4.650685 29.812086 20 27 16
-9.366921 4.653630 29.830959 27 34 24
-9.316630 4.658315 29.860994 31 16 37
-9.265251 4.662513 29.887907 21 18 38
-9.221015 4.670384 29.938360 32 37 34
-9.175335 4.677622 29.984756 26 21 42
-9.130301 4.685286 30.033886 42 33 25
-9.087537 4.694224 30.091181 19 24 32
-9.037965 4.699742 30.126549 29 34 37
-8.990570 4.706473 30.169697 34 39 39
-8.938351 4.710753 30.197132 34 18 18
-8.883819 4.713863 30.217072 38 28 23
-8.830959 4.717909 30.243010 18 22 21
-8.774446 4.720047 30.256710 16 29 30
-8.719577 4.723104 30.276308 30 25 43
-8.663321 4.725448 30.291332 43 41 35
-8.606359 4.727437 30.304081 43 32 30
-8.550129 4.729859 30.319607 16 34 15
-8.491897 4.731200 30.328205 44 43 36
-8.434165 4.732841 30.338722 24 26 36
-8.375187 4.733801 30.344879 27 26 44
-8.315861 4.734578 30.349859 38 21 36
-8.257277 4.735791 30.357635 37 38 44
-8.197965 4.736602 30.362833 43 18 17
-8.140102 4.738268 30.373514 28 25 40
-8.082909 4.740353 30.386877 40 22 23
-8.024579 4.741797 30.396132 33 38 35
-7.964123 4.741997 30.397417 25 44 30
-7.901585 4.740951 30.390711 16 17 33
-7.837310 4.738839 30.377171 32 18 22
-7.772764 4.736528 30.362358 23 34 25
-7.708606 4.734419 30.348843 34 42 19
-7.645915 4.733186 30.340933 26 34 27
-7.585373 4.733273 30.341492 16 34 15
-7.524146 4.732931 30.339300 32 24 32
-7.462817 4.732518 30.336653 25 20 17
-7.400817 4.731670 30.331219 25 32 36
-7.338035 4.730304 30.322460 42 44 26
-7.275532 4.729096 30.314718 28 30 41
-7.209999 4.725882 30.294113 41 24 27
-7.144545 4.722665 30.273497 21 20 26
-7.077794 4.718529 30.246983 18 39 17
-7.009037 4.712973 30.211367 28 36 22
-6.942474 4.708808 30.184668 26 19 17
-6.874396 4.703534 30.150862 26 36 30
-6.808147 4.699429 30.124544 26 35 16
-6.744345 4.696954 30.108683 21 30 40
-6.681261 4.694940 30.095772 24 28 16
-6.620929 4.694841 30.095133 42 16 31
-6.567660 4.699793 30.126879 25 25 28
-6.517223 4.706884 30.172331 120 120 120
-6.470144 4.716554 30.234318 120 120 120
-6.424929 4.727778 30.306267 120 120 120
-6.374812 4.735575 30.356249 23 41 18
-6.327422 4.745567 30.420300 23 20 35
-6.274126 4.751280 30.456921 31 28 39
-6.221037 4.757264 30.495279 26 40 42
-6.174127 4.768138 30.564987 37 32 31
-6.124463 4.777081 30.622313 40 22 20
-6.078304 4.788967 30.698507 32 33 25
-6.026744 4.796796 30.748693 44 35 20
-5.974433 4.804183 30.796045 27 38 37
-5.925574 4.814529 30.862366 37 41 31
-5.872323 4.821487 30.906965 20 23 27
-5.824016 4.832694 30.978807 26 38 37
-5.773009 4.841879 31.037685 23 40 28
-5.721785 4.851079 31.096659 36 22 38
-5.672372 4.862034 31.166882 15 26 19
-5.617633 4.868615 31.209070 32 38 17
-5.568812 4.880532 31.285460 24 17 24
-5.517808 4.890785 31.351183 22 39 28
-5.467745 4.902116 31.423822 24 22 38
-5.420882 4.916614 31.516754 28 24 40
-5.368519 4.926405 31.579521 21 24 19
-5.323309 4.943073 31.686363 38 32 37
-5.274721 4.956966 31.775425 24 44 31
-5.226827 4.971860 31.870897 44 43 22
-5.183271 4.991298 31.995499 42 39 16
-5.132843 5.004522 32.080269 44 19 20
-5.087685 5.023283 32.200535 41 29 21
-5.036059 5.036059 32.282429 37 27 23
-4.984626 5.049361 32.367699 25 21 41
-4.939827 5.069822 32.498859 19 34 41
-4.889632 5.085217 32.597546 15 16 18
-10.066943 4.705849 29.783855 43 24 27
-10.005678 4.705051 29.778805 40 28 25
-9.945217 4.704624 29.776100 19 30 38
-9.881653 4.702714 29.764015 27 26 41
-9.818339 4.700902 29.752542 25 16 43
-9.752257 4.697734 29.732491 37 18 21
-9.686126 4.694503 29.712044 21 24 44
-9.621338 4.691887 29.695488 43 22 27
-9.558346 4.690120 29.684305 42 16 20
-9.498843 4.690054 29.683886 16 31 40
-9.442273 4.691444 29.692682 19 26 16
-9.385946 4.692973 29.702360 41 28 39
-9.332745 4.696095 29.722118 26 41 16
-9.282672 4.700840 29.752153 24 30 37
-9.231293 4.704982 29.778366 15 31 40
-9.187038 4.712831 29.828045 31 24 34
-9.141510 4.720126 29.874216 34 38 39
-9.096582 4.727829 29.922968 39 38 38
-9.053799 4.736756 29.979465 36 37 39
-9.004232 4.742229 30.014107 25 42 24
-8.956324 4.748655 30.054779 44 17 34
-8.903372 4.752475 30.078959 26 16 24
-8.848136 4.755121 30.095701 19 26 25
-8.794777 4.758818 30.119099 30 29 31
-8.738279 4.760856 30.131998 24 23 25
-8.683672 4.763959 30.151638 44 28 22
-8.627968 4.766500 30.167719 31 17 23
-8.571672 4.768747 30.181944 31 20 39
-8.515925 4.771334 30.198315 18 18 16
-8.457981 4.772718 30.207075 24 26 29
-8.400582 4.774432 30.217922 29 17 33
-8.341914 4.775443 30.224325 40 29 23
-8.282929 4.776288 30.229670 37 33 39
-8.224801 4.777642 30.238237 22 18 30
-8.165923 4.778577 30.244160 26 26 26
-8.108546 4.780412 30.255770 29 30 38
-8.051742 4.782614 30.269709 16 35 28
-7.993793 4.784164 30.279520 27 38 16
-7.933788 4.784498 30.281635 28 25 23
-7.871650 4.783541 30.275576 34 36 30
-7.807725 4.781475 30.262501 22 33 21
-7.743388 4.779122 30.247608 36 38 30
-7.679424 4.776964 30.233952 17 28 17
-7.617114 4.775810 30.226643 20 40 27
-7.557000 4.776024 30.227999 43 24 40
-7.495896 4.775611 30.225388 42 40 42
-7.434529 4.775023 30.221664 18 43 18
-7.372231 4.773822 30.214062 25 40 19
-7.308905 4.771930 30.202085 36 18 36
-7.245962 4.770258 30.191509 33 35 22
-7.179929 4.766508 30.167770 34 36 19
-7.114336 4.762988 30.145493 17 42 16
-7.047586 4.758627 30.117889 33 32 27
-6.978754 4.752772 30.080835 40 39 31
-6.912286 4.748440 30.053419 18 25 28
-6.844280 4.742966 30.018772 33 28 15
-6.778149 4.738706 29.991812 19 27 37
-6.714560 4.736163 29.975716 22 15 15
-6.651775 4.734146 29.962950 24 27 18
-6.591827 4.734130 29.962849 21 19 38
-6.538850 4.739167 29.994726 19 31 26
-6.488664 4.746337 30.040110 120 120 120
-6.441692 4.756015 30.101362 120 120 120
-6.396369 4.767105 30.171553 120 120 120
-6.346126 4.774704 30.219646 44 17 41
-6.298609 4.784520 30.281775 18 29 24
-6.245388 4.790152 30.317417 17 15 38
-6.192528 4.796174 30.355530 27 41 18
-6.145983 4.807254 30.425657 21 25 16
-6.096807 4.816477 30.484034 20 15 44
-6.050881 4.828481 30.560007 19 32 35
-5.999278 4.836153 30.608562 44 44 42
-5.946851 4.843312 30.653872 20 42 24
-5.897986 4.853551 30.718679 19 28 16
-5.844912 4.860506 30.762695 22 25 33
-5.796844 4.871816 30.834276 40 33 21
-5.746236 4.881211 30.893742 40 28 19
-5.695357 4.890578 30.953026 30 36 41
-5.646073 4.901536 31.022379 17 21 17
-5.591367 4.907978 31.063152 28 27 23
-5.542404 4.919662 31.137100 43 27 30
-5.491288 4.929679 31.200500 37 28 18
-5.441155 4.940819 31.271008 43 22 22
-5.394320 4.955248 31.362328 41 19 44
-5.342209 4.965112 31.424761 34 24 32
-5.297167 4.981859 31.530754 19 20 15
-5.248661 4.995713 31.618439 17 29 35
-5.200980 5.010701 31.713295 27 28 32
-5.157878 5.030523 31.838751 24 42 31
-5.108047 5.044196 31.925293 28 36 37
-5.063637 5.063637 32.048336 29 41 30
-5.012645 5.076910 32.132339 25 28 17
-4.961884 5.090764 32.220028 43 26 29
-4.918131 5.112268 32.356125 41 31 26
-9.923963 4.753994 29.712465 36 21 21
-9.860335 4.751969 29.699804 38 34 15
-9.796851 4.749988 29.687428 36 32 16
-9.730334 4.746504 29.665651 21 40 19
-9.663783 4.742961 29.643505 21 21 27
-9.598641 4.740070 29.625435 44 34 15
-9.535403 4.738088 29.613052 22 34 15
-9.475958 4.737979 29.612368 34 16 32
-9.419459 4.739350 29.620939 41 17 19
-9.363329 4.740926 29.630789 41 30 20
-9.310268 4.744086 29.650536 40 41 32
-9.260089 4.748764 29.679773 35 35 32
-9.208529 4.752789 29.704931 23 33 19
-9.163980 4.760509 29.753183 17 37 37
-9.118319 4.767749 29.798429 39 31 27
-9.073221 4.775379 29.846121 25 21 23
-9.030132 4.784176 29.901100 29 30 34
-8.980387 4.789540 29.934624 29 33 41
-8.931983 4.795695 29.973097 15 18 23
-8.878520 4.799200 29.995001 25 37 44
-8.822855 4.801554 30.009712 16 18 40
-8.769192 4.805037 30.031481 28 31 43
-8.712753 4.807036 30.043976 28 27 27
-8.658404 4.810224 30.063902 31 33 22
-8.603134 4.812942 30.080887 17 41 23
-8.547365 4.815417 30.096357 29 32 40
-8.492046 4.818182 30.113638 30 17 38
-8.434388 4.819650 30.122814 42 22 24
-8.377311 4.821474 30.134211 29 36 34
-8.318909 4.822556 30.140976 40 19 39
-8.260192 4.823470 30.146687 24 24 16
-8.202405 4.824944 30.155901 21 22 35
-8.143843 4.825981 30.162380 34 37 31
-8.086804 4.827943 30.174641 22 28 34
-8.030248 4.830225 30.188904 39 39 35
-7.972534 4.831839 30.198992 32 25 39
-7.912828 4.832261 30.201633 31 15 29
-7.850952 4.831355 30.195971 20 31 27
-7.787281 4.829322 30.183260 29 19 17
-7.723211 4.827007 30.168793 34 23 26
-7.659370 4.824800 30.154999 31 21 35
-7.596921 4.823442 30.146513 16 36 33
-7.536564 4.823401 30.146255 35 40 34
-7.475404 4.822841 30.142757 44 26 34
-7.414386 4.822365 30.139782 18 36 33
-7.352430 4.821266 30.132912 41 33 19
-7.289014 4.819183 30.119894 40 44 40
-7.225819 4.817213 30.107578 42 42 31
-7.159543 4.813138 30.082111 29 18 42
-7.093951 4.809459 30.059116 29 36 23
-7.027319 4.805004 30.031277 21 22 40
-6.958578 4.799019 29.993870 15 37 40
-6.892265 4.794619 29.966372 27 26 17
-6.824455 4.789091 29.931822 17 43 23
-6.758519 4.784792 29.904951 38 38 21
-6.695177 4.782270 29.889185 19 35 15
-6.632710 4.780331 29.877071 40 15 43
-6.573068 4.780413 29.877581 17 37 28
-6.520356 4.785583 29.909891 15 27 31
-6.470420 4.792904 29.955650 120 120 120
-6.423511 4.802625 30.016405 120 120 120
-6.377949 4.813546 30.084663 120 120 120
-6.327378 4.820859 30.130371 27 42 36
-6.279537 4.830413 30.190083 28 41 31
-6.226176 4.835865 30.224154 42 19 29
-6.173430 4.841906 30.261909 43 36 25
-6.127296 4.853304 30.333149 42 16 20
-6.078751 4.863001 30.393755 22 44 39
-6.033151 4.875274 30.470461 17 24 42
-5.981439 4.882807 30.517546 21 17 42
-5.928779 4.889715 30.560717 27 40 32
-5.879850 4.899875 30.624220 27 35 24
-5.826904 4.906866 30.667913 20 34 22
-5.779032 4.918325 30.739531 33 16 28
-5.728726 4.927937 30.799604 24 16 17
-5.678151 4.937523 30.859516 23 16 32
-5.629030 4.948597 30.928734 23 19 15
-5.574408 4.955029 30.968931 21 37 20
-5.525492 4.966734 31.042089 36 32 44
-5.474442 4.976765 31.104784 44 22 26
-5.424450 4.988000 31.174997 30 40 34
-5.377870 5.002670 31.266685 15 23 16
-5.326092 5.012793 31.329954 16 37 17
-5.281390 5.029895 31.436844 36 34 35
-5.233101 5.043953 31.524704 33 17 42
-5.185671 5.059191 31.619944 28 19 33
-5.142965 5.079471 31.746696 32 30 18
-5.093541 5.093541 31.834629 19 31 26
-5.049606 5.113525 31.959534 24 42 16
-4.998996 5.127175 32.044846 38 43 41
-9.829183 4.796168 29.605972 43 29 21
-9.765300 4.793874 29.591818 44 41 25
-9.698043 4.789887 29.567204 28 40 18
-9.630826 4.785870 29.542410 37 29 22
-9.565152 4.782576 29.522074 19 15 44
-9.501550 4.780283 29.507919 42 28 41
-9.442184 4.780106 29.506824 27 31 36
-9.385681 4.781384 29.514719 26 26 19
-9.329631 4.782912 29.524149 28 35 33
-9.276541 4.785986 29.543123 22 41 18
-9.226022 4.790435 29.570583 36 23 26
-9.174120 4.794218 29.593937 28 35 39
-9.129019 4.801627 29.639671 15 37 25
-9.083069 4.808683 29.683231 25 35 25
-9.037669 4.816126 29.729174 15 30 42
