ply
format ascii 1.0
element vertex 1255
property float x
property float y
property float z
property uchar red
property uchar green
property uchar blue
end_header
-6.285777 3.270303 21.235733 16 25 30
-6.248704 3.273131 21.254095 31 37 44
-6.213208 3.276829 21.278111 28 23 35
-6.175064 3.279172 21.293325 43 33 27
-6.138862 3.282586 21.315493 37 39 41
-6.101083 3.285198 21.332457 15 41 39
-6.062791 3.287570 21.347855 26 32 39
-6.025494 3.290518 21.367001 42 36 30
-5.985969 3.292283 21.378462 32 35 22
-5.947113 3.294444 21.392494 38 17 26
-5.906614 3.295719 21.400776 34 32 25
-5.865727 3.296795 21.407763 32 17 15
-5.825941 3.298511 21.418901 27 28 24
-5.785199 3.299706 21.426664 23 33 41
-5.745842 3.301715 21.439709 15 41 43
-5.706188 3.303582 21.451834 41 38 20
-5.666079 3.305213 21.462421 15 23 19
-5.625560 3.306627 21.471601 18 21 27
-5.583349 3.307061 21.474421 44 22 25
-5.541614 3.307785 21.479122 33 36 36
-5.499349 3.308202 21.481831 29 31 36
-5.457513 3.308886 21.486273 25 33 44
-5.416857 3.310302 21.495466 37 25 31
-5.375993 3.311612 21.503971 31 15 44
-5.337078 3.314153 21.520475 34 15 25
-5.298119 3.316709 21.537069 39 42 43
-5.258926 3.319158 21.552977 43 16 23
-5.219603 3.321565 21.568605 21 34 15
-5.178237 3.322702 21.575989 21 18 37
-5.135827 3.323182 21.579103 41 36 33
-5.091966 3.322723 21.576126 30 35 40
-5.047192 3.321657 21.569199 30 35 40
-5.002551 3.320659 21.562721 30 35 40
-4.958331 3.319926 21.557961 26 23 16
-4.914677 3.319562 21.555599 16 34 19
-4.871512 3.319526 21.555363 27 15 17
-4.829404 3.320215 21.559837 41 39 18
-4.787940 3.321364 21.567297 28 44 34
-4.746462 3.322523 21.574825 24 29 28
-4.708161 3.325949 21.597069 30 15 44
-4.670189 3.329672 21.621244 120 120 120
-4.633224 3.334189 21.650578 120 120 120
-4.597281 3.339535 21.685289 120 120 120
-4.558791 3.343113 21.708527 36 26 38
-4.521916 3.347957 21.739979 29 21 21
-4.482267 3.350821 21.758577 28 24 27
-4.443134 3.354130 21.780067 36 20 41
-4.407629 3.360271 21.819944 44 43 29
-4.370786 3.365505 21.853931 18 15 31
-4.335792 3.372283 21.897942 40 44 35
-4.297314 3.376461 21.925074 42 41 17
-4.258605 3.380542 21.951572 28 16 15
-4.222393 3.386711 21.991632 39 17 31
-4.183885 3.391149 22.020447 19 38 43
-4.148984 3.398635 22.069061 23 29 35
-4.112618 3.405071 22.110849 38 44 43
-4.076150 3.411560 22.152987 33 41 15
-4.040606 3.418974 22.201130 22 28 25
-4.001223 3.423269 22.229019 38 41 41
-3.965418 3.430755 22.277632 23 42 35
-3.928393 3.437344 22.320415 35 23 35
-3.891257 3.443986 22.363548 20 36 33
-3.855235 3.451780 22.414156 28 17 24
-3.815547 3.456437 22.444395 26 42 41
-3.778515 3.463639 22.491163 40 42 29
-3.739304 3.468993 22.525928 16 38 38
-3.700375 3.474743 22.563265 40 16 26
-3.664074 3.483132 22.617741 43 25 36
-3.625246 3.489299 22.657787 31 32 19
-3.589188 3.498322 22.716377 35 31 20
-3.550193 3.504678 22.757647 22 34 19
-3.511433 3.511433 22.801510 31 35 37
-3.475468 3.521198 22.864920 16 19 18
-3.436634 3.528278 22.910894 40 41 25
-3.402028 3.539948 22.986673 32 38 35
-3.365385 3.549790 23.050585 32 31 41
-3.328516 3.559663 23.114695 15 34 38
-3.293167 3.571463 23.191317 23 43 22
-3.253312 3.578643 23.237944 15 37 26
-3.215992 3.588860 23.304289 32 17 44
-3.176498 3.596917 23.356604 32 20 39
-3.135516 3.603503 23.399370 40 20 20
-3.094824 3.610627 23.445633 27 23 26
-3.050688 3.613892 23.466831 38 38 16
-3.006554 3.617260 23.488701 26 36 40
-7.251323 3.232018 20.718065 40 22 27
-7.210571 3.232325 20.720032 17 38 22
-7.169343 3.232421 20.720646 39 21 43
-7.128690 3.232778 20.722935 22 44 27
-7.089103 3.233626 20.728371 38 40 38
-7.049497 3.234475 20.733814 42 24 38
-7.012879 3.236713 20.748163 44 26 32
-6.976080 3.238894 20.762142 35 31 28
-6.940758 3.241791 20.780712 36 27 29
-6.907506 3.245695 20.805740 18 37 42
-6.872122 3.248640 20.824614 15 16 27
-6.840036 3.253188 20.853769 43 27 36
-6.805779 3.256753 20.876621 23 27 31
-6.771488 3.260346 20.899654 26 38 27
-6.739297 3.265001 20.929493 17 22 22
-6.703726 3.268067 20.949144 32 41 33
-6.670027 3.272089 20.974928 27 40 33
-6.633531 3.274781 20.992186 19 20 27
-6.596264 3.277125 21.007212 44 22 42
-6.560554 3.280277 21.027418 16 18 17
-6.522394 3.282237 21.039982 17 40 34
-6.486718 3.285480 21.060772 18 32 15
-6.449543 3.288002 21.076937 32 26 24
-6.412946 3.290854 21.095217 42 24 39
-6.378870 3.295045 21.122086 22 32 25
-6.342708 3.298208 21.142359 42 27 35
-6.308524 3.302449 21.169544 16 19 42
-6.271669 3.305339 21.188072 25 21 20
-6.234240 3.307964 21.204897 27 42 41
-6.198449 3.311500 21.227566 41 26 31
-6.160203 3.313764 21.242079 20 38 27
-6.123772 3.317043 21.263098 44 36 20
-6.085820 3.319538 21.279091 28 25 22
-6.047366 3.321792 21.293541 27 15 29
-6.009839 3.324592 21.311485 24 29 33
-5.970206 3.326258 21.322165 34 31 33
-5.931279 3.328343 21.335535 22 19 32
-5.890830 3.329600 21.343588 35 29 26
-5.850078 3.330702 21.350651 36 15 16
-5.810399 3.332435 21.361761 40 24 16
-5.769790 3.333656 21.369593 18 21 26
-5.730605 3.335725 21.382854 26 19 43
-5.691116 3.337647 21.395174 20 40 42
-5.651214 3.339354 21.406113 29 35 40
-5.610958 3.340876 21.415871 15 33 22
-5.568996 3.341397 21.419214 37 35 37
-5.527595 3.342267 21.424788 29 29 40
-5.485655 3.342821 21.428341 27 29 22
-5.444097 3.343619 21.433453 27 29 29
-5.403671 3.345130 21.443138 41 42 18
-5.362915 3.346459 21.451658 43 16 21
-5.324040 3.348993 21.467905 16 27 34
-5.285213 3.351598 21.484604 33 38 20
-5.245906 3.353940 21.499617 36 38 29
-5.205949 3.355901 21.512184 19 34 31
-5.163850 3.356502 21.516041 35 34 40
-5.120899 3.356556 21.516382 41 26 21
-5.077066 3.356027 21.512993 39 42 22
-5.032555 3.355037 21.506645 30 35 40
-4.988046 3.354031 21.500198 16 20 29
-4.943966 3.353299 21.495506 27 22 23
-4.900412 3.352914 21.493036 21 41 32
-4.857321 3.352841 21.492569 22 31 17
-4.815276 3.353496 21.496767 39 39 29
-4.773838 3.354589 21.503777 41 18 41
-4.732396 3.355699 21.510889 16 16 26
-4.694414 3.359305 21.534008 44 42 21
-4.657050 3.363425 21.560415 120 120 120
-4.620636 3.368314 21.591757 120 120 120
-4.584897 3.373792 21.626875 120 120 120
-4.546303 3.377254 21.649063 29 28 43
-4.509267 3.381950 21.679169 31 23 24
-4.469554 3.384711 21.696865 41 34 43
-4.430366 3.387927 21.717482 40 18 19
-4.394765 3.393977 21.756262 41 41 26
-4.357915 3.399174 21.789577 40 35 26
-4.322935 3.405949 21.833004 34 28 44
-4.284555 3.410156 21.859976 20 18 40
-4.245993 3.414303 21.886560 31 37 27
-4.209901 3.420545 21.926569 23 29 26
-4.171524 3.425040 21.955387 26 25 16
-4.136762 3.432633 22.004055 30 32 24
-4.100547 3.439169 22.045954 38 42 26
-4.064216 3.445749 22.088133 37 19 22
-4.028777 3.453238 22.136139 34 17 17
-3.989482 3.457551 22.163788 18 40 43
-3.953783 3.465113 22.212263 24 30 40
-3.916893 3.471791 22.255074 42 42 36
-3.879905 3.478536 22.298307 30 17 24
-3.844023 3.486439 22.348970 18 18 24
-3.804471 3.491162 22.379244 27 17 17
-3.767577 3.498464 22.426052 17 30 44
-3.728528 3.503918 22.461014 36 31 31
-3.689716 3.509730 22.498268 33 23 37
-3.653456 3.518143 22.552200 21 40 30
-3.614646 3.524280 22.591536 16 15 29
-3.578453 3.533156 22.648434 32 39 30
-3.539321 3.539321 22.687954 30 34 28
-3.500395 3.545855 22.729839 30 17 31
-3.464237 3.555401 22.791035 33 26 18
-3.425343 3.562357 22.835623 15 28 27
-3.390605 3.573881 22.909491 25 15 15
-3.353887 3.583605 22.971827 23 25 44
-3.317013 3.593431 23.034813 40 32 18
-3.281703 3.605251 23.110586 25 25 43
-3.242010 3.612525 23.157211 36 16 21
-3.204878 3.622905 23.223753 33 40 44
-3.165725 3.631272 23.277388 32 44 16
-3.124875 3.637914 23.319963 31 39 36
-3.083759 3.644442 23.361811 19 19 27
-3.039023 3.646828 23.377102 23 28 25
-7.228491 3.263147 20.652832 15 31 37
-7.187167 3.263139 20.652779 38 15 25
-7.145438 3.262946 20.651556 39 43 38
-7.104486 3.263107 20.652576 28 41 22
-7.064793 3.263852 20.657290 20 34 33
-7.025428 3.264758 20.663025 24 31 17
-6.989242 3.267161 20.678232 19 41 32
-6.952949 3.269541 20.693300 34 38 38
-6.918148 3.272657 20.713018 39 30 37
-6.885297 3.276738 20.738848 22 30 26
-6.850113 3.279751 20.757917 27 41 15
-6.818291 3.284421 20.787474 38 26 18
-6.784348 3.288120 20.810884 37 37 24
-6.750290 3.291808 20.834229 25 38 28
-6.718201 3.296509 20.863979 40 28 40
-6.682625 3.299546 20.883204 31 18 42
-6.648785 3.303484 20.908129 15 17 44
-6.612086 3.306043 20.924322 37 37 40
-6.574715 3.308296 20.938583 20 21 43
-6.539104 3.311470 20.958668 22 38 44
-6.501234 3.313532 20.971724 18 40 32
-6.466077 3.317014 20.993757 42 17 44
-6.429484 3.319799 21.011385 39 40 29
-6.393444 3.322909 21.031067 26 41 38
-6.359805 3.327315 21.058958 30 25 36
-6.323833 3.330552 21.079445 44 38 29
-6.289649 3.334780 21.106203 42 15 33
-6.252664 3.337570 21.123863 27 22 16
-6.215004 3.340036 21.139469 44 16 38
-6.179022 3.343444 21.161036 38 39 43
-6.140733 3.345641 21.174940 16 33 33
-6.104129 3.348793 21.194891 40 40 16
-6.066057 3.351178 21.209990 44 17 44
-6.027477 3.353315 21.223511 37 19 42
-5.989741 3.355954 21.240217 29 24 30
-5.950013 3.357507 21.250046 21 16 27
-5.910981 3.359478 21.262520 39 24 34
-5.870556 3.360681 21.270130 34 17 32
-5.829888 3.361760 21.276962 25 39 18
-5.790244 3.363451 21.287663 37 44 32
-5.749711 3.364646 21.295227 21 26 41
-5.710630 3.366714 21.308319 24 19 15
-5.671267 3.368647 21.320553 40 31 21
-5.631546 3.370395 21.331614 37 33 35
-5.591519 3.371985 21.341677 25 44 27
-5.549809 3.372576 21.345419 38 37 39
-5.508712 3.373553 21.351599 33 36 18
-5.467068 3.374206 21.355734 43 42 41
-5.425773 3.375087 21.361313 32 32 22
-5.385632 3.376706 21.371557 18 40 44
-5.345109 3.378109 21.380436 28 35 34
-5.306059 3.380473 21.395399 42 24 35
-5.266784 3.382731 21.409693 21 43 44
-5.226922 3.384646 21.421812 37 18 28
-5.186472 3.386209 21.431704 16 30 25
-5.144198 3.386597 21.434158 30 40 21
-5.101118 3.386456 21.433268 20 37 24
-5.057359 3.385859 21.429489 20 37 41
-5.013040 3.384873 21.423246 26 19 43
-4.968675 3.383839 21.416704 22 19 35
-4.924775 3.383106 21.412066 36 41 24
-4.881374 3.382706 21.409534 42 33 20
-4.838416 3.382609 21.408918 22 22 21
-4.796512 3.383254 21.413002 25 18 20
-4.755204 3.384334 21.419838 28 21 44
-4.713903 3.385439 21.426832 18 38 38
-4.676303 3.389247 21.450933 27 38 16
-4.639562 3.393753 21.479452 120 120 120
-4.603696 3.398990 21.512596 120 120 120
-4.568166 3.404577 21.547953 120 120 120
-4.529487 3.407900 21.568987 19 29 16
-4.492314 3.412431 21.597664 16 29 17
-4.452585 3.415090 21.614492 33 34 41
-4.413394 3.418217 21.634283 15 16 16
-4.377740 3.424173 21.671978 44 26 31
-4.340916 3.429324 21.704582 39 18 19
-4.305962 3.436071 21.747282 20 22 38
-4.267689 3.440280 21.773926 28 40 41
-4.229275 3.444461 21.800386 41 23 40
-4.193308 3.450743 21.840145 40 26 35
-4.155086 3.455282 21.868872 44 43 24
-4.120469 3.462947 21.917389 15 38 33
-4.084409 3.469551 21.959187 27 24 27
-4.048235 3.476202 22.001278 31 22 41
-4.012931 3.483753 22.049070 39 44 35
-3.973778 3.488094 22.076546 25 38 15
-3.938254 3.495754 22.125023 35 21 30
-3.901570 3.502546 22.168013 36 37 33
-3.864821 3.509435 22.211617 17 17 33
-3.829199 3.517520 22.262787 20 23 37
-3.789894 3.522372 22.293495 16 44 18
-3.753290 3.529880 22.341015 41 35 16
-3.714551 3.535536 22.376812 34 42 38
-3.675991 3.541503 22.414577 34 23 28
-3.639909 3.550035 22.468576 44 44 27
-3.601202 3.556187 22.507515 19 34 19
-3.564949 3.564949 22.562967 33 44 22
-3.525725 3.570927 22.600801 38 34 16
-3.486649 3.577211 22.640575 31 27 27
-3.450305 3.586501 22.699375 15 19 31
-3.411358 3.593298 22.742390 17 29 18
-3.376442 3.604580 22.813799 26 37 17
-3.339587 3.614074 22.873886 26 39 15
-3.302655 3.623746 22.935102 42 38 22
-3.267408 3.635566 23.009912 22 41 24
-3.227967 3.642992 23.056910 42 41 17
-3.190832 3.653271 23.121969 17 41 19
-3.151534 3.661341 23.173042 25 41 43
-3.110448 3.667544 23.212301 21 43 38
-3.069034 3.673540 23.250256 17 37 22
-3.024171 3.675531 23.262854 18 34 36
-7.171956 3.297451 20.609068 21 41 25
-7.129901 3.297064 20.606649 42 30 30
-7.088739 3.297088 20.606798 20 34 39
-7.048980 3.297768 20.611052 27 40 37
-7.009764 3.298712 20.616953 34 44 30
-6.973824 3.301219 20.632616 42 15 17
-6.937799 3.303714 20.648211 30 34 41
-6.903255 3.306949 20.668428 35 31 27
-6.870585 3.311125 20.694534 23 27 39
-6.835472 3.314168 20.713552 21 26 37
-6.803760 3.318907 20.743170 19 38 37
-6.770008 3.322703 20.766895 15 28 29
-6.736037 3.326438 20.790237 32 44 40
-6.703779 3.331070 20.819189 17 29 31
-6.667934 3.333967 20.837294 32 23 33
-6.633868 3.337795 20.861219 28 23 41
-6.597097 3.340302 20.876888 23 43 37
-6.559837 3.342592 20.891201 28 19 39
-6.524488 3.345891 20.911819 39 24 37
-6.486978 3.348118 20.925735 28 21 40
-6.452268 3.351828 20.948923 38 42 41
-6.416047 3.354796 20.967474 36 40 29
-6.380302 3.358054 20.987835 18 29 22
-6.346883 3.362587 21.016169 43 34 28
-6.310976 3.365854 21.036587 32 28 41
-6.276812 3.370100 21.063128 37 16 33
-6.239851 3.372892 21.080578 38 23 37
-6.202182 3.375337 21.095856 22 37 32
-6.166175 3.378726 21.117037 41 30 20
-6.127891 3.380905 21.130657 42 15 39
-6.091236 3.384020 21.150126 28 43 38
-6.053142 3.386373 21.164831 34 25 30
-6.014526 3.388466 21.177910 21 35 25
-5.976701 3.391036 21.193974 17 21 38
-5.936925 3.392528 21.203302 21 15 29
-5.897824 3.394431 21.215195 44 31 24
-5.857402 3.395595 21.222471 44 43 30
-5.816754 3.396645 21.229029 38 36 21
-5.777078 3.398281 21.239256 18 27 41
-5.736553 3.399439 21.246494 37 17 22
-5.697466 3.401472 21.259203 38 40 17
-5.658143 3.403394 21.271214 42 41 42
-5.618499 3.405151 21.282192 33 25 24
-5.578577 3.406765 21.292280 29 29 17
-5.536999 3.407384 21.296148 35 37 23
-5.496044 3.408399 21.302496 19 23 24
-5.454528 3.409080 21.306749 16 35 42
-5.413355 3.409987 21.312422 28 23 35
-5.373418 3.411694 21.323086 37 30 35
-5.333120 3.413197 21.332481 20 38 30
-5.293796 3.415352 21.345951 22 42 30
-5.253812 3.417114 21.356960 25 38 23
-5.213268 3.418536 21.365850 19 21 27
-5.172620 3.419914 21.374462 43 33 40
-5.130645 3.420430 21.377687 36 29 24
-5.087816 3.420380 21.377377 39 28 26
-5.044183 3.419785 21.373655 16 24 28
-4.999971 3.418784 21.367399 19 23 35
-4.955714 3.417734 21.360836 42 43 31
-4.911907 3.416978 21.356115 24 26 26
-4.868589 3.416554 21.353462 27 16 43
-4.825704 3.416428 21.352674 20 39 33
-4.783879 3.417056 21.356602 35 21 35
-4.742633 3.418114 21.363213 19 35 39
-4.701411 3.419208 21.370049 15 18 17
-4.664033 3.423143 21.394646 32 33 39
-4.627648 3.427888 21.424297 120 120 120
-4.592113 3.433355 21.458471 120 120 120
-4.556712 3.439028 21.493925 120 120 120
-4.518004 3.442289 21.514303 44 21 32
-4.480797 3.446767 21.542292 44 20 32
-4.441117 3.449412 21.558823 26 15 24
-4.401988 3.452540 21.578373 26 42 22
-4.366376 3.458516 21.615725 40 23 42
-4.329621 3.463697 21.648104 16 31 23
-4.294716 3.470477 21.690483 19 31 34
-4.256505 3.474698 21.716864 27 32 38
-4.218168 3.478902 21.743135 32 27 25
-4.182285 3.485238 21.782736 24 21 15
-4.144173 3.489830 21.811436 34 21 32
-4.109653 3.497577 21.859858 25 39 20
-4.073681 3.504242 21.901512 22 30 35
-4.037604 3.510960 21.943501 39 37 22
-4.002409 3.518602 21.991261 19 30 32
-3.963383 3.523007 22.018793 40 24 29
-3.928032 3.530815 22.067596 16 44 19
-3.891517 3.537743 22.110893 44 33 23
-3.854976 3.544806 22.155037 38 16 28
-3.819603 3.553120 22.206997 15 33 22
-3.780525 3.558141 22.238380 35 40 39
-3.744210 3.565915 22.286966 15 16 34
-3.705754 3.571811 22.323818 34 28 44
-3.667425 3.577976 22.362349 43 40 18
-3.631528 3.586694 22.416840 16 31 15
-3.592917 3.592917 22.455734 38 44 27
-3.556641 3.601662 22.510387 27 33 25
-3.517367 3.607556 22.547224 41 29 28
-3.478170 3.613683 22.585518 26 28 37
-3.441660 3.622800 22.642498 18 36 17
-3.402629 3.629471 22.684193 28 28 28
-3.367504 3.640545 22.753408 22 34 43
-3.330468 3.649828 22.811426 32 23 35
-3.293406 3.659341 22.870878 24 32 30
-3.258148 3.671152 22.944702 29 31 37
-3.218875 3.678714 22.991964 23 20 39
-3.181538 3.688740 23.054625 19 38 35
-3.141724 3.696145 23.100908 38 16 40
-3.100196 3.701727 23.135794 34 17 32
-3.058732 3.707554 23.172213 29 41 41
-7.064844 3.327048 20.537336 22 40 26
-7.024772 3.327524 20.540270 17 27 36
-6.985625 3.328445 20.545956 40 20 22
-6.949723 3.330932 20.561310 27 37 15
-6.913794 3.333437 20.576769 21 30 21
-6.879353 3.336692 20.596867 16 19 24
-6.846654 3.340837 20.622452 36 29 20
-6.811506 3.343830 20.640926 21 25 27
-6.779829 3.348574 20.670212 24 43 37
-6.746294 3.352453 20.694153 37 22 17
-6.712539 3.356270 20.717714 19 15 18
-6.680301 3.360897 20.746277 22 23 16
-6.644396 3.363726 20.763739 24 40 43
-6.610408 3.367566 20.787445 27 23 26
-6.573839 3.370133 20.803289 43 28 40
-6.536974 3.372579 20.818388 24 34 32
-6.502220 3.376153 20.840448 24 40 29
-6.465305 3.378643 20.855822 27 15 44
-6.431304 3.382699 20.880857 24 23 40
-6.395642 3.385928 20.900791 35 38 18
-6.360305 3.389373 20.922056 21 28 19
-6.327186 3.394053 20.950947 17 43 35
-6.291353 3.397331 20.971178 37 42 41
-6.257267 3.401601 20.997540 27 34 16
-6.220430 3.404424 21.014965 28 23 41
-6.182868 3.406886 21.030163 32 40 29
-6.146942 3.410290 21.051172 33 30 42
-6.108748 3.412473 21.064648 43 36 24
-6.072083 3.415547 21.083622 40 40 28
-6.033982 3.417850 21.097837 41 32 36
-5.995298 3.419853 21.110205 32 38 19
-5.957306 3.422282 21.125198 29 32 39
-5.917417 3.423648 21.133631 18 36 38
-5.878173 3.425410 21.144506 41 41 40
-5.837765 3.426514 21.151321 29 30 23
-5.797135 3.427503 21.157429 38 25 27
-5.757345 3.429007 21.166710 42 27 16
-5.716742 3.430045 21.173117 42 39 16
-5.677516 3.431932 21.184763 18 17 15
-5.638140 3.433754 21.196014 39 39 40
-5.598489 3.435436 21.206398 36 38 39
-5.558560 3.436972 21.215879 42 42 44
-5.517079 3.437565 21.219536 28 27 31
-5.476166 3.438523 21.225449 24 16 41
-5.434743 3.439173 21.229464 33 28 42
-5.393572 3.439995 21.234537 22 29 19
-5.353499 3.441535 21.244043 43 35 16
-5.313079 3.442875 21.252317 24 39 29
-5.273256 3.444627 21.263128 30 22 18
-5.232631 3.445879 21.270857 44 44 16
-5.191565 3.446859 21.276907 24 36 15
-5.150750 3.448023 21.284092 30 27 39
-5.109073 3.448625 21.287806 18 44 20
-5.066550 3.448660 21.288027 18 16 31
-5.023158 3.448100 21.284567 27 41 44
-4.979198 3.447137 21.278624 28 37 28
-4.935191 3.446125 21.272375 16 38 24
-4.891597 3.445386 21.267815 41 19 33
-4.848481 3.444973 21.265268 27 16 17
-4.805755 3.444833 21.264400 23 28 35
-4.764086 3.445455 21.268242 35 27 38
-4.723010 3.446521 21.274818 41 22 31
-4.681968 3.447631 21.281672 28 40 41
-4.644881 3.451701 21.306795 27 43 43
-4.608874 3.456655 21.337379 120 120 120
-4.573701 3.462334 21.372435 120 120 120
-4.538550 3.468137 21.408253 120 120 120
-4.499972 3.471407 21.428436 16 17 16
-4.462885 3.475901 21.456177 22 44 35
-4.423349 3.478556 21.472569 18 15 30
-4.384355 3.481694 21.491938 40 17 43
-4.348860 3.487699 21.529009 27 17 18
-4.312232 3.492908 21.561161 24 28 26
-4.277434 3.499719 21.603201 21 34 34
-4.239352 3.503954 21.629345 31 18 24
-4.201139 3.508167 21.655354 44 43 24
-4.165376 3.514536 21.694668 25 35 43
-4.127404 3.519155 21.723179 40 22 27
-4.093014 3.526959 21.771351 27 40 19
-4.057167 3.533661 21.812725 15 19 26
-4.021243 3.540442 21.854582 38 44 39
-3.986226 3.548179 21.902340 25 42 16
-3.947404 3.552663 21.930021 17 16 21
-3.912295 3.560628 21.979183 32 23 19
-3.876009 3.567690 22.022776 20 35 15
-3.839731 3.574922 22.067419 26 28 19
-3.804680 3.583478 22.120234 39 30 29
-3.765907 3.588688 22.152395 21 41 33
-3.729964 3.596751 22.202164 19 42 20
-3.691864 3.602903 22.240145 17 22 44
-3.653842 3.609283 22.279524 32 38 43
-3.618195 3.618195 22.334536 25 44 39
-3.579734 3.624481 22.373339 16 15 32
-3.543500 3.633209 22.427217 17 38 16
-3.504237 3.639015 22.463058 18 41 17
-3.464996 3.644995 22.499971 15 29 32
-3.428406 3.653959 22.555302 21 38 35
-3.389375 3.660525 22.595831 21 33 16
-3.354121 3.671403 22.662979 36 32 41
-3.317017 3.680526 22.719294 26 33 28
-3.279851 3.689832 22.776741 32 33 35
-3.244402 3.701360 22.847904 21 20 28
-3.205063 3.708716 22.893307 22 24 31
-3.167359 3.718204 22.951876 42 44 31
-3.127057 3.724877 22.993065 34 43 38
-7.005828 3.359520 20.484877 25 34 21
-6.966577 3.360349 20.489931 40 26 24
-6.930465 3.362711 20.504333 18 21 19
-6.894409 3.365128 20.519073 22 19 23
-6.859859 3.368314 20.538500 20 44 16
-6.826939 3.372343 20.563068 43 38 29
-6.791669 3.375254 20.580816 40 37 17
-6.759954 3.379977 20.609617 40 33 31
-6.726560 3.383914 20.633619 40 16 35
-6.693041 3.387836 20.657534 40 31 19
-6.660971 3.392544 20.686245 20 15 39
-6.625202 3.395416 20.703756 17 23 39
-6.591528 3.399405 20.728077 37 20 44
-6.555308 3.402122 20.744644 27 22 26
-6.518904 3.404778 20.760839 23 32 20
-6.484769 3.408661 20.784515 33 15 36
-6.448380 3.411401 20.801226 19 20 31
-6.414990 3.415774 20.827888 22 35 39
-6.379807 3.419243 20.849043 34 41 34
-6.344808 3.422857 20.871078 22 19 16
-6.311949 3.427681 20.900494 29 38 32
-6.276183 3.430980 20.920610 25 43 15
-6.242235 3.435324 20.947098 31 38 18
-6.205606 3.438241 20.964886 28 30 41
-6.168257 3.440796 20.980465 25 23 22
-6.132532 3.444299 21.001823 29 34 22
-6.094485 3.446537 21.015467 30 20 44
-6.057887 3.449630 21.034328 36 32 24
-6.019819 3.451924 21.048317 31 20 42
-5.981078 3.453862 21.060135 39 16 32
-5.942921 3.456167 21.074188 26 26 22
-5.902888 3.457406 21.081741 36 40 18
-5.863494 3.459039 21.091703 36 29 43
-5.823115 3.460112 21.098242 43 33 26
-5.782500 3.461059 21.104015 42 17 22
-5.742543 3.462416 21.112291 34 19 43
-5.701785 3.463306 21.117722 36 31 31
-5.662307 3.464994 21.128012 23 39 42
-5.622779 3.466676 21.138268 31 39 28
-5.583012 3.468235 21.147774 15 17 31
-5.542953 3.469635 21.156311 19 36 31
-5.501471 3.470158 21.159502 24 35 33
-5.460478 3.471002 21.164644 21 30 33
-5.419095 3.471608 21.168339 41 21 35
-5.377842 3.472308 21.172607 18 24 41
-5.337343 3.473509 21.179934 44 27 33
-5.296483 3.474493 21.185932 19 32 44
-5.256185 3.475865 21.194296 19 41 24
-5.215352 3.476901 21.200617 31 33 39
-5.174252 3.477776 21.205950 41 15 29
-5.133430 3.478853 21.212521 28 43 18
-5.091911 3.479473 21.216297 36 40 34
-5.049623 3.479572 21.216902 36 22 16
-5.006487 3.479084 21.213928 15 20 23
-4.962819 3.478215 21.208630 39 28 33
-4.919110 3.477302 21.203058 29 19 29
-4.875764 3.476632 21.198975 17 37 42
-4.832903 3.476298 21.196941 37 37 30
-4.790370 3.476198 21.196329 33 30 23
-4.748878 3.476857 21.200348 29 19 37
-4.708000 3.477982 21.207207 37 24 32
-4.667133 3.479136 21.214243 16 30 44
-4.630239 3.483299 21.239628 34 43 41
-4.594406 3.488345 21.270399 120 120 120
-4.559413 3.494130 21.305668 120 120 120
-4.524481 3.500070 21.341892 120 120 120
-4.486110 3.503439 21.362431 28 24 26
-4.449213 3.508033 21.390448 16 18 34
-4.409821 3.510731 21.406898 18 25 42
-4.370946 3.513898 21.426207 36 20 23
-4.335578 3.519974 21.463259 29 38 40
-4.299077 3.525243 21.495386 26 31 18
-4.264374 3.532108 21.537241 34 38 39
-4.226373 3.536353 21.563128 30 40 32
-4.188237 3.540571 21.588850 30 28 38
-4.152549 3.546969 21.627857 27 29 43
-4.114678 3.551617 21.656199 38 44 35
-4.080383 3.559483 21.704163 43 15 30
-4.044640 3.566241 21.745375 31 16 41
-4.008840 3.573096 21.787172 34 23 33
-3.973969 3.580939 21.834995 27 33 42
-3.935313 3.585507 21.862848 18 23 32
-3.900386 3.593614 21.912279 30 42 16
-3.864264 3.600791 21.956043 23 34 28
-3.828170 3.608160 22.000975 15 32 26
-3.793330 3.616896 22.054245 25 27 31
-3.754750 3.622230 22.086767 34 23 43
-3.719035 3.630487 22.137115 24 33 31
-3.681162 3.636811 22.175674 15 24 41
-3.643331 3.643331 22.215435 42 32 39
-3.607840 3.652381 22.270618 30 34 19
-3.569483 3.658720 22.309269 39 36 23
-3.533300 3.667476 22.362656 37 31 22
-3.494074 3.673257 22.397909 41 43 39
-3.454856 3.679197 22.434128 39 21 41
-3.418287 3.688152 22.488731 44 15 26
-3.379326 3.694729 22.528837 30 26 20
-3.344135 3.705663 22.595505 37 41 32
-3.307198 3.714934 22.652039 17 24 27
-3.270102 3.724283 22.709044 15 23 36
-3.234466 3.735580 22.777927 35 25 22
-3.194880 3.742574 22.820572 30 17 44
-3.156853 3.751622 22.875746 23 27 21
-6.947987 3.392252 20.435255 22 20 40
-6.911575 3.394442 20.448448 30 38 36
-6.875255 3.396703 20.462069 18 17 26
-6.840446 3.399743 20.480377 22 31 43
-6.807168 3.403584 20.503519 30 43 25
-6.771705 3.406373 20.520317 33 35 34
-6.739884 3.411039 20.548426 19 39 44
-6.706553 3.414993 20.572248 43 28 20
-6.673275 3.419023 20.596527 20 19 15
-6.641511 3.423885 20.625811 24 15 21
-6.606076 3.426902 20.643988 19 17 41
-6.572935 3.431155 20.669607 38 26 40
-6.537205 3.434102 20.687359 32 41 34
-6.501344 3.437016 20.704918 35 17 31
-6.467879 3.441243 20.730381 38 43 41
-6.431994 3.444229 20.748367 22 31 25
-6.399146 3.448891 20.776449 27 32 37
-6.364352 3.452557 20.798534 33 33 21
-6.329584 3.456286 20.821001 33 44 30
-6.296877 3.461197 20.850586 20 30 15
-6.261123 3.464488 20.870409 42 32 19
-6.227256 3.468874 20.896832 39 19 21
-6.190803 3.471869 20.914875 15 37 43
-6.153644 3.474507 20.930763 37 25 20
-6.118091 3.478093 20.952368 32 28 15
-6.080178 3.480378 20.966131 22 26 18
-6.043628 3.483480 20.984819 32 30 38
-6.005578 3.485755 20.998526 40 22 15
-5.966775 3.487622 21.009771 22 41 38
-5.928471 3.489809 21.022947 19 35 41
-5.888320 3.490933 21.029715 43 39 17
-5.848788 3.492442 21.038807 40 19 20
-5.808423 3.493472 21.045010 26 39 30
-5.767807 3.494365 21.050390 19 41 19
-5.727706 3.495585 21.057741 26 36 43
-5.686825 3.496344 21.062315 26 43 19
-5.647117 3.497841 21.071333 16 27 31
-5.607442 3.499381 21.080608 34 39 26
-5.567547 3.500806 21.089193 40 26 32
-5.527324 3.502045 21.096657 16 25 35
-5.485800 3.502472 21.099232 19 35 30
-5.444629 3.503134 21.103214 20 28 35
-5.403184 3.503627 21.106186 31 44 20
-5.361727 3.504121 21.109161 24 21 41
-5.320653 3.504874 21.113701 17 26 35
-5.279245 3.505419 21.116982 44 37 21
-5.238476 3.506400 21.122889 35 18 35
-5.197591 3.507317 21.128418 33 40 37
-5.156619 3.508192 21.133686 15 17 44
-5.115812 3.509193 21.139719 39 30 41
-5.074365 3.509769 21.143187 31 40 32
-5.032224 3.509870 21.143797 35 36 37
-4.989309 3.509429 21.141140 41 23 42
-4.945903 3.508632 21.136339 39 24 37
-4.902450 3.507788 21.131250 18 21 30
-4.859315 3.507158 21.127459 18 32 28
-4.816652 3.506861 21.125666 27 27 19
-4.774273 3.506767 21.125103 35 30 43
-4.732921 3.507433 21.129112 38 18 44
-4.692234 3.508608 21.136190 43 34 38
-4.651565 3.509817 21.143476 36 26 32
-4.614845 3.514056 21.169012 40 37 29
-4.579112 3.519133 21.199594 120 120 120
-4.544251 3.524980 21.234819 120 120 120
-4.509574 3.531082 21.271576 120 120 120
-4.471502 3.534616 21.292866 39 16 42
-4.434891 3.539384 21.321592 18 43 21
-4.395704 3.542169 21.338367 28 27 17
-4.356979 3.545385 21.357742 36 18 40
-4.321759 3.551544 21.394846 42 32 39
-4.285381 3.556866 21.426905 15 32 42
-4.250802 3.563803 21.468695 43 20 43
-4.212944 3.568105 21.494610 20 29 26
-4.174941 3.572372 21.520313 17 26 37
-4.139338 3.578802 21.559050 27 18 30
-4.101543 3.583453 21.587067 34 44 33
-4.067313 3.591351 21.634642 33 15 39
-4.031656 3.598145 21.675571 26 21 21
-3.995973 3.605062 21.717243 30 42 43
-3.961247 3.613005 21.765091 16 38 25
-3.922762 3.617658 21.793121 33 34 44
-3.888001 3.625889 21.842705 21 44 33
-3.852016 3.633151 21.886452 18 31 44
-3.816067 3.640615 21.931417 32 39 19
-3.781414 3.649504 21.984966 31 28 43
-3.743034 3.654962 22.017845 40 43 34
-3.707542 3.663405 22.068705 36 17 32
-3.669874 3.669874 22.107672 30 28 19
-3.632233 3.676529 22.147764 44 16 44
-3.596914 3.685726 22.203171 24 32 44
-3.558689 3.692139 22.241804 35 16 19
-3.522637 3.700999 22.295172 22 22 16
-3.483545 3.706849 22.330414 36 41 27
-3.444455 3.712854 22.366589 31 33 19
-3.408026 3.721923 22.421225 30 16 30
-3.369208 3.728590 22.461384 25 17 36
-3.334088 3.739585 22.527618 44 17 17
-3.297270 3.748951 22.584044 17 28 18
-3.260133 3.758209 22.639811 39 39 22
-3.224125 3.769047 22.705103 33 33 38
-3.184125 3.775462 22.743750 18 32 28
-6.888108 3.423675 20.379019 29 32 41
-6.851610 3.425805 20.391697 21 34 39
-6.816598 3.428708 20.408976 34 36 37
-6.783017 3.432370 20.430775 28 19 17
-6.747387 3.435034 20.446629 34 43 44
-6.715492 3.439642 20.474060 15 19 43
-6.682232 3.443604 20.497644 23 17 32
-6.649253 3.447761 20.522387 39 29 40
-6.617993 3.452866 20.552774 38 23 38
-6.583122 3.456139 20.572256 22 24 31
-6.550672 3.460732 20.599596 17 44 26
-6.515422 3.463895 20.618423 28 27 25
-6.480040 3.467028 20.637072 26 41 41
-6.447222 3.471581 20.664173 18 28 41
-6.411848 3.474808 20.683382 22 37 37
-6.379522 3.479739 20.712734 21 30 19
-6.345083 3.483575 20.735565 30 39 15
-6.310505 3.487385 20.758242 37 31 39
-6.277881 3.492331 20.787685 16 22 19
-6.242085 3.495568 20.806952 21 39 19
-6.208146 3.499894 20.832705 20 17 29
-6.171717 3.502866 20.850395 38 43 32
-6.134585 3.505477 20.865934 39 15 23
-6.099010 3.509020 20.887022 23 15 16
-6.061121 3.511270 20.900417 29 29 21
-6.024478 3.514279 20.918325 33 33 34
-5.986343 3.516453 20.931269 33 37 23
-5.947433 3.518200 20.941664 38 28 17
-5.908966 3.520235 20.953779 41 41 27
-5.868760 3.521256 20.959856 18 20 41
-5.829120 3.522634 20.968058 40 37 34
-5.788726 3.523572 20.973644 36 33 21
-5.748121 3.524395 20.978542 19 37 34
-5.707996 3.525527 20.985281 36 27 39
-5.667169 3.526239 20.989515 43 31 29
-5.627433 3.527645 20.997885 40 16 23
-5.587750 3.529105 21.006580 24 19 16
-5.547828 3.530436 21.014502 34 29 19
-5.507553 3.531561 21.021194 15 41 27
-5.466055 3.531912 21.023287 22 35 44
-5.424708 3.532368 21.025999 26 23 28
-5.383108 3.532665 21.027767 15 43 31
-5.341373 3.532876 21.029026 31 15 15
-5.299778 3.533185 21.030865 40 28 17
-5.257966 3.533353 21.031862 38 41 34
-5.216746 3.533925 21.035265 20 28 32
-5.175707 3.534629 21.039457 41 38 44
-5.134696 3.535364 21.043835 21 33 36
-5.093737 3.536148 21.048502 20 29 28
-5.052280 3.536596 21.051167 16 33 25
-5.010139 3.536568 21.051003 35 35 19
-4.967346 3.536077 21.048077 23 38 25
-4.924105 3.535255 21.043184 42 27 25
-4.880757 3.534341 21.037746 22 42 29
-4.837750 3.533661 21.033695 43 34 18
-4.795148 3.533267 21.031353 18 17 41
-4.752817 3.533067 21.030163 15 23 22
-4.711546 3.533660 21.033688 24 28 15
-4.671005 3.534814 21.040562 40 43 38
-4.630565 3.536068 21.048021 22 20 19
-4.594082 3.540393 21.073771 34 34 32
-4.558541 3.545532 21.104357 120 120 120
-4.523920 3.551488 21.139812 120 120 120
-4.489602 3.557798 21.177370 120 120 120
-4.451905 3.561524 21.199547 17 16 40
-4.415666 3.566500 21.229164 17 24 39
-4.376752 3.569390 21.246370 43 19 43
-4.338234 3.572663 21.265854 35 42 30
-4.303184 3.578886 21.302893 24 36 16
-4.266926 3.584218 21.334629 28 23 25
-4.232523 3.591231 21.376377 19 42 35
-4.194936 3.595659 21.402735 34 32 35
-4.157185 3.600037 21.428791 24 16 31
-4.121734 3.606517 21.467365 21 34 37
-4.084031 3.611143 21.494900 24 25 38
-4.049881 3.619042 21.541918 17 21 21
-4.014331 3.625847 21.582424 20 32 27
-3.978789 3.632807 21.623852 22 26 25
-3.944252 3.640848 21.671715 37 26 33
-3.906003 3.645603 21.700016 19 25 38
-3.871458 3.653960 21.749762 27 17 21
-3.835626 3.661279 21.793329 25 44 34
-3.799857 3.668828 21.838261 31 28 41
-3.765475 3.677905 21.892294 18 23 43
-3.727394 3.683542 21.925846 26 42 17
-3.692239 3.692239 21.977613 34 43 29
-3.654874 3.698908 22.017311 38 26 22
-3.617508 3.705740 22.057978 26 38 17
-3.582448 3.715131 22.113874 20 30 20
-3.544422 3.721643 22.152636 17 32 19
-3.508583 3.730645 22.206221 15 36 34
-3.469720 3.736621 22.241795 36 28 22
-3.430823 3.742716 22.278072 27 39 29
-3.394582 3.751906 22.332775 21 25 34
-3.355935 3.758648 22.372902 22 23 18
-3.320723 3.769470 22.437321 33 32 19
-3.283775 3.778590 22.491610 34 19 19
-3.246300 3.787350 22.543751 23 31 33
-3.209636 3.797316 22.603073 44 27 16
-6.836791 3.459091 20.347593 28 34 37
-6.801656 3.461921 20.364239 38 39 25
-6.767904 3.465493 20.385252 29 23 18
-6.732181 3.468093 20.400549 24 30 28
-6.700249 3.472690 20.427588 43 27 21
-6.667002 3.476657 20.450926 18 19 29
-6.634226 3.480921 20.476007 18 23 19
-6.603425 3.486280 20.507530 17 21 36
-6.569092 3.489830 20.528414 43 17 28
-6.537191 3.494725 20.557203 30 35 41
-6.502235 3.498038 20.576694 17 41 15
-6.467069 3.501280 20.595762 25 26 34
-6.434583 3.506023 20.623663 19 38 38
-6.399461 3.509382 20.643421 36 18 17
-6.367352 3.514448 20.673222 19 27 40
-6.333038 3.518355 20.696203 28 19 15
-6.298479 3.522176 20.718681 33 41 32
-6.265807 3.527110 20.747705 33 39 19
-6.229929 3.530293 20.766430 30 21 33
-6.195827 3.534532 20.791365 38 42 24
-6.159294 3.537432 20.808426 36 42 44
-6.122049 3.539960 20.823296 16 24 31
-6.086320 3.543405 20.843561 28 37 34
-6.048362 3.545591 20.856421 40 35 17
-6.011565 3.548494 20.873491 18 18 15
-5.973309 3.550568 20.885695 22 24 43
-5.934305 3.552225 20.895441 26 21 21
-5.895757 3.554180 20.906939 43 23 36
-5.855573 3.555169 20.912760 39 22 35
-5.815898 3.556484 20.920496 31 43 42
-5.775459 3.557348 20.925575 42 40 43
-5.734858 3.558123 20.930138 37 39 22
-5.694817 3.559261 20.936829 29 15 20
-5.654160 3.560027 20.941334 33 21 24
-5.614564 3.561477 20.949865 19 40 18
-5.574971 3.562951 20.958536 21 27 28
-5.535101 3.564270 20.966291 41 27 35
-5.494865 3.565371 20.972769 38 23 37
-5.453411 3.565692 20.974659 21 25 17
-5.411929 3.565999 20.976467 42 19 27
-5.370146 3.566113 20.977135 30 24 43
-5.328169 3.566097 20.977043 28 22 44
-5.286285 3.566144 20.977320 41 40 39
-5.244320 3.566138 20.977282 40 31 40
-5.202884 3.566493 20.979372 18 20 36
-5.161762 3.567071 20.982773 42 37 25
-5.120686 3.567691 20.986420 22 42 38
-5.079552 3.568280 20.989883 28 44 22
-5.037990 3.568576 20.991623 31 40 35
-4.995713 3.568366 20.990391 37 33 35
-4.952899 3.567766 20.986858 26 37 40
-4.909661 3.566848 20.981457 41 41 34
-4.866244 3.565782 20.975189 36 40 42
-4.823222 3.564990 20.970531 21 35 26
-4.780538 3.564437 20.967274 16 34 29
-4.738140 3.564088 20.965223 29 21 34
-4.696850 3.564574 20.968081 23 24 28
-4.656351 3.565674 20.974552 30 21 26
-4.616051 3.566948 20.982050 31 27 29
-4.579723 3.571344 21.007906 19 17 36
-4.544307 3.576538 21.038458 120 120 120
-4.509862 3.582600 21.074120 120 120 120
-4.475809 3.589092 21.112307 120 120 120
-4.438395 3.592987 21.135216 18 33 33
-4.402443 3.598151 21.165592 38 33 40
-4.363741 3.601146 21.183210 36 33 26
-4.325379 3.604483 21.202839 18 20 33
-4.290440 3.610766 21.239801 35 42 36
-4.254243 3.616106 21.271214 27 35 17
-4.219979 3.623214 21.313025 31 27 32
-4.182635 3.627796 21.339975 33 30 38
-4.145116 3.632318 21.366577 29 30 41
-4.109791 3.638877 21.405161 16 25 20
-4.072140 3.643493 21.432314 39 27 39
-4.038026 3.651407 21.478863 31 15 29
-4.002541 3.658236 21.519035 39 18 30
-3.967086 3.665243 21.560251 33 28 25
-3.932675 3.673377 21.608103 20 29 37
-3.894592 3.678226 21.636621 17 34 40
-3.860185 3.686693 21.686430 29 22 25
-3.824432 3.694054 21.729727 26 26 18
-3.788764 3.701666 21.774506 15 34 30
-3.754565 3.710907 21.828865 22 20 24
-3.716703 3.716703 21.862957 43 17 23
-3.681797 3.725628 21.915461 30 29 23
-3.644638 3.732460 21.955648 44 36 15
-3.607472 3.739453 21.996780 25 30 37
-3.572608 3.749033 22.053133 40 41 28
-3.534736 3.755657 22.092098 38 17 17
-3.499091 3.764845 22.146145 29 15 21
-3.460445 3.770997 22.182337 35 41 27
-3.421731 3.777235 22.219032 18 15 41
-3.385662 3.786596 22.274094 37 41 37
-3.347149 3.793435 22.314323 41 17 24
-3.311785 3.804077 22.376925 41 41 26
-3.274580 3.812868 22.428633 38 43 31
-6.746626 3.495240 20.321163 32 26 44
-6.710652 3.497673 20.335308 23 21 40
-6.678387 3.502081 20.360935 34 41 35
-6.644909 3.505903 20.383156 21 21 21
-6.612102 3.510128 20.407722 16 22 33
-6.581409 3.515535 20.439157 18 31 28
-6.547375 3.519214 20.460546 18 43 40
-6.516087 3.524425 20.490841 39 41 18
-6.481859 3.528101 20.512213 36 43 30
-6.447426 3.531711 20.533203 24 43 25
-6.415564 3.536785 20.562706 20 43 41
-6.380753 3.540289 20.583075 29 42 16
-6.348821 3.545445 20.613054 34 33 44
-6.314545 3.549352 20.635769 29 37 42
-6.279866 3.553082 20.657454 36 30 44
-6.247007 3.557898 20.685453 23 15 26
-6.210992 3.560969 20.703308 18 21 18
-6.176633 3.565037 20.726957 39 37 29
-6.139936 3.567801 20.743029 22 30 28
-6.102555 3.570202 20.756990 40 17 39
-6.066657 3.573510 20.776222 28 41 35
-6.028667 3.575623 20.788507 44 35 31
-5.991798 3.578435 20.804855 24 43 24
-5.953546 3.580454 20.816593 18 28 19
-5.914574 3.582066 20.825964 33 34 41
-5.876027 3.583960 20.836975 17 28 43
-5.835908 3.584915 20.842527 15 39 17
-5.796197 3.586136 20.849628 22 40 21
-5.755726 3.586902 20.854080 28 30 25
-5.715067 3.587561 20.857910 41 37 34
-5.674953 3.588573 20.863798 41 41 17
-5.634308 3.589263 20.867807 32 22 34
-5.594671 3.590610 20.875639 29 18 22
-5.555115 3.592029 20.883890 26 34 34
-5.515261 3.593276 20.891140 41 43 17
-5.474975 3.594259 20.896852 20 30 18
-5.433529 3.594488 20.898188 26 36 28
-5.391817 3.594545 20.898516 20 26 30
-5.349788 3.594389 20.897610 20 35 38
-5.307512 3.594063 20.895718 19 30 16
-5.265278 3.593761 20.893961 41 41 20
-5.223170 3.593541 20.892679 34 22 17
-5.181472 3.593602 20.893032 36 39 31
-5.140223 3.593977 20.895214 41 27 43
-5.099046 3.594410 20.897730 28 41 20
-5.057687 3.594720 20.899532 25 20 41
-5.016023 3.594817 20.900097 28 15 20
-4.973632 3.594390 20.897615 27 30 42
-4.930873 3.593687 20.893528 24 28 33
-4.887729 3.592690 20.887732 26 20 19
-4.844311 3.591472 20.880651 33 21 19
-4.801339 3.590567 20.875387 38 34 22
-4.758620 3.589836 20.871140 15 34 24
-4.716195 3.589316 20.868118 27 25 21
-4.674941 3.589687 20.870272 20 19 37
-4.634562 3.590742 20.876408 29 15 33
-4.594506 3.592068 20.884119 25 18 38
-4.558445 3.596571 20.910299 31 32 44
-4.523269 3.601862 20.941059 120 120 120
-4.489084 3.608049 20.977028 120 120 120
-4.455321 3.614695 21.015667 120 120 120
-4.418177 3.618697 21.038939 15 27 36
-4.382502 3.623992 21.069719 27 18 34
-4.344076 3.627093 21.087748 41 33 21
-4.305912 3.630475 21.107410 30 33 34
-4.271025 3.636714 21.143688 18 41 28
-4.234808 3.641935 21.174040 22 18 24
-4.200697 3.649091 21.215643 24 19 17
-4.163780 3.653929 21.243774 38 17 34
-4.126665 3.658692 21.271467 32 20 42
-4.091465 3.665271 21.309715 33 15 19
-4.053774 3.669733 21.335655 35 30 42
-4.019567 3.677476 21.380674 42 23 27
-3.984086 3.684208 21.419815 32 15 28
-3.948671 3.691149 21.460169 40 27 40
-3.914305 3.699234 21.507172 42 15 19
-3.876365 3.704082 21.535360 35 20 17
-3.842013 3.712507 21.584345 17 30 21
-3.806270 3.719763 21.626532 37 15 30
-3.770654 3.727313 21.670427 16 22 20
-3.736607 3.736607 21.724457 24 26 25
-3.699005 3.742522 21.758850 18 23 32
-3.664391 3.751638 21.811852 19 42 43
-3.627499 3.758613 21.852404 18 36 35
-3.590626 3.765779 21.894064 30 33 34
-3.556098 3.775610 21.951220 22 43 30
-3.518534 3.782424 21.990837 36 24 20
-3.483306 3.791954 22.046242 42 31 41
-3.445094 3.798437 22.083939 41 33 23
-3.406787 3.804983 22.121996 37 25 39
-3.371166 3.814741 22.178724 42 36 23
-3.333001 3.821842 22.220009 39 26 40
-3.297468 3.832193 22.280190 37 44 39
-6.662408 3.534326 20.312220 27 24 40
-6.628595 3.537962 20.333113 43 38 32
-6.595558 3.542059 20.356661 25 21 25
-6.564573 3.547316 20.386873 21 33 20
-6.530434 3.550923 20.407606 26 16 38
-6.499571 3.556369 20.438902 37 27 35
-6.466240 3.560525 20.462786 38 32 43
-6.432788 3.564666 20.486586 38 26 28
-6.401602 3.570124 20.517956 32 37 44
-6.367001 3.573736 20.538713 41 24 34
-6.335098 3.578919 20.568499 42 32 36
-6.300714 3.582759 20.590569 40 20 25
-6.265786 3.586338 20.611139 43 38 25
-6.232679 3.591014 20.638010 16 26 37
-6.196518 3.593980 20.655060 39 30 33
-6.161940 3.597911 20.677650 24 34 35
-6.125095 3.600563 20.692888 22 35 28
-6.087643 3.602891 20.706268 37 43 25
-6.051687 3.606142 20.724955 29 18 26
-6.013762 3.608257 20.737112 27 16 30
-5.977007 3.611109 20.753498 16 18 19
-5.938938 3.613200 20.765516 21 42 21
-5.900149 3.614880 20.775173 30 15 32
-5.861716 3.616804 20.786228 20 43 24
-5.821660 3.617746 20.791643 37 43 34
-5.781921 3.618900 20.798277 22 22 28
-5.741430 3.619597 20.802284 31 22 28
-5.700681 3.620141 20.805407 40 31 25
-5.660336 3.620951 20.810061 40 40 21
-5.619503 3.621458 20.812975 38 22 40
-5.579636 3.622600 20.819538 26 21 23
-5.540003 3.623912 20.827078 39 17 30
-5.500102 3.625067 20.833719 41 26 15
-5.459691 3.625901 20.838514 23 34 21
-5.418195 3.626023 20.839212 37 17 29
-5.376276 3.625860 20.838278 43 23 39
-5.334065 3.625498 20.836193 30 23 30
-5.291590 3.624947 20.833031 42 38 37
-5.249106 3.624382 20.829784 40 25 17
-5.206889 3.623995 20.827555 28 30 28
-5.164987 3.623822 20.826561 20 35 40
-5.123624 3.624026 20.827738 15 38 43
-5.082364 3.624308 20.829359 37 34 42
-5.040852 3.624414 20.829966 31 41 26
-4.999148 3.624382 20.829784 32 42 39
-4.956729 3.623827 20.826593 17 27 18
-4.914065 3.623082 20.822311 42 21 34
-4.871051 3.622064 20.816458 23 43 37
-4.827695 3.620771 20.809031 38 38 16
-4.784797 3.619803 20.803465 37 34 42
-4.742102 3.618973 20.798693 18 28 42
-4.699690 3.618345 20.795088 36 26 31
-4.658489 3.618648 20.796827 34 41 16
-4.618231 3.619695 20.802843 15 31 18
-4.578372 3.621076 20.810780 43 19 20
-4.542535 3.625693 20.837315 39 38 24
-4.507582 3.631108 20.868437 120 120 120
-4.473599 3.637412 20.904669 120 120 120
-4.439989 3.644142 20.943342 120 120 120
-4.402953 3.648161 20.966444 24 37 31
-4.367406 3.653504 20.997147 39 20 26
-4.329172 3.656679 21.015396 37 27 17
-4.291158 3.660105 21.035088 22 27 23
-4.256239 3.666265 21.070488 21 42 28
-4.219935 3.671343 21.099674 22 18 39
-4.185946 3.678558 21.141140 41 38 18
-4.149495 3.683735 21.170891 18 15 16
-4.112788 3.688790 21.199940 32 40 27
-4.077576 3.695303 21.237373 23 35 18
-4.039631 3.699451 21.261215 28 38 39
-4.005129 3.706875 21.303877 15 43 26
-3.969558 3.713457 21.341709 32 33 32
-3.934110 3.720300 21.381033 31 39 37
-3.899666 3.728252 21.426737 42 23 23
-3.861759 3.733034 21.454216 23 27 41
-3.827333 3.741326 21.501871 28 31 44
-3.791512 3.748426 21.542681 43 27 22
-3.755866 3.755866 21.585436 16 34 28
-3.721841 3.765118 21.638611 40 17 36
-3.684395 3.771087 21.672913 30 38 23
-3.649968 3.780324 21.725998 31 16 29
-3.613265 3.787398 21.766655 42 40 20
-3.576634 3.794721 21.808743 41 27 38
-3.542402 3.804803 21.866682 17 38 35
-3.505132 3.811832 21.907078 40 25 16
-3.470319 3.821743 21.964043 25 43 24
-3.432508 3.828567 22.003258 33 30 26
-3.394614 3.835473 22.042948 44 20 33
-3.359537 3.845786 22.102217 41 19 35
-3.321833 3.853326 22.145554 38 39 24
-6.612980 3.570198 20.285213 26 27 33
-6.579543 3.574073 20.307232 44 40 25
-6.548002 3.579032 20.335409 34 25 28
-6.513536 3.582445 20.354801 24 34 26
-6.482857 3.587996 20.386343 31 26 27
-6.450287 3.592565 20.412300 33 23 30
-6.417731 3.597199 20.438633 30 26 28
-6.387082 3.602969 20.471416 38 18 33
-6.352613 3.606645 20.492300 17 15 29
-6.320671 3.611812 20.521658 38 22 27
-6.286157 3.615568 20.542997 35 18 20
-6.250995 3.618997 20.562485 27 15 38
-6.217651 3.623532 20.588249 20 42 19
-6.181379 3.626409 20.604595 30 18 41
-6.146605 3.630209 20.626190 22 20 36
-6.109620 3.632747 20.640608 16 21 29
-6.072083 3.634989 20.653345 43 20 25
-6.036040 3.638161 20.671370 26 23 22
-5.998146 3.640254 20.683262 16 32 43
-5.961474 3.643123 20.699564 43 41 44
-5.923572 3.645275 20.711790 36 38 36
-5.884966 3.647021 20.721712 31 19 33
-5.846665 3.648982 20.732853 38 44 34
-5.806693 3.649921 20.738188 42 15 36
-5.766952 3.651020 20.744432 23 37 31
-5.726470 3.651662 20.748081 30 18 20
-5.685632 3.652085 20.750481 32 27 17
-5.645040 3.652673 20.753822 31 27 40
-5.603985 3.652968 20.755501 36 19 30
-5.563858 3.653877 20.760666 27 43 41
-5.524152 3.655078 20.767490 31 34 16
-5.484222 3.656148 20.773567 25 35 40
-5.443679 3.656822 20.777399 25 17 19
-5.402132 3.656828 20.777430 26 26 34
-5.360026 3.656452 20.775295 17 16 22
-5.317649 3.655884 20.772066 18 43 37
-5.275029 3.655138 20.767830 44 44 18
-5.232417 3.654386 20.763559 33 26 22
-5.190225 3.653918 20.760899 33 21 35
-5.148232 3.653584 20.759001 37 35 41
-5.106783 3.653633 20.759279 32 16 16
-5.065435 3.653757 20.759981 39 27 17
-5.023799 3.653672 20.759499 31 42 22
-4.982079 3.653525 20.758663 25 22 41
-4.939669 3.652865 20.754913 24 44 24
-4.897128 3.652095 20.750542 43 17 29
-4.854273 3.651077 20.744757 21 17 24
-4.811025 3.649743 20.737179 44 28 32
-4.768233 3.648735 20.731449 40 31 23
-4.725616 3.647844 20.726387 44 26 39
-4.683261 3.647142 20.722395 39 32 39
-4.642154 3.647407 20.723904 44 26 16
-4.602060 3.648480 20.730000 35 16 33
-4.562419 3.649935 20.738270 34 39 36
-4.526820 3.654681 20.765230 25 16 35
-4.492104 3.660233 20.796780 120 120 120
-4.458309 3.666647 20.833220 120 120 120
-4.424791 3.673412 20.871656 120 120 120
-4.387785 3.677381 20.894213 32 40 31
-4.352276 3.682695 20.924404 36 27 23
-4.314191 3.685911 20.942675 38 31 29
-4.276285 3.689344 20.962183 30 36 29
-4.241274 3.695368 20.996407 31 36 24
-4.204837 3.700256 21.024183 27 43 43
-4.170872 3.707442 21.065012 18 15 22
-4.134748 3.712835 21.095654 22 30 26
-4.098370 3.718109 21.125618 19 40 28
-4.063227 3.724625 21.162640 30 26 35
-4.025217 3.728622 21.185352 15 30 16
-3.990558 3.735841 21.226370 31 43 35
-3.954914 3.742284 21.262978 43 40 15
-3.919389 3.748981 21.301029 34 23 30
-3.884833 3.756762 21.345236 34 28 40
-3.846923 3.761436 21.371796 32 44 28
-3.812382 3.769546 21.417875 29 41 20
-3.776459 3.776459 21.457151 43 43 20
-3.740753 3.783751 21.498583 18 16 24
-3.706703 3.792905 21.550598 35 27 28
-3.669375 3.798882 21.584558 25 37 15
-3.635075 3.808174 21.637350 42 26 43
-3.598512 3.815289 21.677780 26 23 36
-3.562096 3.822737 21.720095 31 44 15
-3.528146 3.833048 21.778681 29 30 34
-3.491179 3.840297 21.819868 34 23 21
-3.456809 3.850622 21.878536 26 36 31
-3.419445 3.857836 21.919521 26 34 25
-3.381990 3.865131 21.960974 19 35 39
-6.526464 3.607797 20.268522 24 15 22
-6.491735 3.611028 20.286673 29 31 29
-6.461075 3.616576 20.317844 21 24 43
-6.428923 3.621355 20.344692 31 35 15
-6.396921 3.626280 20.372358 26 21 41
-6.366613 3.632234 20.405809 35 23 23
-6.332301 3.635967 20.426779 41 41 21
-6.300421 3.641152 20.455912 44 34 37
-6.265928 3.644886 20.476889 30 22 15
-6.230712 3.648246 20.495764 20 31 43
-6.197265 3.652692 20.520744 19 36 39
-6.160942 3.655492 20.536474 41 41 39
-6.125998 3.659153 20.557041 36 43 26
-6.088898 3.661567 20.570601 21 36 23
-6.051228 3.663668 20.582407 38 18 25
-6.014985 3.666669 20.599262 37 31 19
-5.977003 3.668643 20.610353 29 24 29
-5.940208 3.671379 20.625723 19 40 37
-5.902290 3.673453 20.637377 26 27 35
-5.863726 3.675152 20.646921 32 30 16
-5.825463 3.677065 20.657669 42 16 27
-5.785611 3.677996 20.662897 35 35 38
-5.745896 3.679027 20.668690 41 40 39
-5.705438 3.679594 20.671877 34 41 28
-5.664558 3.679896 20.673571 28 34 37
-5.623811 3.680288 20.675776 27 15 30
-5.582641 3.680408 20.676447 35 25 24
-5.542363 3.681122 20.680460 21 26 15
-5.502662 3.682233 20.686701 18 24 19
-5.462750 3.683218 20.692236 19 19 24
-5.422123 3.683732 20.695126 39 29 30
-5.380556 3.683611 20.694445 37 19 31
-5.338250 3.682979 20.690891 28 24 40
-5.295650 3.682132 20.686134 29 24 40
-5.252850 3.681131 20.680511 37 39 15
-5.210173 3.680201 20.675289 23 43 39
-5.168133 3.679711 20.672533 23 42 26
-5.126124 3.679234 20.669853 25 22 33
-5.084589 3.679093 20.669062 41 19 43
-5.043124 3.679000 20.668539 40 37 22
-5.001351 3.678680 20.666740 29 44 35
-4.959624 3.678388 20.665100 18 30 38
-4.917242 3.677602 20.660683 26 32 38
-4.874849 3.676793 20.656141 15 26 33
-4.832201 3.675777 20.650431 29 33 19
-4.789111 3.674404 20.642721 31 42 15
-4.746483 3.673365 20.636885 17 33 24
-4.704004 3.672424 20.631596 19 23 39
-4.661763 3.671654 20.627268 32 29 15
-4.620813 3.671896 20.628628 40 38 25
-4.580968 3.673028 20.634989 19 20 26
-4.541623 3.674586 20.643742 31 16 40
-4.506342 3.679490 20.671293 15 23 17
-4.471921 3.685194 20.703339 120 120 120
-4.438355 3.691716 20.739975 120 120 120
-4.404972 3.698514 20.778170 120 120 120
-4.368033 3.702428 20.800159 28 43 27
-4.332576 3.707685 20.829693 23 16 26
-4.294646 3.710908 20.847797 20 20 24
-4.256839 3.714300 20.866856 21 39 28
-4.221727 3.720136 20.899639 37 15 40
-4.185167 3.724799 20.925835 29 16 22
-4.151101 3.731798 20.965155 17 31 27
-4.115010 3.737101 20.994951 37 23 37
-4.078825 3.742427 21.024870 16 36 16
