ply
format ascii 1.0
element vertex 1256
property float x
property float y
property float z
property uchar red
property uchar green
property uchar blue
end_header
-9.433716 3.356783 28.937780 35 44 21
-9.399690 3.365321 29.011389 16 17 38
-9.366656 3.374323 29.088995 30 31 24
-9.321871 3.379178 29.130848 17 26 34
-9.285336 3.387104 29.199169 33 34 25
-9.244994 3.393732 29.256311 42 17 20
-9.204018 3.400210 29.312159 24 30 25
-9.167271 3.408345 29.382280 15 30 43
-9.122219 3.413476 29.426514 30 25 18
-9.080064 3.419764 29.480726 28 39 37
-9.030830 3.423452 29.512516 40 39 15
-8.980120 3.426625 29.539867 30 35 40
-8.934775 3.431900 29.585348 30 35 40
-8.885589 3.435761 29.618629 30 35 40
-8.839252 3.440783 29.661919 30 35 40
-8.787971 3.443935 29.689091 30 35 40
-8.736176 3.446927 29.714886 30 35 40
-8.687955 3.451379 29.753271 30 35 40
-8.636277 3.454511 29.780266 30 35 40
-8.590153 3.459923 29.826920 30 35 40
-8.541486 3.464379 29.865337 30 35 40
-8.493890 3.469335 29.908064 30 35 40
-8.450096 3.475926 29.964880 28 18 28
-8.401289 3.480534 30.004604 20 27 31
-8.358282 3.487629 30.065763 44 20 16
-8.311338 3.493171 30.113544 20 18 15
-8.264187 3.498707 30.161266 31 25 27
-8.220568 3.505831 30.222677 38 22 44
-8.170897 3.510459 30.262581 33 41 15
-8.125715 3.517101 30.319834 18 16 43
-8.076742 3.522188 30.363693 24 30 35
-8.026174 3.526652 30.402176 44 32 25
-7.977130 3.531859 30.447060 44 19 33
-7.922534 3.534669 30.471283 36 43 21
-7.870630 3.538733 30.506319 16 35 30
-7.815943 3.541599 30.531029 37 39 34
-7.761181 3.544477 30.555832 19 34 18
-7.709274 3.548713 30.592358 34 38 23
-7.654640 3.551753 30.618559 32 44 36
-7.603828 3.556629 30.660599 27 22 24
-7.551212 3.560734 30.695982 30 35 40
-7.498057 3.564650 30.729742 30 35 40
-7.446040 3.569176 30.768759 30 35 40
-7.389866 3.571769 30.791109 30 35 40
-7.334601 3.574847 30.817650 30 35 40
-7.276308 3.576490 30.831814 30 35 40
-7.217543 3.577927 30.844202 30 35 40
-7.160649 3.580325 30.864868 30 35 40
-7.102309 3.582034 30.879606 30 35 40
-7.049261 3.586466 30.917810 39 18 15
-6.996626 3.591189 30.958523 44 27 23
-6.945101 3.596570 31.004917 19 37 34
-6.893842 3.602188 31.053341 44 21 30
-6.837731 3.605349 31.080597 29 31 32
-6.789000 3.612495 31.142200 36 43 20
-6.739008 3.619097 31.199112 120 120 120
-6.691999 3.627439 31.271025 120 120 120
-6.650473 3.638938 31.370153 120 120 120
-6.603375 3.647579 31.444645 15 36 40
-6.564768 3.661121 31.561384 30 34 20
-6.519207 3.671010 31.646637 28 21 25
-6.475953 3.682405 31.744869 34 21 42
-6.443373 3.700155 31.897886 32 43 43
-6.403687 3.714138 32.018433 25 37 35
-6.369465 3.731606 32.169014 24 39 41
-6.322745 3.742033 32.258904 24 30 40
-6.274099 3.751523 32.340717 27 27 17
-6.233755 3.766227 32.467476 32 18 38
-6.185978 3.776703 32.557781 20 44 43
-6.148156 3.793543 32.702957 35 38 38
-6.104530 3.807126 32.820053 26 37 20
-6.061149 3.821159 32.941025 28 28 42
-6.022978 3.838821 33.093285 29 44 24
-5.974455 3.850204 33.191418 41 36 36
-5.937394 3.869313 33.356148 38 35 26
-5.895568 3.885715 33.497547 17 35 23
-5.853222 3.902148 33.639210 15 23 25
-5.815190 3.921873 33.809246 37 21 16
-5.765201 3.933902 33.912945 16 43 21
-5.721693 3.950692 34.057693 18 28 22
-5.670917 3.962810 34.162151 40 22 32
-5.618060 3.973750 34.256462 39 38 42
-5.570037 3.988421 34.382942 33 38 26
-5.514171 3.997774 34.463570 28 20 43
-5.462236 4.010249 34.571114 44 41 15
-5.404418 4.018670 34.643703 24 33 32
-5.345133 4.026204 34.708656 30 23 17
-5.289208 4.036501 34.797421 28 37 19
-5.228114 4.043075 34.854095 42 44 16
-5.173079 4.054575 34.953236 42 39 43
-5.115872 4.064666 35.040222 17 18 36
-5.058638 4.075014 35.129433 33 38 41
-5.003371 4.087261 35.235008 29 42 30
-4.941901 4.094718 35.299294 32 23 26
-4.884942 4.106183 35.398132 17 42 23
-4.824258 4.114809 35.472488 36 39 41
-4.763729 4.123825 35.550217 25 30 33
-4.707295 4.136714 35.661324 40 41 42
-4.646362 4.145985 35.741249 28 41 31
-4.589070 4.158845 35.852108 26 41 37
-4.527275 4.167968 35.930756 36 38 43
-4.464462 4.176432 36.003723 32 22 37
-4.403646 4.187073 36.095459 34 31 19
-4.338071 4.193469 36.150593 41 34 17
-10.017028 3.357981 28.457466 26 15 17
-9.960451 3.358095 28.458431 41 32 42
-9.902355 3.357695 28.455042 16 39 18
-9.841629 3.356394 28.444016 20 19 27
-9.783196 3.355864 28.439524 33 42 34
-9.730368 3.357261 28.451368 36 15 36
-9.680291 3.359631 28.471445 43 43 39
-9.633787 3.363275 28.502327 22 40 35
-9.583473 3.365624 28.522240 30 41 22
-9.535645 3.368881 28.549835 21 26 32
-9.493134 3.374066 28.593777 31 42 40
-9.447873 3.378330 28.629917 35 31 33
-9.414208 3.386819 28.701855 21 40 39
-9.379705 3.395108 28.772102 34 18 41
-9.345846 3.403734 28.845203 43 44 42
-9.312839 3.412780 28.921862 20 17 32
-9.268189 3.417645 28.963091 32 18 28
-9.231739 3.425614 29.030624 33 44 24
-9.191588 3.432302 29.087305 36 36 27
-9.150774 3.438826 29.142591 43 18 24
-9.113995 3.446960 29.211523 27 38 38
-9.068947 3.452051 29.254669 43 39 38
-9.026946 3.458375 29.308266 16 18 39
-8.978060 3.462128 29.340067 31 35 27
-8.927924 3.465444 29.368172 43 16 34
-8.883322 3.470967 29.414972 30 35 40
-8.834901 3.475061 29.449669 30 35 40
-8.789567 3.480433 29.495192 30 35 40
-8.739193 3.483867 29.524300 30 35 40
-8.688285 3.487135 29.551991 30 35 40
-8.641048 3.491930 29.592630 30 35 40
-8.590101 3.495283 29.621038 30 35 40
-8.544537 3.500887 29.668531 30 35 40
-8.496178 3.505416 29.706915 30 35 40
-8.448664 3.510360 29.748816 30 35 40
-8.404926 3.516955 29.804703 23 17 28
-8.356191 3.521538 29.843540 31 34 40
-8.313028 3.528552 29.902979 15 15 29
-8.265967 3.534000 29.949156 27 21 16
-8.218633 3.539411 29.995010 20 42 40
-8.174715 3.546384 30.054100 18 30 43
-8.124960 3.550908 30.092443 40 27 42
-8.079352 3.557327 30.146835 31 26 34
-8.029959 3.562162 30.187817 39 17 42
-7.979084 3.566409 30.223803 25 19 33
-7.929903 3.571483 30.266804 40 41 41
-7.875588 3.574305 30.290722 15 39 15
-7.824017 3.578426 30.325645 19 40 21
-7.769657 3.581326 30.350222 35 16 34
-7.715407 3.584323 30.375620 27 19 42
-7.664160 3.588773 30.413334 22 26 38
-7.610198 3.592013 30.440792 27 34 33
-7.560507 3.597338 30.485914 41 23 26
-7.509030 3.601892 30.524511 23 39 41
-7.457121 3.606312 30.561970 30 35 40
-7.406415 3.611393 30.605022 30 35 40
-7.351139 3.614310 30.629747 30 35 40
-7.297304 3.617991 30.660940 30 35 40
-7.240384 3.620192 30.679592 30 35 40
-7.182974 3.622183 30.696470 30 35 40
-7.127537 3.625213 30.722143 30 35 40
-7.070149 3.627294 30.739779 38 38 43
-7.018065 3.632156 30.780985 29 43 42
-6.965807 3.637014 30.822155 44 43 37
-6.914833 3.642635 30.869791 28 36 26
-6.865218 3.649080 30.924404 25 31 20
-6.810912 3.653125 30.958689 38 33 29
-6.763133 3.660778 31.023544 32 26 22
-6.712880 3.667221 31.078148 120 120 120
-6.664865 3.675019 31.144230 120 120 120
-6.622320 3.686008 31.237360 120 120 120
-6.574518 3.694253 31.307230 16 22 20
-6.534617 3.707138 31.416426 40 30 36
-6.488109 3.716490 31.495674 38 25 26
-6.443808 3.727301 31.587296 32 44 35
-6.409646 3.744248 31.730919 22 42 44
-6.368911 3.757657 31.844555 19 19 26
-6.333385 3.774442 31.986794 41 15 37
-6.286065 3.784467 32.071758 19 31 26
-6.237034 3.793660 32.149662 39 23 24
-6.195940 3.807922 32.270523 21 23 17
-6.147814 3.818116 32.356918 19 21 28
-6.109258 3.834535 32.496056 33 18 43
-6.065144 3.847780 32.608303 23 44 18
-6.021285 3.861476 32.724377 29 35 15
-5.982419 3.878711 32.870434 20 44 36
-5.933631 3.889825 32.964619 27 25 26
-5.895832 3.908473 33.122650 15 23 34
-5.853422 3.924453 33.258080 41 15 33
-5.810579 3.940507 33.394131 21 27 25
-5.771976 3.959844 33.558002 17 29 23
-5.721943 3.971702 33.658489 28 24 27
-5.678408 3.988405 33.800045 16 44 20
-5.627899 4.000555 33.903008 20 44 15
-5.575508 4.011646 33.997002 24 16 37
-5.527832 4.026445 34.122417 24 33 41
-5.472393 4.035890 34.202457 20 31 42
-5.421166 4.048719 34.311176 32 44 33
-5.364254 4.057577 34.386246 35 40 33
-5.305971 4.065614 34.454357 39 15 20
-5.250997 4.076432 34.546036 27 21 25
-5.190652 4.083313 34.604343 35 26 43
-5.136257 4.095124 34.704437 44 28 29
-5.079483 4.105335 34.790977 26 17 19
-5.022615 4.115754 34.879272 15 34 22
-4.967848 4.128212 34.984844 26 35 29
-4.906945 4.135854 35.049610 37 38 44
-4.850500 4.147529 35.148548 44 37 23
-4.790222 4.156222 35.222218 28 27 33
-4.730144 4.165351 35.299583 21 41 26
-4.674224 4.178473 35.410789 23 29 32
-4.613845 4.187952 35.491116 29 37 17
-4.557703 4.201632 35.607052 42 41 18
-4.497443 4.211891 35.693993 28 20 19
-4.436108 4.221457 35.775063 43 26 37
-4.376333 4.232846 35.871578 32 22 44
-4.311188 4.239335 35.926567 43 26 30
-9.984012 3.403640 28.363670 28 27 32
-9.927912 3.403856 28.365463 42 33 18
-9.870036 3.403461 28.362171 21 37 31
-9.809319 3.402076 28.350632 37 19 18
-9.750642 3.401387 28.344889 39 19 44
-9.697337 3.402574 28.354786 34 21 34
-9.646850 3.404770 28.373087 30 26 38
-9.599830 3.408224 28.401865 21 23 31
-9.549351 3.410483 28.420689 16 37 42
-9.501392 3.413674 28.447281 42 32 27
-9.458469 3.418724 28.489365 24 41 34
-9.412922 3.422881 28.524006 44 27 31
-9.378980 3.431334 28.594452 27 35 37
-9.344419 3.439663 28.663862 43 41 42
-9.310685 3.448402 28.736681 22 22 30
-9.277900 3.457602 28.813353 36 38 19
-9.233623 3.462609 28.855072 29 15 24
-9.197530 3.470766 28.923050 32 17 42
-9.157671 3.477597 28.979973 24 21 19
-9.117111 3.484246 29.035385 42 22 35
-9.080516 3.492506 29.104219 15 30 18
-9.035599 3.497651 29.147095 25 23 33
-8.993894 3.504115 29.200954 41 19 28
-8.945387 3.507995 29.233292 43 41 18
-8.895748 3.511479 29.262329 36 42 25
-8.851759 3.517255 29.310459 39 36 38
-8.803851 3.521540 29.346169 30 35 40
-8.759306 3.527237 29.393644 30 35 40
-8.709662 3.530944 29.424534 30 35 40
-8.659477 3.534480 29.454002 30 35 40
-8.613025 3.539599 29.496662 30 35 40
-8.562606 3.543147 29.526228 30 35 40
-8.517439 3.548933 29.574440 30 35 40
-8.469260 3.553536 29.612799 30 35 40
-8.421725 3.558475 29.653961 30 35 40
-8.377928 3.565076 29.708965 30 35 40
-8.329149 3.569635 29.746962 30 35 40
-8.285702 3.576562 29.804684 30 35 40
-8.238400 3.581913 29.849274 21 34 38
-8.190754 3.587191 29.893261 23 16 30
-8.146433 3.594015 29.950121 33 36 42
-8.096483 3.598437 29.986975 33 32 33
-8.050334 3.604627 30.038559 30 44 26
-8.000372 3.609190 30.076586 18 40 23
-7.949060 3.613209 30.110077 31 35 36
-7.899675 3.618172 30.151430 28 18 17
-7.845575 3.621035 30.175289 29 40 37
-7.794211 3.625215 30.210121 20 44 36
-7.740012 3.628131 30.234423 27 44 15
-7.686034 3.631197 30.259977 16 25 20
-7.635111 3.635767 30.298058 36 40 31
-7.581504 3.639122 30.326015 22 24 25
-7.532560 3.644787 30.373226 23 21 23
-7.481956 3.649734 30.414454 19 34 21
-7.430996 3.654588 30.454901 22 29 40
-7.381171 3.660085 30.500708 29 27 24
-7.326428 3.663214 30.526785 24 44 44
-7.273488 3.667305 30.560873 30 35 40
-7.217451 3.669890 30.582420 19 41 31
-7.160956 3.672285 30.602377 21 35 42
-7.106532 3.675792 30.631603 35 39 29
-7.049832 3.678173 30.651445 27 28 37
-6.998358 3.683346 30.694553 31 32 20
-6.946189 3.688242 30.735350 40 32 20
-6.895463 3.693998 30.783316 28 34 37
-6.847072 3.701120 30.842665 32 34 28
-6.794223 3.705940 30.882832 30 26 37
-6.747269 3.714093 30.950773 39 30 25
-6.696835 3.720464 31.003864 120 120 120
-6.648092 3.727902 31.065849 120 120 120
-6.604901 3.738623 31.155193 120 120 120
-6.556670 3.746669 31.222240 16 29 31
-6.515964 3.759210 31.326750 44 38 23
-6.468844 3.768258 31.402153 18 38 18
-6.423881 3.778754 31.489614 22 31 32
-6.388744 3.795293 31.627445 18 34 39
-6.347391 3.808435 31.736956 31 32 31
-6.311048 3.824877 31.873978 32 27 26
-6.263285 3.834664 31.955534 15 15 33
-6.213942 3.843675 32.030628 22 25 31
-6.172346 3.857716 32.147636 39 20 44
-6.124012 3.867797 32.231640 29 15 27
-6.084973 3.884025 32.366879 20 41 33
-6.040544 3.897125 32.476044 43 44 28
-5.996323 3.910646 32.588715 20 25 24
-5.956876 3.927610 32.730087 20 21 42
-5.907764 3.938509 32.820911 23 17 22
-5.869241 3.956792 32.973263 28 35 17
-5.826227 3.972428 33.103565 40 25 31
-5.782827 3.988157 33.234638 24 43 20
-5.743586 4.007153 33.392941 16 44 19
-5.693347 4.018833 33.490276 42 40 15
-5.649563 4.035402 33.628353 24 26 41
-5.599054 4.047509 33.729240 18 24 30
-5.546847 4.058669 33.822239 32 23 42
-5.499309 4.073562 33.946354 42 34 18
-5.444157 4.083118 34.025982 42 25 43
-5.393447 4.096289 34.135738 37 28 36
-5.337207 4.105544 34.212864 22 21 39
-5.279672 4.114030 34.283585 27 41 21
-5.225420 4.125331 34.377762 16 15 43
-5.165619 4.132495 34.437462 22 18 34
-5.111751 4.144663 34.538860 22 30 30
-5.055378 4.155105 34.625877 42 43 33
-4.998847 4.165706 34.714218 44 16 36
-4.944471 4.178427 34.820221 33 41 33
-4.883939 4.186234 34.885281 27 17 20
-4.827809 4.198095 34.984123 21 34 41
-4.767761 4.206848 35.057068 30 39 19
-4.707949 4.216074 35.133949 32 44 33
-4.652404 4.229458 35.245483 41 16 27
-4.592457 4.239191 35.326595 33 42 25
-4.537008 4.253445 35.445374 24 40 19
-4.477557 4.264340 35.536167 43 19 41
-4.417021 4.274536 35.621136 21 41 24
-4.357911 4.286470 35.720585 32 19 41
-4.293162 4.293162 35.776352 29 36 31
-9.932510 3.442518 28.217358 24 33 15
-9.876991 3.442837 28.219975 25 30 16
-9.819615 3.442509 28.217283 25 35 38
-9.759292 3.441138 28.206045 15 34 21
-9.700745 3.440381 28.199841 16 35 34
-9.647293 3.441432 28.208458 38 36 18
-9.596560 3.443472 28.225178 30 18 28
-9.549295 3.446787 28.252352 43 42 27
-9.498875 3.448996 28.270460 26 38 30
-9.451074 3.452189 28.296629 22 25 21
-9.408203 3.457231 28.337961 32 16 31
-9.362806 3.461401 28.372141 29 40 42
-9.329117 3.469977 28.442430 25 38 19
-9.294894 3.478457 28.511944 37 34 42
-9.261692 3.487427 28.585470 20 28 43
-9.229616 3.496935 28.663403 32 27 15
-9.186062 3.502186 28.706444 16 34 29
-9.150637 3.510622 28.775587 41 25 28
-9.111218 3.517622 28.832968 40 39 44
-9.070906 3.524365 28.888237 24 42 27
-9.034403 3.532683 28.956419 27 39 29
-8.989481 3.537796 28.998327 29 19 17
-8.947985 3.544332 29.051899 21 20 33
-8.899885 3.548320 29.084591 42 43 36
-8.850914 3.552012 29.114849 42 23 26
-8.807735 3.558091 29.164684 30 39 44
-8.760606 3.562647 29.202021 19 39 18
-8.717279 3.568819 29.252613 27 34 41
-8.668813 3.572957 29.286531 29 16 36
-8.619824 3.576934 29.319128 30 35 40
-8.574743 3.582598 29.365557 30 35 40
-8.525255 3.586487 29.397430 30 35 40
-8.480838 3.592577 29.447353 30 35 40
-8.433001 3.597294 29.486019 30 35 40
-8.385449 3.602200 29.526228 30 35 40
-8.341570 3.608764 29.580034 30 35 40
-8.292688 3.613242 29.616741 30 35 40
-8.248759 3.619959 29.671795 30 35 40
-8.201088 3.625119 29.714088 30 35 40
-8.152885 3.630117 29.755056 24 41 27
-8.107626 3.636509 29.807447 15 26 40
-8.056998 3.640570 29.840734 33 35 23
-8.009958 3.646324 29.887903 44 29 32
-7.959483 3.650590 29.922867 25 19 27
-7.907938 3.654426 29.954309 27 18 43
-7.858362 3.659237 29.993748 27 39 33
-7.804490 3.662107 30.017271 31 24 39
-7.753201 3.666242 30.051167 41 22 33
-7.698979 3.669044 30.074135 23 40 42
-7.645116 3.672064 30.098883 25 32 24
-7.594487 3.676696 30.136852 30 27 44
-7.541360 3.680184 30.165442 44 40 19
-7.493406 3.686272 30.215345 30 42 38
-7.443984 3.691732 30.260099 15 30 41
-7.394313 3.697157 30.304564 37 21 16
-7.345649 3.703178 30.353920 37 37 41
-7.291587 3.706557 30.381611 26 23 22
-7.239820 3.711168 30.419411 39 27 16
-7.184989 3.714274 30.444870 30 15 32
-7.129721 3.717205 30.468893 33 24 30
-7.076632 3.721333 30.502726 15 36 39
-7.020835 3.724095 30.525372 31 30 19
-6.970167 3.729651 30.570908 25 23 22
-6.918248 3.734629 30.611715 16 22 16
-6.867808 3.740503 30.659857 30 38 24
-6.820416 3.748157 30.722595 20 15 33
-6.768706 3.753555 30.766848 37 41 16
-6.722701 3.762245 30.838078 34 42 27
-6.672801 3.768897 30.892599 120 120 120
-6.624040 3.776322 30.953459 120 120 120
-6.580364 3.786813 31.039452 120 120 120
-6.531457 3.794465 31.102175 42 16 22
-6.489528 3.806358 31.199654 40 28 32
-6.441533 3.814889 31.269579 22 43 20
-6.395553 3.824791 31.350750 36 21 20
-6.358894 3.840520 31.479673 26 32 27
-6.316493 3.853061 31.582466 22 31 30
-6.278784 3.868746 31.711029 37 43 38
-6.230285 3.878035 31.787170 25 42 33
-6.180415 3.886652 31.857807 23 22 26
-6.137999 3.900187 31.968744 39 26 19
-6.089323 3.909986 32.049068 38 37 16
-6.049521 3.925753 32.178303 21 38 27
-6.004596 3.938498 32.282772 33 41 18
-5.959812 3.951614 32.390282 39 25 32
-5.919450 3.967983 32.524452 43 30 24
-5.869821 3.978435 32.610119 37 34 19
-5.830186 3.995971 32.753857 41 23 35
-5.786275 4.010940 32.876560 22 34 35
-5.742043 4.026030 33.000248 32 44 18
-5.701785 4.044289 33.149914 18 26 36
-5.651167 4.055544 33.242161 16 21 20
-5.606928 4.071697 33.374569 19 19 31
-5.556359 4.083589 33.472042 17 42 44
-5.504389 4.094728 33.563347 40 15 43
-5.457025 4.109611 33.685337 36 35 31
-5.402294 4.119249 33.764336 25 38 44
-5.352359 4.132834 33.875690 33 23 41
-5.297120 4.142619 33.955894 44 20 35
-5.240744 4.151759 34.030807 32 29 34
-5.187660 4.163780 34.129341 37 22 34
-5.128776 4.171405 34.191841 33 28 17
-5.075857 4.184153 34.296333 32 27 42
-5.020224 4.194982 34.385098 25 23 23
-4.964327 4.205888 34.474491 39 18 34
-4.910694 4.219047 34.582355 40 38 30
-4.850801 4.227127 34.648579 42 17 29
-4.795230 4.239262 34.748047 21 25 37
-4.735561 4.248077 34.820301 28 17 23
-4.676155 4.257395 34.896679 41 25 17
-4.621211 4.271119 35.009171 30 41 21
-4.561943 4.281208 35.091869 24 42 20
-4.507356 4.296074 35.213722 29 23 42
-4.448758 4.307527 35.307602 31 15 22
-4.389054 4.318263 35.395596 37 36 31
-4.330731 4.330731 35.497795 16 25 30
-4.266570 4.337679 35.554749 24 32 37
-9.891485 3.484501 28.100811 36 27 32
-9.836304 3.484862 28.103725 39 22 35
-9.779372 3.484604 28.101645 22 39 34
-9.719539 3.483303 28.091152 33 19 15
-9.661355 3.482581 28.085333 27 32 16
-9.608071 3.483628 28.093775 31 42 39
-9.557366 3.485628 28.109901 26 39 38
-9.510149 3.488930 28.136536 34 44 17
-9.459844 3.491133 28.154297 33 17 35
-9.412306 3.494389 28.180557 31 42 23
-9.369854 3.499584 28.222452 20 34 23
-9.324942 3.503917 28.257399 32 16 27
-9.291953 3.512811 28.329124 21 22 22
-9.258356 3.521583 28.399864 42 21 20
-9.225838 3.530876 28.474808 29 23 25
-9.194620 3.540785 28.554720 19 41 44
-9.151758 3.546306 28.599243 23 39 25
-9.116975 3.555047 28.669731 24 38 34
-9.077980 3.562245 28.727785 42 43 40
-9.037847 3.569086 28.782953 43 26 43
-9.001360 3.577464 28.850513 41 26 15
-8.956332 3.582533 28.891394 26 31 35
-8.914917 3.589122 28.944536 43 38 31
-8.867067 3.593190 28.977343 38 41 24
-8.818596 3.597059 29.008541 30 32 19
-8.776137 3.603447 29.060057 31 28 40
-8.729732 3.608289 29.099108 19 40 43
-8.687562 3.614959 29.152891 23 43 39
-8.640142 3.619519 29.189671 41 44 24
-8.592258 3.623945 29.225367 30 35 40
-8.548464 3.630170 29.275562 30 35 40
-8.499876 3.634430 29.309916 30 35 40
-8.456221 3.640873 29.361879 30 35 40
-8.408757 3.645755 29.401249 30 35 40
-8.361232 3.650679 29.440958 30 35 40
-8.317314 3.657259 29.494022 30 35 40
-8.268296 3.661674 29.529627 30 35 40
-8.223970 3.668245 29.582624 30 35 40
-8.176086 3.673314 29.623501 30 35 40
-8.127426 3.678105 29.662140 30 35 40
-8.081134 3.684047 29.710052 19 37 43
-8.029569 3.687654 29.739143 41 39 34
-7.981632 3.692994 29.782209 41 18 35
-7.930907 3.697114 29.815439 26 32 29
-7.879391 3.700926 29.846176 44 43 16
-7.829700 3.705660 29.884352 28 28 44
-7.775900 3.708506 29.907307 43 23 23
-7.724478 3.712540 29.939837 44 32 30
-7.670002 3.715157 29.960947 40 37 15
-7.616008 3.718051 29.984282 29 22 29
-7.565469 3.722691 30.021704 34 39 36
-7.512683 3.726291 30.050734 25 27 36
-7.465507 3.732754 30.102852 39 34 28
-7.417015 3.738658 30.150469 40 42 35
-7.368383 3.744588 30.198290 39 36 34
-7.320608 3.751055 30.250444 21 19 22
-7.267024 3.754629 30.279268 43 36 22
-7.216112 3.759655 30.319798 40 32 38
-7.162181 3.763180 30.348225 31 16 40
-7.107808 3.766531 30.375246 15 19 40
-7.055670 3.771134 30.412373 17 22 23
-7.000490 3.774177 30.436913 28 40 15
-6.950357 3.780019 30.484024 32 19 18
-6.898714 3.785135 30.525284 41 42 44
-6.848402 3.791079 30.573221 28 32 30
-6.801177 3.798855 30.635931 39 37 40
-6.749590 3.804314 30.679953 43 36 36
-6.704046 3.813311 30.752506 28 39 29
-6.655040 3.820486 30.810371 120 120 120
-6.606911 3.828303 30.873415 120 120 120
-6.563101 3.838795 30.958025 120 120 120
-6.513562 3.846103 31.016962 37 23 16
-6.470571 3.857456 31.108513 22 42 42
-6.421859 3.865585 31.174074 18 34 29
-6.375019 3.875012 31.250093 44 20 20
-6.337088 3.890094 31.371723 43 39 42
-6.293800 3.902156 31.468998 19 41 17
-6.254896 3.917207 31.590382 21 15 34
-6.205687 3.926047 31.661669 33 26 26
-6.155269 3.934296 31.728191 15 26 39
-6.112091 3.947392 31.833805 36 27 27
-6.063095 3.956967 31.911026 28 43 22
-6.022614 3.972363 32.035183 26 29 42
-5.977246 3.984831 32.135731 27 31 29
-5.931970 3.997632 32.238968 16 16 33
-5.890805 4.013515 32.367058 27 28 42
-5.840703 4.023595 32.448349 28 24 16
-5.800097 4.040517 32.584816 38 31 28
-5.755440 4.054969 32.701366 31 42 41
-5.710484 4.069540 32.818874 30 32 44
-5.669304 4.087173 32.961071 28 30 18
-5.618290 4.098047 33.048763 23 32 38
-5.573553 4.113813 33.175911 17 24 26
-5.522833 4.125490 33.270081 38 29 38
-5.470976 4.136591 33.359608 27 40 15
-5.423683 4.151461 33.479527 17 26 26
-5.369265 4.161180 33.557907 36 32 29
-5.319956 4.175155 33.670605 17 25 32
-5.265525 4.185417 33.753365 22 19 34
-5.210129 4.195169 33.832008 19 34 31
-5.158083 4.207910 33.934757 21 28 27
-5.100028 4.216023 34.000187 32 22 34
-5.048029 4.229430 34.108307 22 25 41
-4.993116 4.240729 34.199425 17 41 18
-4.937854 4.252041 34.290653 39 41 36
-4.884941 4.265723 34.400993 43 38 31
-4.825615 4.274116 34.468681 36 39 32
-4.770543 4.286574 34.569149 21 37 16
-4.711191 4.295498 34.641109 33 28 43
-4.652080 4.304910 34.717018 22 30 27
-4.597582 4.318941 34.830166 26 20 44
-4.538813 4.329329 34.913944 20 22 40
-4.484803 4.344653 35.037521 19 40 26
-4.426735 4.356470 35.132820 22 33 44
-4.367552 4.367552 35.222191 43 20 31
-4.309761 4.380413 35.325909 23 29 23
-4.246038 4.387573 35.383652 25 18 16
-9.796456 3.526724 27.989874 20 38 15
-9.740099 3.526588 27.988791 32 28 28
-9.680947 3.525431 27.979614 21 38 15
-9.623363 3.524837 27.974894 23 35 21
-9.570545 3.525990 27.984051 28 39 32
-9.520043 3.528016 28.000128 28 31 29
-9.473287 3.531462 28.027475 32 18 41
-9.423528 3.533823 28.046215 24 19 19
-9.376676 3.537309 28.073879 35 18 23
-9.335048 3.542819 28.117615 38 40 27
-9.290797 3.547395 28.153931 24 33 33
-9.258692 3.556693 28.227718 16 25 16
-9.225780 3.565792 28.299938 28 42 38
-9.193942 3.575422 28.376364 27 36 35
-9.163665 3.585782 28.458586 19 42 21
-9.121554 3.591612 28.504856 41 19 17
-9.087380 3.600660 28.576668 30 36 42
-9.048681 3.608018 28.635067 30 34 18
-9.008557 3.614899 28.689672 23 24 25
-8.971917 3.623274 28.756144 42 16 39
-8.926654 3.628253 28.795658 32 20 37
-8.885121 3.634822 28.847795 33 28 21
-8.837382 3.638922 28.880335 39 31 18
-8.789262 3.642918 28.912045 30 39 36
-8.747243 3.649512 28.964380 32 28 18
-8.701326 3.654557 29.004419 15 16 31
-8.660027 3.661622 29.060493 26 20 19
-8.613505 3.666559 29.099678 29 16 32
-8.566593 3.671397 29.138071 30 35 40
-8.523939 3.678138 29.191570 30 35 40
-8.476174 3.682752 29.228188 30 35 40
-8.433188 3.689520 29.281904 30 35 40
-8.386026 3.694543 29.321770 30 35 40
-8.338491 3.699471 29.360884 30 35 40
-8.294502 3.706054 29.413128 30 35 40
-8.245367 3.710415 29.447739 30 35 40
-8.200584 3.716811 29.498503 30 35 40
-8.152360 3.721730 29.537537 30 35 40
-8.103153 3.726267 29.573549 30 35 40
-8.055850 3.731754 29.617096 20 23 37
-8.003456 3.734946 29.642429 38 42 31
-7.954848 3.739966 29.682268 22 35 27
-7.904136 3.744065 29.714798 43 38 17
-7.852889 3.747970 29.745790 44 20 16
-7.803229 3.752698 29.783316 38 37 35
-7.749493 3.755524 29.805742 27 16 21
-7.697913 3.759446 29.836872 24 23 22
-7.643154 3.761865 29.856071 31 34 33
-7.588957 3.764601 29.877783 18 41 40
-7.538422 3.769211 29.914373 32 33 26
-7.485911 3.772899 29.943645 33 31 23
-7.439290 3.779639 29.997135 27 23 18
-7.391482 3.785881 30.046675 16 16 19
-7.343584 3.792179 30.096655 26 33 22
-7.296431 3.798968 30.150539 21 38 37
-7.243199 3.802679 30.179995 40 39 42
-7.192930 3.808022 30.222397 34 39 26
-7.139711 3.811880 30.253014 40 29 44
-7.086083 3.815583 30.282406 34 41 33
-7.034726 3.820584 30.322094 39 16 24
-6.980059 3.823858 30.348082 20 44 35
-6.930401 3.829959 30.396498 35 24 35
-6.879072 3.835235 30.438374 34 27 23
-6.828873 3.841241 30.486040 16 33 28
-6.781520 3.848971 30.547386 42 33 15
-6.729678 3.854270 30.589445 33 40 31
-6.684589 3.863570 30.663252 34 41 44
-6.636903 3.871527 30.726404 120 120 120
-6.589968 3.880075 30.794243 120 120 120
-6.546391 3.890780 30.879204 120 120 120
-6.496348 3.897809 30.934990 40 42 36
-6.452497 3.908724 31.021620 44 44 20
-6.403249 3.916550 31.083733 24 35 28
-6.355686 3.925571 31.155323 42 29 16
-6.316569 3.940038 31.270142 34 27 38
-6.272390 3.951606 31.361950 42 17 21
-6.232368 3.966053 31.476608 17 35 33
-6.182586 3.974520 31.543808 19 25 35
-6.131764 3.982486 31.607031 31 31 42
-6.087957 3.995222 31.708111 40 25 35
-6.038699 4.004611 31.782627 21 17 19
-5.997651 4.019703 31.902401 16 36 19
-5.951928 4.031951 31.999615 16 34 30
-5.906250 4.044497 32.099186 28 42 43
-5.864404 4.059972 32.222000 30 19 39
-5.813888 4.069722 32.299377 24 21 40
-5.772474 4.086133 32.429630 31 21 17
-5.727205 4.100158 32.540939 40 28 43
-5.681669 4.114312 32.653271 42 37 29
-5.639717 4.131421 32.789055 23 17 20
-5.588369 4.141968 32.872761 21 31 29
-5.543250 4.157437 32.995533 36 32 31
-5.492459 4.168975 33.087101 28 15 36
-5.440756 4.180093 33.175343 41 43 39
-5.393574 4.195002 33.293667 31 39 44
-5.339452 4.204818 33.371574 15 43 19
-5.290709 4.219173 33.485500 20 15 40
-5.236982 4.229870 33.570396 25 29 26
-5.182451 4.240187 33.652279 18 17 42
-5.131317 4.253592 33.758663 41 28 39
-5.073999 4.262159 33.826660 27 36 16
-5.022834 4.276196 33.938065 34 42 44
-4.968578 4.287950 34.031353 40 33 42
-4.913903 4.299665 34.124329 22 21 38
-4.861675 4.313880 34.237144 16 20 21
-4.802897 4.322607 34.306404 39 40 20
-4.748334 4.335435 34.408215 36 15 18
-4.689298 4.344496 34.480129 15 25 36
-4.630490 4.354043 34.555897 22 16 20
-4.576519 4.368495 34.670597 32 30 24
-4.518309 4.379284 34.756226 34 22 30
-4.464717 4.394956 34.880604 28 43 28
-4.406817 4.406817 34.974735 26 19 42
-4.347769 4.417895 35.062656 21 22 43
-4.290299 4.430964 35.166382 22 19 29
-9.747836 3.564923 27.850960 43 43 16
-9.692471 3.565047 27.851929 21 21 19
-9.634442 3.564187 27.845209 21 30 27
-9.577845 3.563849 27.842573 28 44 30
-9.525828 3.565222 27.853298 38 34 20
-9.475654 3.567305 27.869570 37 44 35
-9.429613 3.570978 27.898262 25 21 40
-9.380719 3.573607 27.918806 22 41 22
-9.334804 3.577410 27.948515 38 18 28
-9.294183 3.583299 27.994526 16 35 18
-9.250641 3.588127 28.032246 35 38 25
-9.219311 3.597780 28.107655 18 43 19
-9.186912 3.607131 28.180712 25 28 41
-9.155562 3.617012 28.257906 16 18 32
-9.126130 3.627778 28.342018 38 43 21
-9.084819 3.633928 28.390060 39 28 20
-9.051112 3.643215 28.462618 41 30 18
-9.012474 3.650623 28.520489 21 28 15
-8.972069 3.657404 28.573467 36 35 42
-8.934947 3.665619 28.637651 19 29 23
-8.889262 3.670405 28.675039 37 39 19
-8.847343 3.676818 28.725140 43 23 24
-8.799589 3.680874 28.756826 31 24 19
-8.751659 3.684909 28.788351 28 25 20
-8.709727 3.691540 28.840155 34 20 35
-8.663980 3.696631 28.879932 43 23 15
-8.623204 3.703927 28.936926 27 20 25
-8.577404 3.709147 28.977715 21 40 35
-8.531364 3.714335 29.018246 30 35 40
-8.489665 3.721497 29.074194 30 35 40
-8.442635 3.726405 29.112535 30 35 40
-8.400149 3.733399 29.167183 30 35 40
-8.353113 3.738456 29.206690 30 35 40
-8.305427 3.743291 29.244463 30 35 40
-8.261350 3.749833 29.295567 30 35 40
-8.212210 3.754153 29.329321 30 35 40
-8.166840 3.760272 29.377123 30 35 40
-8.117844 3.764797 29.412479 30 35 40
-8.067772 3.768886 29.444424 30 35 40
-8.019562 3.773911 29.483683 22 18 36
-7.966776 3.776842 29.506578 33 16 24
-7.917902 3.781685 29.544411 26 42 41
-7.867382 3.785808 29.576624 22 34 42
-7.816507 3.789822 29.607981 31 44 43
-7.767059 3.794594 29.645262 25 33 21
-7.713536 3.797433 29.667448 15 37 19
-7.661970 3.801288 29.697559 30 25 24
-7.607110 3.803555 29.715275 29 38 37
-7.552862 3.806167 29.735678 24 35 15
-7.502438 3.810762 29.771580 23 15 40
-7.450258 3.814532 29.801033 22 22 28
-7.404132 3.821487 29.855370 37 41 16
-7.356872 3.827966 29.905985 21 32 15
-7.309567 3.834527 29.957241 33 37 26
-7.262949 3.841560 30.012184 27 42 39
-7.210099 3.845386 30.042078 15 34 33
-7.160516 3.851034 30.086201 41 43 36
-7.108079 3.855229 30.118980 25 38 38
-7.055299 3.859309 30.150852 23 41 43
-7.004861 3.864751 30.193367 19 25 24
-6.950856 3.868303 30.221115 23 36 30
-6.901843 3.874719 30.271240 44 15 40
-6.850910 3.880161 30.313761 37 15 33
-6.800999 3.886285 30.361605 21 43 26
-6.753863 3.894119 30.422806 15 30 29
-6.702140 3.899427 30.464273 19 33 41
-6.657971 3.909267 30.541151 15 41 19
-6.611998 3.918221 30.611103 120 120 120
-6.566539 3.927650 30.684763 120 120 120
-6.523339 3.938620 30.770468 120 120 120
-6.472729 3.945283 30.822521 44 20 43
-6.428015 3.955701 30.903917 31 26 23
-6.378370 3.963259 30.962959 36 26 30
-6.330176 3.971875 31.030273 19 15 39
-6.289727 3.985570 31.137262 42 17 34
-6.244411 3.996423 31.222054 36 30 17
-6.203174 4.010133 31.329163 31 28 22
-6.152981 4.018273 31.392761 38 33 19
-6.101997 4.026060 31.453592 19 32 29
-6.057699 4.038466 31.550516 39 37 41
-6.008226 4.047647 31.622240 43 36 39
-5.966696 4.062432 31.737747 39 23 43
-5.920707 4.074465 31.831760 15 31 40
-5.874722 4.086763 31.927839 24 44 16
-5.832292 4.101832 32.045559 32 15 26
-5.781458 4.111259 32.119209 32 33 33
-5.739346 4.127170 32.243519 42 23 21
-5.693579 4.140785 32.349880 43 37 31
-5.647597 4.154554 32.457455 17 22 28
-5.605056 4.171204 32.587532 23 44 38
-5.553522 4.181476 32.667778 37 17 20
-5.508240 4.196754 32.787144 30 31 21
-5.457607 4.208275 32.877151 28 15 32
-5.406261 4.219521 32.965004 26 33 25
-5.359339 4.234539 33.082336 38 38 37
-5.305569 4.244455 33.159805 41 35 19
-5.257409 4.259167 33.274738 33 17 32
-5.204403 4.270279 33.361557 36 43 15
-5.150689 4.281092 33.446033 30 16 31
-5.100376 4.295053 33.555103 22 25 25
-5.043719 4.303973 33.624790 42 35 23
-4.993225 4.318465 33.738007 16 15 40
-4.939480 4.330503 33.832054 32 31 40
-4.885287 4.342477 33.925602 27 43 35
-4.833674 4.357114 34.039955 30 40 27
-4.775478 4.366151 34.110554 43 29 18
-4.721471 4.379335 34.213558 29 34 29
-4.662824 4.388540 34.285469 16 15 29
-4.604457 4.398287 34.361618 42 23 33
-4.551245 4.413328 34.479126 23 39 29
-4.493864 4.424728 34.568184 33 35 32
-4.440809 4.440809 34.693817 21 19 40
-4.382989 4.452561 34.785629 30 26 28
-4.323959 4.463442 34.870640 18 32 41
-4.266822 4.476666 34.973949 25 31 23
-9.717867 3.609493 27.765333 35 43 39
-9.663356 3.609874 27.768265 22 31 26
-9.606287 3.609299 27.763836 20 29 43
-9.550550 3.609220 27.763227 31 16 38
-9.499285 3.610839 27.775688 17 25 16
-9.449447 3.613024 27.792490 36 38 27
-9.404115 3.616967 27.822824 22 39 32
-9.356050 3.619900 27.845387 26 24 31
-9.310968 3.624029 27.877150 18 15 15
-9.271157 3.630272 27.925173 33 37 40
-9.228079 3.635304 27.963877 24 39 44
-9.197152 3.645213 28.040098 35 19 26
-9.164917 3.654721 28.113241 15 22 28
-9.133676 3.664746 28.190357 32 28 24
-9.104655 3.675792 28.275326 16 40 36
-9.063800 3.682169 28.324375 43 19 44
-9.030212 3.691596 28.396893 31 33 26
-8.991389 3.698989 28.453764 38 22 29
-8.950559 3.705645 28.504965 23 19 40
-8.912882 3.713701 28.566929 42 22 27
-8.866789 3.718331 28.602545 18 24 31
-8.824401 3.724585 28.650654 23 19 23
-8.776496 3.728577 28.681360 36 27 29
-8.728478 3.732573 28.712099 31 37 16
-8.686227 3.739104 28.762341 38 20 35
-8.640256 3.744111 28.800854 43 40 18
-8.599388 3.751411 28.857008 15 22 33
-8.553756 3.756717 28.897825 30 35 40
-8.508029 3.762054 28.938873 30 35 40
-8.466625 3.769388 28.995291 30 35 40
-8.419886 3.774431 29.034088 30 35 40
-8.377481 3.781502 29.088476 30 35 40
-8.330355 3.786525 29.127115 30 35 40
-8.282482 3.791277 29.163670 30 35 40
-8.238329 3.797811 29.213934 30 35 40
-8.189291 3.802171 29.247467 30 35 40
-8.143493 3.808108 29.293140 30 35 40
-8.093748 3.812272 29.325172 30 35 40
-8.042973 3.816009 29.353914 30 35 40
-7.994377 3.820842 29.391090 30 35 40
-7.941733 3.823797 29.413824 41 27 15
-7.893088 3.828737 29.451820 40 25 17
-7.842886 3.832990 29.484535 22 16 39
-7.792382 3.837158 29.516600 39 21 26
-7.743224 3.842058 29.554289 44 42 37
-7.689896 3.844948 29.576523 42 33 38
-7.638447 3.848830 29.606382 42 40 22
-7.583642 3.851068 29.623602 40 30 25
-7.529434 3.853647 29.643440 42 25 32
-7.479100 3.858266 29.678967 19 22 20
-7.427097 3.862091 29.708389 15 37 31
-7.381093 3.869121 29.762472 23 39 24
-7.333918 3.875648 29.812674 43 16 37
-7.286704 3.882260 29.863541 37 32 34
-7.240189 3.889358 29.918137 33 18 18
-7.187491 3.893224 29.947880 30 41 29
-7.138200 3.899017 29.992435 26 16 15
-7.086131 3.903377 30.025980 22 24 28
-7.033792 3.907662 30.058941 29 25 33
-6.983829 3.913352 30.102711 41 16 16
-6.930216 3.917079 30.131374 31 24 40
-6.881609 3.923724 30.182495 21 43 27
-6.830964 3.929316 30.225504 39 40 18
-6.781310 3.935582 30.273705 23 17 30
-6.734393 3.943563 30.335102 44 22 22
-6.682808 3.948932 30.376398 15 34 32
-6.639421 3.959288 30.456059 21 40 22
-6.594783 3.969083 30.531404 120 120 120
-6.550514 3.979284 30.609880 120 120 120
-6.507740 3.990595 30.696886 120 120 120
-6.456840 3.997091 30.746857 33 29 22
-6.411753 4.007346 30.825735 28 39 22
-6.362094 4.014913 30.883949 31 15 38
-6.313702 4.023438 30.949522 28 36 29
-6.272509 4.036763 31.052025 17 37 34
-6.226447 4.047190 31.132235 41 22 26
-6.184559 4.060569 31.235147 22 30 40
-6.134309 4.068675 31.297497 42 35 21
-6.083467 4.076550 31.358078 39 27 28
-6.039064 4.088950 31.453461 30 16 44
-5.989549 4.098112 31.523941 36 17 21
-5.947871 4.112890 31.637613 41 22 26
-5.901847 4.124947 31.730358 35 33 44
-5.855805 4.137253 31.825026 20 40 40
-5.813192 4.152280 31.940613 37 15 18
-5.762283 4.161649 32.012684 15 24 15
-5.719958 4.177498 32.134598 19 38 39
-5.674065 4.191071 32.239006 35 24 26
-5.628008 4.204834 32.344875 38 30 31
-5.585340 4.221478 32.472904 33 31 41
-5.533836 4.231757 32.551979 43 30 32
-5.488652 4.247171 32.670547 23 20 29
-5.438280 4.258894 32.760723 31 27 20
-5.387263 4.270391 32.849163 41 16 15
-5.340583 4.285653 32.966560 38 41 21
-5.287021 4.295705 33.043884 33 26 30
-5.239132 4.310678 33.159065 37 39 32
-5.186469 4.322058 33.246597 30 37 29
-5.133087 4.333125 33.331734 27 42 24
-5.083079 4.347370 33.441307 15 38 29
-5.026662 4.356440 33.511078 16 41 24
-4.976363 4.371129 33.624073 44 17 21
-4.922753 4.383273 33.717487 40 40 17
-4.868707 4.395361 33.810467 36 42 23
-4.817336 4.410238 33.924904 34 15 18
-4.759448 4.419488 33.996059 15 17 31
-4.705771 4.432973 34.099792 15 29 30
-4.647361 4.442330 34.171772 20 36 15
-4.589310 4.452316 34.248585 37 23 35
-4.536678 4.467941 34.368774 28 18 16
-4.479923 4.479923 34.460945 16 18 43
-4.427167 4.496341 34.587238 19 26 36
-4.369191 4.507895 34.676117 18 25 21
-4.309930 4.518475 34.757504 18 30 18
-4.252889 4.531767 34.859745 22 40 30
-9.618454 3.648379 27.639236 15 35 43
-9.562344 3.648062 27.636831 38 40 41
-9.507550 3.648246 27.638226 33 31 19
-9.457209 3.650151 27.652658 35 25 31
-9.407941 3.652495 27.670416 27 16 25
-9.363576 3.656781 27.702887 33 32 16
-9.316544 3.660071 27.727810 18 39 16
-9.272448 3.664560 27.761822 35 37 29
-9.233580 3.671183 27.811989 38 19 30
-9.191043 3.676417 27.851646 29 43 29
-9.160606 3.686585 27.928677 18 22 20
-9.128611 3.696247 28.001873 36 44 30
-9.097591 3.706426 28.078985 40 16 41
-9.069195 3.717807 28.165203 24 17 42
-9.029046 3.724481 28.215769 40 26 44
-8.995839 3.734122 28.288803 39 17 39
-8.956994 3.741529 28.344919 39 22 22
-8.915899 3.748085 28.394583 16 44 44
-8.877968 3.756063 28.455025 34 43 16
-8.831761 3.760621 28.489552 38 38 36
-8.789203 3.766801 28.536373 41 16 41
-8.741351 3.770779 28.566505 24 21 22
-8.693363 3.774750 28.596590 31 26 39
-8.650817 3.781152 28.645090 35 39 39
-8.604565 3.786009 28.681883 20 15 23
-8.563583 3.793265 28.736856 17 37 33
-8.518200 3.798657 28.777702 32 15 43
-8.472879 3.804150 28.819317 30 35 40
-8.431865 3.811665 28.876249 30 35 40
-8.385481 3.816840 28.915451 30 35 40
-8.343283 3.824005 28.969732 30 35 40
-8.296263 3.829044 29.007912 30 35 40
-8.248336 3.833734 29.043438 30 35 40
-8.204000 3.840170 29.092197 30 35 40
-8.154821 3.844416 29.124361 30 35 40
-8.108668 3.850159 29.167870 30 35 40
-8.058559 3.854093 29.197678 30 35 40
-8.007557 3.857655 29.224661 30 35 40
-7.958925 3.862419 29.260754 37 31 26
-7.906559 3.865429 29.283550 23 28 33
-7.858402 3.870556 29.322397 26 19 35
-7.808802 3.875044 29.356398 25 43 18
-7.758906 3.879453 29.389795 26 41 38
-7.710226 3.884541 29.428343 16 17 36
-7.657161 3.887482 29.450621 32 22 32
-7.605920 3.891401 29.480309 35 30 19
-7.551278 3.893628 29.497181 43 22 31
-7.497183 3.896174 29.516468 39 26 36
-7.447005 3.900812 29.551605 38 27 40
-7.395227 3.904680 29.580908 40 25 43
-7.349150 3.911644 29.633669 32 27 33
-7.301742 3.918008 29.681879 44 33 31
-7.254283 3.924448 29.730669 42 28 36
-7.207628 3.931434 29.783588 38 20 21
-7.155058 3.935282 29.812742 25 27 27
-7.106010 3.941148 29.857183 35 28 39
-7.054303 3.945627 29.891115 36 39 21
-7.002454 3.950102 29.925018 19 38 25
-6.953020 3.956029 29.969915 34 19 42
-6.899890 3.959937 29.999521 15 38 30
-6.851793 3.966827 30.051722 17 23 24
-6.801529 3.972574 30.095261 19 35 25
-6.752242 3.979000 30.143938 33 44 27
-6.705713 3.987181 30.205914 16 23 26
-6.654452 3.992671 30.247511 31 43 19
-6.611853 4.003508 30.329603 25 39 41
-6.568259 4.013936 30.408607 120 120 120
-6.525075 4.024812 30.491003 120 120 120
-6.483332 4.036792 30.581755 120 120 120
-6.433068 4.043643 30.633659 22 16 42
-6.388181 4.054038 30.712408 43 39 30
-6.338364 4.061476 30.768759 39 37 35
-6.289429 4.069631 30.830536 17 36 21
-6.247439 4.082485 30.927916 20 21 34
-6.200743 4.092490 31.003716 42 44 24
-6.158337 4.105558 31.102715 27 34 26
-6.108169 4.113665 31.164125 18 23 18
-6.057572 4.121647 31.224600 41 32 37
-6.013115 4.134016 31.318306 43 42 38
-5.963567 4.143110 31.387196 23 20 27
-5.921720 4.157804 31.498512 28 20 17
-5.875636 4.169807 31.589443 40 35 41
-5.829513 4.182042 31.682135 35 27 28
-5.786696 4.196944 31.795033 36 21 41
-5.735728 4.206201 31.865158 30 44 29
-5.693237 4.221951 31.984478 43 44 41
-5.647287 4.235466 32.086861 43 20 42
-5.601271 4.249240 32.191216 25 28 44
-5.558604 4.265906 32.317467 29 15 27
-5.507273 4.276236 32.395725 35 22 25
-5.462427 4.291907 32.514446 37 38 36
-5.412564 4.303967 32.605808 37 44 33
-5.362141 4.315870 32.695984 25 24 37
-5.315977 4.331537 32.814674 19 21 30
-5.262807 4.341816 32.892544 16 41 40
-5.215407 4.357175 33.008904 29 44 18
-5.163225 4.368883 33.097599 30 41 40
-5.110331 4.380284 33.183968 36 23 23
-5.060830 4.394931 33.294933 32 27 34
-5.004830 4.404250 33.365532 35 29 25
-4.954962 4.419290 33.479473 15 44 33
-4.901697 4.431671 33.573265 38 28 44
-4.848006 4.444005 33.666706 16 19 26
-4.797095 4.459271 33.782356 43 20 35
-4.739656 4.468819 33.854687 41 25 19
-4.686472 4.482712 33.959942 38 17 30
-4.628426 4.492296 34.032543 18 19 22
-4.570802 4.502581 34.110462 37 19 33
-4.518964 4.518964 34.234577 25 30 23
-4.463042 4.531704 34.331089 17 19 19
-4.410391 4.548215 34.456177 24 28 20
-4.351705 4.558929 34.537338 19 15 20
-4.291633 4.568513 34.609947 39 19 15
-9.583107 3.690047 27.537663 25 25 19
-9.527396 3.689801 27.535826 19 22 34
-9.473146 3.690121 27.538214 16 30 16
-9.423394 3.692207 27.553783 15 43 44
-9.374598 3.694695 27.572348 19 37 24
-9.330964 3.699258 27.606403 36 21 34
-9.284654 3.702809 27.632900 26 18 36
-9.241260 3.707571 27.668444 30 26 43
-9.203035 3.714478 27.719984 19 31 37
-9.160869 3.719868 27.760208 23 29 17
-9.130850 3.730286 27.837957 29 38 34
-9.099110 3.740125 27.911381 40 16 20
-9.068407 3.750514 27.988911 18 28 32
-9.040633 3.762251 28.076500 27 18 30
-9.001142 3.769228 28.128569 35 41 25
-8.968448 3.779157 28.202665 34 39 22
-8.929750 3.786666 28.258703 15 42 24
-8.888683 3.793260 28.307909 42 32 29
-8.850922 3.801357 28.368340 39 34 38
-8.804934 3.806004 28.403011 42 16 21
-8.762581 3.812292 28.449938 36 44 44
-8.714946 3.816349 28.480215 24 35 24
-8.667075 3.820356 28.510117 33 17 33
-8.624420 3.826729 28.557682 38 19 17
-8.577968 3.831492 28.593227 32 17 19
-8.536908 3.838744 28.647343 28 31 27
-8.491728 3.844228 28.688269 17 42 31
-8.446729 3.849870 28.730370 30 35 40
-8.405971 3.857535 28.787571 30 35 40
-8.359810 3.862809 28.826931 30 35 40
-8.317836 3.870104 28.881376 30 35 40
-8.271077 3.875260 28.919851 30 35 40
-8.223266 3.879992 28.955162 30 35 40
-8.178681 3.886324 29.002417 30 35 40
-8.129146 3.890377 29.032663 30 35 40
-8.082789 3.896020 29.074780 30 35 40
-8.032868 3.900015 29.104593 30 35 40
-7.982228 3.903717 29.132217 30 35 40
-7.933865 3.908595 29.168621 30 26 39
-7.881728 3.911672 29.191586 16 26 28
-7.833981 3.916991 29.231274 16 20 26
-7.784892 3.921712 29.266510 44 33 15
-7.735479 3.926341 29.301056 43 43 44
-7.687128 3.931584 29.340181 22 44 21
-7.634230 3.934565 29.362423 29 23 40
-7.583080 3.938499 29.391785 20 35 26
-7.528544 3.940722 29.408375 30 17 38
-7.474520 3.943251 29.427244 34 44 40
-7.424455 3.947924 29.462122 26 38 32
-7.372845 3.951845 29.491381 25 31 24
-7.326556 3.958704 29.542566 17 29 34
-7.278695 3.964818 29.588192 37 22 30
-7.230768 3.970995 29.634295 30 28 16
-7.183813 3.977814 29.685179 39 24 42
-7.131287 3.981635 29.713696 29 42 18
-7.082371 3.987554 29.757862 22 27 44
-7.030866 3.992102 29.791805 35 24 27
-6.979343 3.996718 29.826252 23 43 34
-6.930273 4.002830 29.871866 44 27 34
-6.877507 4.006896 29.902206 39 27 37
-6.829818 4.014016 29.955343 22 26 40
-6.779881 4.019929 29.999472 21 34 34
-6.730926 4.026536 30.048775 22 44 26
-6.684801 4.034970 30.111715 23 36 41
-6.633898 4.040647 30.154083 37 38 30
-6.591709 4.051784 30.237196 18 41 16
-6.548261 4.062347 30.316021 120 120 120
-6.505492 4.073532 30.399496 120 120 120
-6.464987 4.086360 30.495222 120 120 120
-6.416138 4.094107 30.553036 30 29 37
-6.372019 4.105051 30.634706 30 18 35
-6.321914 4.112313 30.688904 22 38 15
-6.272263 4.120016 30.746386 22 24 33
-6.229794 4.132636 30.840565 21 25 43
-6.182905 4.142546 30.914524 30 37 29
-6.140389 4.155617 31.012066 36 15 16
-6.090382 4.163833 31.073378 31 23 43
-6.040015 4.171969 31.134098 28 40 29
-5.995609 4.184436 31.227131 39 23 17
-5.946082 4.193552 31.295166 30 41 16
-5.904146 4.208274 31.405033 30 34 39
-5.858014 4.220290 31.494701 25 41 39
-5.811833 4.232531 31.586050 15 15 35
-5.768873 4.247412 31.697105 30 41 39
-5.717867 4.256634 31.765928 25 39 39
-5.675285 4.272405 31.883621 40 44 39
-5.629340 4.285975 31.984888 17 37 40
-5.583396 4.299857 32.088482 26 22 30
-5.540796 4.316666 32.213928 38 22 27
-5.489627 4.327118 32.291924 37 24 22
-5.445095 4.343111 32.411278 33 16 43
-5.395662 4.355534 32.503986 15 33 30
-5.345708 4.367835 32.595783 35 27 18
-5.299959 4.383916 32.715794 34 22 42
-5.247075 4.394425 32.794220 36 19 36
-5.200014 4.410138 32.911480 35 38 25
-5.148140 4.422120 33.000896 42 42 25
-5.095557 4.433797 33.088036 15 44 37
-5.046397 4.448797 33.199978 29 16 43
-4.990683 4.458343 33.271217 18 30 17
-4.941149 4.473743 33.386139 15 36 26
-4.888166 4.486399 33.480591 44 30 16
-4.834777 4.499029 33.574841 20 41 38
-4.784235 4.514701 33.691799 26 20 41
-4.727126 4.524535 33.765186 33 30 40
-4.674309 4.538822 33.871803 40 41 43
-4.616501 4.548611 33.944859 21 27 32
-4.559177 4.559177 34.023712 26 38 44
-4.508012 4.576315 34.151608 39 41 15
-4.452813 4.589823 34.252407 20 38 31
-4.400131 4.606388 34.376026 15 42 38
-4.340600 4.616193 34.449203 23 22 41
-4.279568 4.624694 34.512642 24 40 29
-9.548640 3.731653 27.438622 28 18 26
-9.493137 3.731407 27.436813 27 25 28
-9.439189 3.731772 27.439503 20 37 32
-9.389904 3.733997 27.455858 15 20 22
-9.341594 3.736638 27.475277 43 36 42
-9.298564 3.741434 27.510546 40 39 44
-9.252762 3.745165 27.537981 32 28 20
-9.209794 3.750096 27.574232 27 42 33
-9.171917 3.757171 27.626257 22 19 25
-9.129941 3.762642 27.666489 35 37 36
-9.100078 3.773203 27.744141 38 32 16
-9.068438 3.783152 27.817293 36 25 16
-9.037908 3.793690 27.894779 17 25 44
-9.010525 3.805688 27.982998 30 18 27
-8.971497 3.812886 28.035929 33 27 21
-8.939248 3.823075 28.110844 15 25 39
-8.900783 3.830717 28.167034 28 29 32
-8.859938 3.837425 28.216364 42 39 35
-8.822607 3.845752 28.277586 39 42 40
-8.777065 3.850584 28.313114 39 25 15
-8.735154 3.857081 28.360889 36 27 38
-8.687875 3.861278 28.391748 23 24 24
-8.640182 3.865345 28.421652 17 20 34
-8.597487 3.871716 28.468500 33 35 25
-8.550895 3.876406 28.502983 41 25 31
-8.509741 3.883640 28.556179 39 31 36
-8.464679 3.889177 28.596888 26 30 41
-8.419896 3.894918 28.639101 30 35 40
-8.379306 3.902691 28.696255 30 35 40
-8.333330 3.908044 28.735620 30 35 40
-8.291567 3.915462 28.790163 30 35 40
-8.245133 3.920762 28.829136 30 35 40
-8.197516 3.925571 28.864494 30 35 40
-8.152739 3.931818 28.910423 30 35 40
-8.102875 3.935682 28.938841 30 35 40
-8.056580 3.941349 28.980505 30 35 40
-8.007219 3.945586 29.011662 30 35 40
-7.957338 3.949627 29.041378 30 35 40
-7.909572 3.954786 29.079309 32 31 21
-7.857796 3.958001 29.102949 36 23 27
-7.810613 3.963595 29.144077 21 41 42
-7.762146 3.968616 29.181000 44 44 22
-7.713284 3.973510 29.216984 29 19 40
-7.665361 3.978966 29.257103 16 30 21
-7.612661 3.982007 29.279467 20 41 38
-7.561732 3.986029 29.309040 28 24 23
-7.507460 3.988338 29.326015 19 28 24
-7.453629 3.990919 29.344995 16 15 40
-7.403712 3.995654 29.379808 26 17 36
-7.352202 3.999598 29.408808 35 34 18
-7.305572 4.006282 29.457952 35 21 32
-7.257142 4.012078 29.500576 22 25 30
-7.208594 4.017905 29.543419 37 41 39
-7.161197 4.024474 29.591722 44 43 41
-7.108636 4.028227 29.619318 39 33 20
-7.059653 4.034088 29.662409 19 35 44
-7.008172 4.038608 29.695644 29 26 29
-6.956761 4.043246 29.729750 21 17 30
-6.907816 4.049410 29.775070 27 32 43
-6.855242 4.053535 29.805401 19 40 23
-6.807774 4.060777 29.858656 28 38 30
-6.758046 4.066789 29.902859 41 34 36
-6.709333 4.073524 29.952379 37 24 38
-6.663523 4.082158 30.015869 16 32 36
-6.612948 4.088004 30.058855 42 18 24
-6.570903 4.099279 30.141758 33 26 42
-6.527189 4.109712 30.218468 120 120 120
-6.484464 4.120967 30.301231 120 120 120
-6.445058 4.134566 30.401218 120 120 120
-6.397737 4.143297 30.465416 42 35 35
-6.354543 4.154893 30.550686 27 23 22
-6.304234 4.162018 30.603077 30 20 18
-6.254014 4.169343 30.656933 21 17 43
-6.211361 4.181906 30.749311 37 42 31
-6.164574 4.191910 30.822868 19 19 19
-6.122188 4.205139 30.920143 39 42 18
-6.072424 4.213519 30.981756 30 17 21
-6.022279 4.221804 31.042673 44 29 27
-5.977954 4.234384 31.135176 27 25 28
-5.928449 4.243521 31.202364 36 23 27
-5.886439 4.258275 31.310846 27 32 37
-5.840269 4.270304 31.399294 25 33 32
-5.794057 4.282564 31.489443 35 36 20
-5.751041 4.297481 31.599125 38 33 30
-5.700088 4.306734 31.667158 25 40 35
-5.657594 4.322656 31.784237 20 44 43
-5.611800 4.336391 31.885225 42 36 29
-5.566099 4.350514 31.989075 35 36 33
-5.523782 4.367642 32.115013 42 42 38
-5.472920 4.378336 32.193645 15 33 43
-5.428896 4.394821 32.314857 31 38 28
-5.380014 4.407722 32.409721 42 18 17
-5.330654 4.420542 32.503986 24 37 18
-5.285502 4.437211 32.626553 21 31 20
-5.233034 4.448079 32.706463 34 19 38
-5.186453 4.464289 32.825653 24 34 25
-5.134938 4.476612 32.916267 15 42 44
-5.082704 4.488622 33.004570 24 43 18
-5.034012 4.504116 33.118500 44 20 36
-4.978690 4.514013 33.191269 15 27 18
-4.929671 4.529968 33.308590 31 25 35
-4.877131 4.543081 33.405006 36 15 19
-4.824168 4.556159 33.501167 18 26 27
-4.774088 4.572366 33.620338 15 22 33
-4.717304 4.582524 33.695026 40 24 32
-4.664864 4.597257 33.803364 31 32 16
-4.607355 4.607355 33.877609 36 31 18
-4.550292 4.618207 33.957405 20 28 29
-4.499585 4.635937 34.087769 16 42 19
-4.444815 4.649960 34.190884 39 44 19
-4.391770 4.666256 34.310703 34 27 31
-4.331164 4.674908 34.374321 28 21 19
-4.269003 4.682132 34.427444 31 20 32
