ply
format ascii 1.0
element vertex 1256
property float x
property float y
property float z
property uchar red
property uchar green
property uchar blue
end_header
-5.345258 3.759302 29.369547 21 31 41
-5.294976 3.765316 29.416533 39 20 33
-5.249860 3.775180 29.493595 40 21 26
-5.202350 3.783527 29.558805 30 20 28
-5.154294 3.791664 29.622377 42 33 36
-5.108174 3.801432 29.698687 20 32 35
-5.056575 3.807303 29.744556 20 23 20
-5.007548 3.815274 29.806831 37 19 40
-4.955177 3.820859 29.850462 30 34 26
-4.901741 3.825749 29.888664 15 31 35
-4.850447 3.832452 29.941032 39 40 35
-4.795927 3.836742 29.974545 38 16 35
-4.742455 3.841989 30.015535 26 25 27
-4.686207 3.845093 30.039785 25 44 16
-4.629265 3.847701 30.060163 38 42 31
-4.573659 3.851502 30.089861 37 34 44
-4.516341 3.853944 30.108940 16 39 26
-4.462568 3.859519 30.152489 39 21 34
-4.408726 3.865184 30.196751 40 39 41
-4.355383 3.871452 30.245716 44 44 30
-4.302656 3.878450 30.300394 39 24 18
-4.246664 3.882665 30.333317 17 36 16
-4.193368 3.889500 30.386723 43 17 24
-4.138303 3.894873 30.428696 17 37 37
-4.083483 3.900641 30.473757 34 36 37
-4.031058 3.908904 30.538315 27 29 17
-3.976114 3.914943 30.585495 19 42 20
-3.922203 3.922203 30.642212 17 31 41
-3.865546 3.926904 30.678938 38 35 36
-3.807278 3.930094 30.703856 35 23 23
-3.749199 3.933586 30.731138 19 21 30
-3.688921 3.934849 30.741007 36 41 41
-3.629118 3.936671 30.755241 35 23 23
-10.027319 3.561616 27.397045 22 23 18
-9.962788 3.558139 27.370296 41 41 35
-9.899303 3.554998 27.346140 27 30 15
-9.840990 3.553691 27.336084 18 27 37
-9.785915 3.553545 27.334959 21 37 26
-9.733828 3.554488 27.342215 15 20 38
-9.684872 3.556592 27.358397 22 30 28
-9.636979 3.559112 27.377781 17 21 40
-9.587742 3.561161 27.393549 31 41 40
-9.541060 3.564189 27.416840 22 28 41
-9.492608 3.566587 27.435284 32 16 17
-9.443529 3.568776 27.452120 34 28 27
-9.395059 3.571221 27.470932 44 24 38
-9.343505 3.572517 27.480898 30 28 17
-9.293611 3.574466 27.495892 27 43 41
-9.242021 3.575782 27.506014 36 33 19
-9.190972 3.577324 27.517879 17 16 15
-9.142360 3.579840 27.537230 17 26 25
-9.092382 3.581847 27.552671 21 34 29
-9.046257 3.585407 27.580051 32 42 28
-8.999067 3.588585 27.604500 16 44 25
-8.951992 3.591849 27.629604 16 32 24
-8.906309 3.595715 27.659346 38 40 32
-8.856877 3.598106 27.677740 27 33 32
-8.807946 3.600733 27.697943 22 15 33
-8.755895 3.602109 27.708529 15 32 40
-8.702523 3.602955 27.715040 22 20 42
-8.650438 3.604349 27.725763 28 41 30
-8.596953 3.605174 27.732107 24 26 16
-8.544722 3.606538 27.742603 44 31 35
-8.491806 3.607630 27.751001 33 17 17
-8.439008 3.608786 27.759895 26 28 41
-8.386989 3.610293 27.771488 31 40 43
-8.333759 3.611295 27.779196 38 43 34
-8.282422 3.613137 27.793364 41 29 21
-8.230614 3.614797 27.806128 19 41 35
-8.178910 3.616525 27.819422 44 15 24
-8.127910 3.618590 27.835308 34 43 34
-8.075104 3.619874 27.845186 33 43 37
-8.023202 3.621584 27.858339 26 26 22
-7.969816 3.622644 27.866489 29 42 23
-7.916431 3.623719 27.874758 41 43 40
-7.864611 3.625530 27.888691 35 42 27
-7.811878 3.626943 27.899565 16 20 25
-7.760240 3.628889 27.914532 22 15 18
-7.707407 3.630300 27.925386 41 41 19
-7.654157 3.631535 27.934881 19 26 18
-7.601383 3.633014 27.946262 28 27 32
-7.547200 3.633837 27.952591 21 17 40
-7.493864 3.635083 27.962177 23 23 35
-7.440311 3.636242 27.971094 21 25 42
-7.386015 3.637053 27.977331 29 20 20
-7.330946 3.637492 27.980709 20 31 42
-7.274577 3.637288 27.979141 26 41 42
-7.218171 3.637063 27.977407 44 39 30
-7.161437 3.636667 27.974365 32 26 33
-7.105567 3.636708 27.974674 36 34 42
-7.051303 3.637577 27.981361 26 32 22
-6.997604 3.638754 27.990417 42 21 20
-6.946228 3.641168 28.008984 30 34 33
-6.895059 3.643730 28.028696 26 35 24
-6.843519 3.646137 28.047211 29 43 40
-6.791443 3.648296 28.063812 20 20 39
-6.736899 3.649154 28.070414 33 40 28
-6.680288 3.648897 28.068436 40 21 31
-6.622395 3.647929 28.060995 31 33 35
-6.562395 3.645775 28.044424 35 31 32
-6.500724 3.642647 28.020363 44 19 25
-6.439786 3.639879 27.999069 41 15 31
-6.377834 3.636484 27.972956 34 30 25
-6.317413 3.633910 27.953154 43 20 34
-6.258973 3.632440 27.941843 37 18 17
-6.201166 3.631313 27.933178 36 15 19
-6.145417 3.631383 27.933716 30 19 21
-6.095744 3.635077 27.962128 20 32 35
-6.047696 3.639817 27.998592 120 120 120
-6.003566 3.647026 28.054049 120 120 120
-5.962926 3.656511 28.127010 120 120 120
-5.918557 3.663868 28.183603 35 20 41
-5.880406 3.675254 28.271181 16 41 28
-5.837328 3.683751 28.336544 15 31 32
-5.795206 3.693024 28.407873 33 22 40
-5.759277 3.706465 28.511271 17 39 43
-5.717557 3.716412 28.587784 20 16 37
-5.680216 3.729435 28.687962 19 18 26
-5.635626 3.737915 28.753193 24 31 27
-5.589691 3.745669 28.812841 18 20 36
-5.548515 3.756807 28.898514 22 43 29
-5.501742 3.764350 28.956539 27 37 21
-5.460204 3.775673 29.043638 30 24 33
-5.414736 3.784493 29.111486 20 27 25
-5.368386 3.792881 29.176008 41 28 25
-5.324336 3.803097 29.254595 15 41 43
-5.274261 3.809188 29.301449 15 17 32
-5.229278 3.819136 29.377966 21 41 21
-5.181902 3.827541 29.442625 40 33 33
-5.133939 3.835702 29.505398 20 19 24
-5.087824 3.845449 29.580374 32 40 40
-5.036274 3.851269 29.625143 38 39 24
-4.987174 3.859123 29.685560 16 22 18
-4.934782 3.864589 29.727604 41 39 27
-4.881343 3.869357 29.764286 24 18 26
-4.830005 3.875930 29.814848 19 39 19
-4.775571 3.880152 29.847321 41 33 31
-4.722168 3.885328 29.887142 15 35 18
-4.666074 3.888395 29.910730 34 19 40
-4.609328 3.890991 29.930698 39 23 29
-4.553879 3.894765 29.959728 17 17 25
-4.496759 3.897191 29.978392 41 35 18
-4.443251 3.902855 30.021963 43 44 37
-4.389764 3.908694 30.066879 18 15 40
-4.336780 3.915148 30.116526 39 26 30
-4.284349 3.922291 30.171469 42 23 24
-4.228594 3.926552 30.204245 41 43 26
-4.175483 3.933426 30.257122 15 40 43
-4.120561 3.938772 30.298243 16 31 40
-4.065928 3.944557 30.342749 43 42 42
-4.013856 3.953040 30.407997 15 35 29
-3.959354 3.959354 30.456572 19 36 41
-3.905696 3.966723 30.513252 18 28 28
-3.849048 3.971240 30.548002 23 42 31
-3.790786 3.974211 30.570852 28 33 26
-3.732899 3.977679 30.597530 36 21 39
-3.672970 3.979050 30.608080 29 35 27
-3.613611 3.981097 30.623821 38 35 20
-9.973730 3.597083 27.250629 28 40 19
-9.910738 3.594004 27.227303 38 23 16
-9.849791 3.591637 27.209368 28 16 17
-9.793598 3.590986 27.204439 30 27 35
-9.739964 3.591271 27.206602 15 35 32
-9.687910 3.592146 27.213230 38 15 42
-9.638383 3.593973 27.227070 40 21 36
-9.590353 3.596382 27.245321 29 33 17
-9.541226 3.598405 27.260645 20 36 16
-9.494281 3.601279 27.282415 38 38 20
-9.445505 3.603488 27.299149 41 27 42
-9.395944 3.605420 27.313789 40 20 19
-9.346771 3.607525 27.329739 36 38 15
-9.294756 3.608552 27.337519 28 20 26
-9.244260 3.610184 27.349880 40 25 28
-9.192429 3.611311 27.358419 21 21 40
-9.141219 3.612697 27.368919 26 24 24
-9.092240 3.614987 27.386265 21 16 16
-9.042106 3.616842 27.400320 33 25 18
-8.995664 3.620206 27.425806 30 41 20
-8.948266 3.623224 27.448669 20 27 23
-8.901139 3.626390 27.472652 20 33 44
-8.855505 3.630207 27.501570 27 26 35
-8.806385 3.632634 27.519953 38 34 37
-8.757883 3.635348 27.540512 19 29 26
-8.706251 3.636788 27.551426 33 43 24
-8.653431 3.637748 27.558699 37 16 17
-8.602027 3.639319 27.570601 29 26 42
-8.549186 3.640298 27.578018 30 29 40
-8.497892 3.641954 27.590559 19 40 28
-8.445838 3.643303 27.600777 21 24 44
-8.393979 3.644754 27.611774 21 34 19
-8.343066 3.646638 27.626047 24 21 29
-8.290673 3.647896 27.635576 40 15 40
-8.240455 3.650135 27.652534 33 42 42
-8.189566 3.652104 27.667454 39 33 28
-8.138755 3.654135 27.682840 37 29 42
-8.088792 3.656577 27.701342 29 32 30
-8.036733 3.658099 27.712872 28 23 16
-7.985714 3.660119 27.728172 30 27 24
-7.933020 3.661394 27.737833 20 23 20
-7.880205 3.662630 27.747200 16 23 39
-7.828982 3.664630 27.762348 21 24 19
-7.776637 3.666129 27.773703 33 33 40
-7.725411 3.668181 27.789248 29 16 18
-7.672941 3.669667 27.800510 44 41 16
-7.619980 3.670939 27.810146 40 42 19
-7.567460 3.672444 27.821543 17 43 20
-7.513469 3.673251 27.827662 38 31 37
-7.460313 3.674482 27.836988 32 31 38
-7.406972 3.675640 27.845758 28 25 18
-7.352878 3.676439 27.851812 26 44 21
-7.297982 3.676846 27.854893 15 41 27
-7.241795 3.676604 27.853058 27 38 24
-7.185590 3.676349 27.851126 17 23 35
-7.129048 3.675915 27.847843 28 23 16
-7.073449 3.675966 27.848225 17 21 37
-7.019555 3.676910 27.855375 36 25 33
-6.966272 3.678192 27.865089 29 41 40
-6.915428 3.680792 27.884789 21 36 31
-6.864716 3.683506 27.905348 39 26 30
-6.813701 3.686100 27.925003 43 23 15
-6.762320 3.688538 27.943470 34 34 28
-6.708391 3.689615 27.951628 16 27 30
-6.652506 3.689625 27.951708 36 41 20
-6.595200 3.688841 27.945763 27 38 21
-6.535705 3.686808 27.930363 23 24 29
-6.474509 3.683772 27.907366 17 30 35
-6.413856 3.680996 27.886332 30 28 26
-6.352372 3.677689 27.861280 32 25 22
-6.292575 3.675310 27.843254 43 27 20
-6.234611 3.673967 27.833086 36 24 22
-6.176971 3.672794 27.824194 26 15 21
-6.121147 3.672688 27.823395 42 36 16
-6.071066 3.676058 27.848925 17 26 30
-6.022674 3.680523 27.882750 120 120 120
-5.978048 3.687394 27.934805 120 120 120
-5.936689 3.696429 28.003248 120 120 120
-5.891857 3.703453 28.056463 27 25 34
-5.852958 3.714377 28.139223 42 37 30
-5.809399 3.722527 28.200966 30 32 21
-5.766866 3.731502 28.268951 23 33 44
-5.730413 3.744627 28.368383 35 38 26
-5.688523 3.754425 28.442617 17 24 15
-5.650729 3.767153 28.539038 30 44 20
-5.605803 3.775337 28.601034 20 33 35
-5.559574 3.782803 28.657597 31 19 18
-5.518026 3.793643 28.739721 32 23 31
-5.471184 3.801033 28.795708 40 15 44
-5.429447 3.812165 28.880037 34 23 41
-5.383917 3.820844 28.945791 36 23 34
-5.337602 3.829150 29.008709 40 18 17
-5.293590 3.839307 29.085659 19 28 20
-5.243745 3.845413 29.131918 36 30 31
-5.198887 3.855355 29.207232 37 30 32
-5.151690 3.863768 29.270967 38 38 40
-5.103843 3.871881 29.332434 30 43 29
-5.057679 3.881475 29.405111 29 18 26
-5.006138 3.887119 29.447872 32 35 36
-4.956866 3.894681 29.505156 17 38 38
-4.904389 3.899876 29.544512 35 18 42
-4.850911 3.904392 29.578724 25 39 29
-4.799518 3.910718 29.626652 36 34 35
-4.745249 3.914831 29.657808 28 16 34
-4.692036 3.919929 29.696432 29 23 29
-4.636220 3.922956 29.719360 19 22 38
-4.579884 3.925615 29.739508 43 19 24
-4.524900 3.929519 29.769081 31 32 44
-4.468297 3.932101 29.788645 42 27 35
-4.415473 3.938125 29.834280 16 33 33
-4.362699 3.944358 29.881502 38 22 19
-4.310406 3.951205 29.933374 30 19 28
-4.258582 3.958681 29.990011 30 33 42
-4.203253 3.963067 30.023237 39 28 42
-4.150527 3.970069 30.076281 25 35 24
-4.095912 3.975444 30.117001 42 43 38
-4.041597 3.981275 30.161171 18 29 33
-3.990040 3.990040 30.227573 26 33 29
-3.936131 3.996687 30.277929 38 21 19
-3.882691 4.004026 30.333527 32 26 39
-3.825835 4.008017 30.363768 24 38 22
-3.767402 4.010460 30.382271 21 16 31
-3.709789 4.013870 30.408106 23 43 43
-3.650485 4.015534 30.420712 42 39 15
-3.591909 4.018067 30.439905 25 21 38
-9.870756 3.633740 27.117462 15 22 28
-9.811220 3.631778 27.102818 32 27 24
-9.756048 3.631418 27.100132 26 32 33
-9.703188 3.631920 27.103878 26 29 33
-9.651362 3.632816 27.110567 17 37 34
-9.601721 3.634550 27.123507 44 25 42
-9.553645 3.636899 27.141037 37 20 30
-9.504499 3.638865 27.155710 39 30 36
-9.457263 3.641590 27.176043 29 26 22
-9.408236 3.643652 27.191435 36 24 41
-9.358357 3.645406 27.204525 38 27 18
-9.308707 3.647271 27.218441 22 29 36
-9.256452 3.648131 27.224859 23 15 19
-9.205635 3.649571 27.235607 16 34 41
-9.153765 3.650609 27.243347 38 25 43
-9.102589 3.651937 27.253260 37 21 40
-9.053513 3.654129 27.269617 44 42 44
-9.003391 3.655922 27.283003 17 18 34
-8.956852 3.659202 27.307476 17 44 23
-8.909387 3.662141 27.329409 37 34 25
-8.862275 3.665262 27.352701 27 34 26
-8.816734 3.669076 27.381161 21 17 34
-8.767858 3.671540 27.399555 42 34 36
-8.719712 3.674344 27.420477 33 29 39
-8.668446 3.675860 27.431791 24 21 22
-8.616110 3.676939 27.439840 21 38 25
-8.565266 3.678672 27.452774 15 16 40
-8.512928 3.679782 27.461058 17 17 29
-8.462396 3.681692 27.475313 31 40 25
-8.411046 3.683269 27.487080 27 30 18
-8.359980 3.684991 27.499933 39 44 29
-8.310025 3.687229 27.516638 18 29 39
-8.258375 3.688741 27.527918 34 16 40
-8.209146 3.691361 27.547470 25 15 41
-8.159060 3.693629 27.564392 35 35 24
-8.109031 3.695953 27.581738 26 24 23
-8.059988 3.698762 27.602699 44 43 19
-8.008572 3.700512 27.615765 25 23 26
-7.958314 3.702827 27.633034 31 38 27
-7.906212 3.704309 27.644096 33 44 30
-7.853868 3.705698 27.654465 34 31 42
-7.803142 3.707876 27.670715 15 42 43
-7.751107 3.709458 27.682526 30 44 33
-7.700182 3.711598 27.698496 38 36 26
-7.647974 3.713147 27.710052 29 35 26
-7.595191 3.714436 27.719675 40 17 41
-7.542807 3.715942 27.730907 26 15 22
-7.488909 3.716718 27.736698 38 30 21
-7.435806 3.717903 27.745546 28 16 17
-7.382553 3.719030 27.753958 30 35 40
-7.328526 3.719782 27.759567 24 32 34
-7.273639 3.720105 27.761980 36 29 33
-7.217507 3.719792 27.759644 19 30 37
-7.161306 3.719438 27.757002 18 18 29
-7.104803 3.718920 27.753136 19 19 43
-7.049306 3.718925 27.753172 32 20 23
-6.995583 3.719873 27.760248 20 37 38
-6.942556 3.721210 27.770226 42 39 44
-6.892051 3.723931 27.790527 19 17 20
-6.841636 3.726745 27.811529 31 22 26
-6.791010 3.729489 27.832006 16 24 23
-6.740167 3.732158 27.851929 22 30 35
-6.686741 3.733430 27.861422 40 38 36
-6.631391 3.733640 27.862988 28 19 33
-6.574475 3.732965 27.857946 28 34 22
-6.515300 3.730984 27.843164 27 40 27
-6.454400 3.727972 27.820690 32 21 32
-6.393948 3.725170 27.799776 44 43 18
-6.332961 3.722003 27.776144 41 28 40
-6.273939 3.719946 27.760794 26 39 39
-6.216614 3.718868 27.752743 15 37 35
-6.159178 3.717702 27.744043 34 41 20
-6.103181 3.717392 27.741734 41 21 16
-6.052751 3.720498 27.764914 19 27 31
-6.004136 3.724788 27.796925 120 120 120
-5.959221 3.731475 27.846827 120 120 120
-5.917412 3.740251 27.912321 120 120 120
-5.872308 3.747092 27.963371 16 37 23
-5.832961 3.757773 28.043083 15 42 25
-5.789117 3.765736 28.102509 28 36 24
-5.746374 3.774579 28.168499 19 40 32
-5.709650 3.787590 28.265596 26 37 24
-5.667722 3.797374 28.338612 31 44 36
-5.629663 3.809974 28.432644 32 40 30
-5.584493 3.817970 28.492311 17 26 31
-5.538018 3.825229 28.546482 20 28 43
-5.496147 3.835852 28.625765 36 35 26
-5.449205 3.843124 28.680027 26 32 38
-5.407255 3.854107 28.761995 17 24 28
-5.361623 3.862675 28.825930 31 29 24
-5.315289 3.870917 28.887438 23 44 37
-5.271236 3.881020 28.962837 24 32 27
-5.221523 3.887134 29.008461 41 41 40
-5.176724 3.897084 29.082718 40 41 39
-5.129656 3.905534 29.145775 40 17 33
-5.081880 3.913632 29.206209 20 24 36
-5.035649 3.923122 29.277027 43 28 16
-4.984087 3.928634 29.318161 32 16 44
-4.934633 3.935957 29.372816 43 40 15
-4.882054 3.940935 29.409962 44 44 34
-4.828511 3.945247 29.442142 17 17 21
-4.777050 3.951387 29.487963 18 22 26
-4.722888 3.955419 29.518053 44 19 42
-4.669807 3.960469 29.555740 33 36 18
-4.614187 3.963468 29.578121 21 28 44
-4.558175 3.966204 29.598537 23 27 32
-4.503623 3.970300 29.629101 24 30 28
-4.447497 3.973097 29.649977 21 39 23
-4.395301 3.979529 29.697981 44 29 22
-4.343129 3.986159 29.747458 22 26 29
-4.291405 3.993391 29.801426 25 38 37
-4.240102 4.001223 29.859875 16 38 36
-4.185121 4.005759 29.893723 29 23 23
-4.132735 4.012945 29.947353 23 34 32
-4.078355 4.018379 29.987902 26 15 41
-4.024330 4.024330 30.032314 32 44 25
-3.973356 4.033559 30.101183 31 38 41
-3.920095 4.040714 30.154579 41 25 35
-3.866848 4.048107 30.209751 36 32 43
-3.809600 4.051479 30.234917 29 30 38
-3.750789 4.053272 30.248297 42 15 28
-3.693343 4.056622 30.273302 37 34 21
-3.634619 4.058658 30.288490 42 39 19
-9.832129 3.673543 27.011343 21 24 16
-9.773664 3.671874 26.999071 21 19 36
-9.719119 3.671667 26.997553 21 33 37
-9.666823 3.672313 27.002300 31 19 35
-9.615390 3.673295 27.009521 38 26 21
-9.565850 3.675016 27.022175 17 30 35
-9.517707 3.677296 27.038940 30 24 23
-9.468373 3.679139 27.052494 16 43 41
-9.420659 3.681637 27.070858 26 18 15
-9.371252 3.683498 27.084543 20 38 17
-9.320921 3.685015 27.095701 36 18 35
-9.270614 3.686560 27.107059 16 26 37
-9.217978 3.687191 27.111700 23 29 22
-9.166701 3.688377 27.120419 28 24 22
-9.114658 3.689266 27.126957 41 17 37
-9.063440 3.690503 27.136049 30 30 16
-9.014179 3.692555 27.151140 35 29 44
-8.964056 3.694277 27.163805 22 26 38
-8.917391 3.697455 27.187168 15 27 27
-8.869835 3.700299 27.208082 33 28 28
-8.822737 3.703371 27.230669 39 33 26
-8.777288 3.707177 27.258657 40 44 31
-8.728666 3.709683 27.277082 41 28 17
-8.680939 3.712603 27.298552 34 25 19
-8.630098 3.714219 27.310436 34 27 24
-8.578304 3.715444 27.319441 32 16 27
-8.528082 3.717369 27.333597 29 42 43
-8.476277 3.718625 27.342829 25 19 34
-8.426591 3.720832 27.359060 35 32 25
-8.376018 3.722674 27.372606 17 17 22
-8.325843 3.724719 27.387642 33 37 30
-8.276983 3.727383 27.407228 38 25 30
-8.226199 3.729210 27.420662 19 39 34
-8.178099 3.732287 27.443285 20 32 40
-8.128901 3.734900 27.462503 44 15 38
-8.079704 3.737550 27.481987 43 38 41
-8.031647 3.740767 27.505640 32 30 29
-7.980902 3.742768 27.520353 32 29 29
-7.931414 3.745390 27.539631 27 17 16
-7.879893 3.747082 27.552074 29 39 36
-7.827986 3.748613 27.563332 35 35 19
-7.777719 3.750957 27.580563 21 24 26
-7.725954 3.752606 27.592693 37 43 42
-7.675260 3.754804 27.608850 22 31 20
-7.623242 3.756380 27.620441 22 23 17
-7.570573 3.757657 27.629829 15 29 26
-7.518251 3.759125 27.640627 30 35 40
-7.464403 3.759848 27.645939 30 35 40
-7.411279 3.760948 27.654026 30 35 40
-7.358077 3.762024 27.661943 30 35 40
-7.304075 3.762705 27.666952 30 35 40
-7.249110 3.762897 27.668358 30 35 40
-7.192950 3.762466 27.665194 30 35 40
-7.136674 3.761968 27.661528 31 37 29
-7.080144 3.761326 27.656811 27 29 40
-7.024706 3.761260 27.656322 44 34 19
-6.971072 3.762166 27.662985 41 31 41
-6.918238 3.763522 27.672953 35 27 38
-6.868004 3.766325 27.693565 43 44 26
-6.817847 3.769216 27.714825 30 21 27
-6.767576 3.772092 27.735968 42 23 36
-6.717262 3.774990 27.757280 18 15 23
-6.664356 3.776468 27.768150 20 41 31
-6.609479 3.776845 27.770922 24 16 43
-6.552794 3.776186 27.766077 31 21 39
-6.493803 3.774176 27.751293 39 22 20
-6.433196 3.771184 27.729294 17 22 29
-6.373025 3.768397 27.708805 24 35 30
-6.312593 3.765407 27.686813 35 36 30
-6.254300 3.763650 27.673895 26 37 43
-6.197594 3.762825 27.667830 29 17 37
-6.140455 3.761720 27.659708 19 31 43
-6.084446 3.761294 27.656574 20 43 31
-6.033780 3.764193 27.677891 44 33 44
-5.984977 3.768319 27.708227 120 120 120
-5.939760 3.774801 27.755890 120 120 120
-5.897513 3.783310 27.818459 120 120 120
-5.852139 3.789957 27.867329 22 15 21
-5.812354 3.800385 27.944008 29 40 39
-5.768221 3.808146 28.001074 36 40 30
-5.725286 3.816857 28.065128 43 16 30
-5.688411 3.829821 28.160448 21 27 30
-5.646576 3.839672 28.232880 26 19 25
-5.608352 3.852202 28.325012 17 30 28
-5.562964 3.860016 28.382471 22 26 39
-5.516216 3.867038 28.434101 18 34 43
-5.474033 3.877440 28.510590 31 36 17
-5.426990 3.884582 28.563105 42 30 15
-5.384837 3.895414 28.642750 23 34 37
-5.339136 3.903884 28.705032 35 40 17
-5.292787 3.912060 28.765144 35 15 26
-5.248674 3.922086 28.838867 35 16 40
-5.199037 3.928161 28.883539 40 20 29
-5.154244 3.938074 28.956429 15 16 27
-5.107270 3.946527 29.018579 17 38 40
-5.059546 3.954588 29.077850 25 15 20
-5.013200 3.963926 29.146511 16 43 19
-4.961579 3.969263 29.185757 37 32 19
-4.911916 3.976313 29.237593 16 34 26
-4.859196 3.981028 29.272263 42 27 20
-4.805604 3.985135 29.302464 26 18 18
-4.754128 3.991119 29.346466 20 44 41
-4.700149 3.995126 29.375929 43 18 43
-4.647344 4.000245 29.413567 18 31 17
-4.592016 4.003296 29.436003 18 15 33
-4.536467 4.006230 29.457575 34 30 27
-4.482569 4.010720 29.490585 41 39 29
-4.427105 4.013909 29.514036 36 19 24
-4.375779 4.020986 29.566072 26 31 33
-4.324382 4.028191 29.619055 23 38 43
-4.273362 4.035953 29.676125 38 18 30
-4.222728 4.044303 29.737520 32 17 15
-4.168154 4.049064 29.772530 24 21 39
-4.116186 4.056531 29.827435 37 20 40
-4.062162 4.062162 29.868841 37 33 31
-4.008402 4.068228 29.913445 37 20 37
-3.957691 4.077621 29.982506 18 17 37
-3.904655 4.084870 30.035807 31 23 33
-3.851307 4.092014 30.088335 22 17 31
-3.793693 4.094779 30.108671 29 21 44
-3.734633 4.096050 30.118011 26 44 41
-3.677373 4.099366 30.142399 32 18 29
-3.619208 4.101769 30.160067 43 41 20
-9.783959 3.709303 26.879007 43 22 43
-9.727173 3.708149 26.870644 38 38 32
-9.673747 3.708270 26.871519 30 40 21
-9.622306 3.709157 26.877951 15 37 28
-9.571230 3.710196 26.885477 31 37 40
-9.521569 3.711798 26.897087 34 26 38
-9.473174 3.713915 26.912426 43 17 41
-9.423570 3.715579 26.924486 35 42 25
-9.375103 3.717713 26.939951 43 26 35
-9.325096 3.719258 26.951145 27 33 30
-9.274014 3.720389 26.959343 28 21 20
-9.222611 3.721405 26.966700 25 24 32
-9.169250 3.721637 26.968382 34 31 37
-9.117022 3.722334 26.973438 40 26 21
-9.064495 3.722918 26.977665 33 23 25
-9.012961 3.723918 26.984913 25 31 17
-8.963195 3.725665 26.997576 35 41 27
-8.912910 3.727217 27.008818 38 34 42
-8.865918 3.730173 27.030237 20 17 42
-8.818151 3.732837 27.049541 28 33 40
-8.771036 3.735812 27.071098 29 16 40
-8.725695 3.739584 27.098433 41 38 29
-8.677461 3.742155 27.117065 28 18 21
-8.630289 3.745220 27.139273 16 25 28
-8.580009 3.746966 27.151926 31 19 44
-8.528925 3.748381 27.162182 34 37 25
-8.479523 3.750558 27.177958 25 36 20
-8.428412 3.752003 27.188427 23 41 41
-8.379813 3.754591 27.207184 32 42 43
-8.330245 3.756777 27.223024 18 27 28
-8.281186 3.759223 27.240744 41 18 31
-8.233712 3.762425 27.263947 40 21 21
-8.183985 3.764633 27.279951 26 43 26
-8.137260 3.768261 27.306240 25 44 37
-8.089154 3.771295 27.328222 23 24 37
-8.040951 3.774324 27.350174 38 17 18
-7.994046 3.778008 27.376871 42 25 26
-7.944079 3.780286 27.393377 41 35 33
-7.895454 3.783238 27.414770 42 23 32
-7.844581 3.785148 27.428606 23 40 22
-7.793153 3.786814 27.440680 16 43 44
-7.743356 3.789302 27.458708 17 30 16
-7.691888 3.791002 27.471029 34 29 38
-7.641432 3.793229 27.487165 35 32 34
-7.589615 3.794808 27.498606 38 31 25
-7.537079 3.796047 27.507587 30 35 40
-7.484840 3.797456 27.517794 30 35 40
-7.431095 3.798115 27.522575 30 35 40
-7.378015 3.799127 27.529905 30 35 40
-7.324933 3.800153 27.537342 30 35 40
-7.271027 3.800764 27.541769 30 35 40
-7.216051 3.800821 27.542181 30 35 40
-7.159935 3.800273 27.538212 30 35 40
-7.103653 3.799628 27.533537 30 35 40
-7.047207 3.798885 27.528152 16 22 19
-6.991937 3.798769 27.527309 35 22 20
-6.938511 3.799661 27.533773 24 24 19
-6.885972 3.801056 27.543886 41 20 20
-6.836117 3.803968 27.564989 15 29 30
-6.786317 3.806958 27.586653 34 15 26
-6.736523 3.810001 27.608700 32 26 27
-6.686934 3.813210 27.631958 31 39 31
-6.634755 3.814984 27.644812 21 29 22
-6.580438 3.815548 27.648899 41 25 20
-6.523897 3.814821 27.643631 30 26 25
-6.465011 3.812699 27.628252 39 28 39
-6.404827 3.809768 27.607012 41 42 17
-6.345192 3.807115 27.587790 26 29 39
-6.285341 3.804285 27.567284 36 35 23
-6.227520 3.802645 27.555399 33 35 17
-6.171196 3.801898 27.549982 27 26 15
-6.114458 3.800879 27.542603 44 23 40
-6.058741 3.800483 27.539730 26 24 43
-6.007970 3.803210 27.559496 25 41 16
-5.958882 3.807063 27.587416 120 120 120
-5.913143 3.813148 27.631508 120 120 120
-5.870212 3.821176 27.689678 120 120 120
-5.824410 3.827470 27.735287 28 42 23
-5.783925 3.837412 27.807333 18 44 36
-5.739301 3.844774 27.860683 24 18 21
-5.696043 3.853206 27.921782 15 18 33
-5.658961 3.866023 28.014660 41 17 33
-5.617331 3.875958 28.086653 34 38 36
-5.578917 3.888336 28.176348 36 36 26
-5.533188 3.895816 28.230551 18 35 23
-5.486043 3.902443 28.278574 19 19 34
-5.443467 3.912492 28.351393 41 29 23
-5.396370 3.919468 28.401945 16 35 43
-5.354045 3.930097 28.478962 23 40 35
-5.308341 3.938447 28.539469 18 33 18
-5.262047 3.946535 28.598082 41 19 28
-5.217895 3.956426 28.669752 34 38 41
-5.168380 3.962425 28.713224 20 17 22
-5.123577 3.972211 28.784140 24 21 33
-5.076709 3.980601 28.844938 34 22 44
-5.029042 3.988551 28.902542 23 20 34
-4.982545 3.997624 28.968287 34 30 22
-4.930868 4.002705 29.005106 15 30 40
-4.880956 4.009357 29.053312 40 44 26
-4.828083 4.013708 29.084839 18 31 39
-4.774466 4.017539 29.112600 37 22 25
-4.723058 4.023346 29.154678 32 23 34
-4.669424 4.027378 29.183899 25 37 26
-4.617106 4.032663 29.222193 35 35 18
-4.562270 4.035854 29.245319 43 30 44
-4.507424 4.039120 29.268988 20 27 26
-4.454480 4.044199 29.305788 19 32 35
-4.399943 4.047948 29.332954 17 20 26
-4.349840 4.055932 29.390812 15 30 43
-4.299543 4.063952 29.448925 44 40 16
-4.249517 4.072454 29.510538 19 41 19
-4.199836 4.081531 29.576311 37 32 42
-4.145832 4.086606 29.613085 30 22 17
-4.094454 4.094454 29.669958 40 31 42
-4.041055 4.100482 29.713638 29 23 32
-3.987588 4.106620 29.758116 36 29 34
-3.936644 4.115582 29.823057 16 44 18
-3.883144 4.122106 29.870335 28 18 35
-3.829353 4.128521 29.916822 34 30 28
-3.771670 4.130876 29.933886 39 32 29
-3.712836 4.132027 29.942223 26 18 35
-3.655942 4.135410 29.966740 20 19 20
-3.598354 4.138107 29.986280 20 28 15
-9.698247 3.750703 26.790737 16 37 15
-9.645556 3.751050 26.793211 33 19 22
-9.594651 3.752098 26.800701 23 25 28
-9.543797 3.753179 26.808418 30 39 31
-9.494012 3.754694 26.819242 41 37 32
-9.445368 3.756680 26.833431 36 41 36
-9.395475 3.758190 26.844215 33 15 26
-9.346367 3.760033 26.857376 39 17 23
-9.295850 3.761327 26.866619 26 44 24
-9.244120 3.762142 26.872442 16 20 27
-9.191782 3.762718 26.876554 20 34 32
-9.137767 3.762610 26.875784 25 37 26
-9.084664 3.762878 26.877703 22 21 24
-9.031612 3.763172 26.879799 39 15 36
-8.979698 3.763945 26.885323 22 40 22
-8.929416 3.765416 26.895830 43 17 44
-8.878937 3.766822 26.905870 39 23 24
-8.831638 3.769602 26.925726 25 37 39
-8.783671 3.772129 26.943775 24 27 26
-8.736523 3.775041 26.964579 40 27 43
-8.691257 3.778807 26.991480 34 27 44
-8.643308 3.781447 27.010338 16 21 43
-8.596545 3.784643 27.033161 17 25 24
-8.546673 3.786501 27.046434 35 42 40
-8.496078 3.788060 27.057573 25 25 27
-8.447248 3.790432 27.074512 16 23 28
-8.396611 3.792018 27.085842 15 20 20
-8.348766 3.794894 27.106384 26 19 35
-8.299885 3.797333 27.123808 15 23 37
-8.251599 3.800078 27.143417 42 36 32
-8.205070 3.803675 27.169106 35 27 29
-8.156066 3.806164 27.186888 31 15 44
-8.110267 3.810192 27.215660 24 23 44
-8.062878 3.813523 27.239452 31 22 23
-8.015306 3.816813 27.262947 44 38 31
-7.969126 3.820814 27.291527 31 17 43
-7.919636 3.823273 27.309090 16 32 15
-7.871515 3.826431 27.331650 28 27 30
-7.821006 3.828464 27.346174 30 35 28
-7.769833 3.830200 27.358568 16 17 31
-7.720278 3.832762 27.376871 26 38 16
-7.668950 3.834475 27.389107 23 22 41
-7.618586 3.836698 27.404985 27 19 34
-7.566851 3.838258 27.416126 30 35 40
-7.514363 3.839456 27.424683 30 35 40
-7.462149 3.840812 27.434370 30 35 40
-7.408470 3.841429 27.438776 30 35 40
-7.355423 3.842385 27.445608 30 35 40
-7.302425 3.843381 27.452724 30 35 40
-7.248606 3.843958 27.456841 30 35 40
-7.193637 3.843928 27.456631 30 35 40
-7.137548 3.843295 27.452106 30 35 40
-7.081285 3.842558 27.446842 30 35 40
-7.024924 3.841755 27.441111 30 35 40
-6.969785 3.841614 27.440098 41 28 27
-6.916511 3.842506 27.446472 25 40 26
-6.864161 3.843930 27.456644 43 39 27
-6.814556 3.846927 27.478048 36 15 35
-6.764975 3.849986 27.499897 24 18 26
-6.715487 3.853148 27.522488 25 30 35
-6.666406 3.856599 27.547132 15 17 36
-6.614745 3.858602 27.561440 32 21 31
-6.560752 3.859266 27.566185 16 30 17
-6.504159 3.858399 27.559996 16 25 34
-6.445202 3.856104 27.543598 16 19 20
-6.385315 3.853207 27.522909 35 37 32
-6.326155 3.850703 27.505020 43 31 21
-6.266641 3.847938 27.485270 31 35 30
-6.208861 3.846197 27.472836 15 43 29
-6.152565 3.845353 27.466808 44 19 20
-6.096127 3.844404 27.460030 17 37 36
-6.040840 3.844171 27.458363 16 31 39
-5.990147 3.846884 27.477739 33 43 36
-5.940862 3.850559 27.503992 120 120 120
-5.894711 3.856353 27.545378 120 120 120
-5.851272 3.864047 27.600338 120 120 120
-5.805147 3.870098 27.643557 38 28 42
-5.764141 3.879710 27.712217 35 40 16
-5.719129 3.886787 27.762764 18 40 27
-5.675636 3.895044 27.821745 34 41 32
-5.638475 3.907854 27.913244 25 25 40
-5.597087 3.917961 27.985434 17 31 20
-5.558610 3.930330 28.073786 27 26 18
-5.512617 3.937583 28.125595 39 18 41
-5.465169 3.943936 28.170973 24 42 23
-5.422347 3.953795 28.241390 28 31 15
-5.375253 3.960713 28.290804 29 26 30
-5.332871 3.971287 28.366337 34 31 15
-5.287219 3.979628 28.425911 19 42 28
-5.241003 3.987720 28.483713 15 15 25
-5.196836 3.997567 28.554047 43 25 34
-5.147380 4.003518 28.596554 29 35 25
-5.102537 4.013231 28.665937 39 23 15
-5.055722 4.021597 28.725695 32 29 25
-5.008072 4.029483 28.782022 17 43 40
-4.961454 4.038393 28.845663 36 42 24
-4.909727 4.043305 28.880747 44 19 17
-4.859651 4.049710 28.926497 36 34 32
-4.806662 4.053812 28.955797 39 36 41
-4.753055 4.057486 28.982042 39 39 21
-4.701762 4.063251 29.023220 35 43 16
-4.648433 4.067379 29.052704 19 28 15
-4.596560 4.072901 29.092152 34 41 16
-4.542142 4.076282 29.116297 43 22 34
-4.487868 4.079880 29.141998 34 17 31
-4.435698 4.085511 29.182222 28 44 34
-4.381878 4.089753 29.212521 29 28 19
-4.332740 4.098538 29.275269 40 34 39
-4.283289 4.107264 29.337599 17 26 19
-4.234026 4.116414 29.402958 26 16 31
-4.185072 4.126128 29.472340 18 38 25
-4.131485 4.131485 29.510611 20 19 20
-4.080557 4.139696 29.569256 37 42 35
-4.027712 4.146174 29.615530 28 23 27
-3.974411 4.152370 29.659784 23 20 40
-3.922879 4.160629 29.718779 34 35 39
-3.868504 4.166081 29.757721 15 39 37
-3.814139 4.171714 29.797960 40 36 18
-3.756630 4.174034 29.814528 34 39 35
-3.698289 4.175488 29.824911 39 42 27
-3.641714 4.179016 29.850111 32 19 40
-9.654188 3.787002 26.669027 43 32 31
-9.602429 3.787625 26.673414 15 36 28
-9.552246 3.788880 26.682251 22 38 23
-9.501720 3.790012 26.690226 32 27 31
-9.451866 3.791426 26.700186 15 39 21
-9.403027 3.793266 26.713144 17 19 28
-9.352912 3.794610 26.722605 17 44 20
-9.303152 3.796114 26.733194 18 44 43
-9.252120 3.797113 26.740231 21 35 30
-9.199716 3.797557 26.743361 43 15 21
-9.146322 3.797596 26.743631 40 22 33
-9.091582 3.797073 26.739948 22 37 30
-9.037485 3.796813 26.738121 23 29 27
-8.983882 3.796760 26.737745 22 22 34
-8.931558 3.797249 26.741192 33 23 34
-8.880669 3.798359 26.749004 35 17 41
-8.829972 3.799564 26.757492 37 30 25
-8.782231 3.802063 26.775093 29 35 30
-8.733938 3.804353 26.791222 18 16 31
-8.686654 3.807114 26.810659 37 42 29
-8.641338 3.810777 26.836454 24 26 25
-8.593660 3.813437 26.855188 23 35 36
-8.547331 3.816733 26.878401 19 40 36
-8.497950 3.818699 26.892248 23 29 35
-8.447985 3.820426 26.904409 19 25 37
-8.399821 3.822995 26.922503 31 39 21
-8.349758 3.824728 26.934704 23 24 17
-8.302817 3.827922 26.957197 33 26 34
-8.254797 3.830657 26.976460 31 28 25
-8.207510 3.833771 26.998388 18 37 19
-8.162223 3.837867 27.027229 39 24 38
-8.114215 3.840729 27.047384 23 28 29
-8.069609 3.845250 27.079226 31 26 30
-8.023133 3.848936 27.105181 25 22 35
-7.976366 3.852530 27.130495 43 21 41
-7.931117 3.856913 27.161360 40 18 32
-7.882265 3.859592 27.180223 35 31 36
-7.834826 3.863005 27.204258 44 29 41
-7.784833 3.865197 27.219694 44 27 20
-7.734046 3.867023 27.232555 43 31 43
-7.684866 3.869684 27.251299 21 44 34
-7.633789 3.871422 27.263533 33 27 18
-7.583585 3.873630 27.279083 31 20 19
-7.531982 3.875150 27.289791 30 35 40
-7.479582 3.876280 27.297745 30 35 40
-7.427440 3.877561 27.306767 30 35 40
-7.373897 3.878124 27.310730 30 35 40
-7.320954 3.879013 27.316994 30 35 40
-7.268134 3.879981 27.323811 30 35 40
-7.214462 3.880506 27.327509 30 35 40
-7.159516 3.880348 27.326397 30 35 40
-7.103459 3.879582 27.320997 30 35 40
-7.047244 3.878716 27.314899 30 35 40
-6.991042 3.877844 27.308760 30 35 40
-6.936127 3.877677 27.307587 22 16 16
-6.883056 3.878548 27.313715 42 32 23
-6.830956 3.879983 27.323824 18 21 40
-6.781627 3.883028 27.345268 23 37 23
-6.732341 3.886148 27.367239 22 33 43
-6.683173 3.889388 27.390055 23 28 41
-6.634461 3.892948 27.415127 27 21 44
-6.583162 3.895037 27.429840 22 31 15
-6.529410 3.895698 27.434494 22 16 19
-6.472866 3.894691 27.427399 35 38 24
-6.414029 3.892274 27.410381 25 41 30
-6.354590 3.889447 27.390472 42 24 41
-6.296033 3.887116 27.374058 43 33 22
-6.236998 3.884446 27.355255 25 33 35
-6.179379 3.882619 27.342386 28 21 27
-6.123237 3.881695 27.335878 19 17 16
-6.067314 3.880894 27.330242 24 32 41
-6.012675 3.880908 27.330341 36 28 20
-5.962154 3.883605 27.349329 22 22 25
-5.912671 3.887034 27.373478 120 120 120
-5.865988 3.892384 27.411158 120 120 120
-5.821870 3.899554 27.461651 120 120 120
-5.775298 3.905202 27.501421 43 17 32
-5.733497 3.914214 27.564890 15 22 29
-5.687902 3.920787 27.611174 43 17 40
-5.643943 3.928627 27.666386 30 19 37
-5.606294 3.941058 27.753933 42 33 32
-5.564852 3.951045 27.824259 44 34 35
-5.526144 3.963194 27.909819 21 33 34
-5.480069 3.970254 27.959538 33 20 26
-5.432560 3.976410 28.002888 42 15 33
-5.389502 3.985986 28.070322 19 40 38
-5.342345 3.992700 28.117605 35 22 36
-5.299860 4.003085 28.190742 37 37 23
-5.254335 4.011374 28.249111 30 41 33
-5.208301 4.019450 28.305984 22 19 32
-5.164172 4.029189 28.374571 19 30 25
-5.114840 4.035040 28.415777 41 38 40
-5.070042 4.044640 28.483379 31 19 22
-5.023388 4.052961 28.541979 29 35 33
-4.975877 4.060773 28.596994 22 43 28
-4.929239 4.069488 28.658365 44 21 18
-4.877571 4.074206 28.691591 23 42 42
-4.827466 4.080358 28.734915 21 34 23
-4.774507 4.084217 28.762091 37 20 21
-4.721100 4.087782 28.787197 19 28 25
-4.670176 4.093611 28.828245 22 28 37
-4.617412 4.097953 28.858824 42 19 37
-4.566338 4.103924 28.900871 17 24 31
-4.512645 4.107664 28.927210 26 15 27
-4.459288 4.111811 28.956413 44 35 24
-4.408340 4.118318 29.002237 33 16 17
-4.355602 4.123303 29.037344 27 37 27
-4.307844 4.133202 29.107054 40 23 37
-4.259555 4.142854 29.175032 17 20 20
-4.211302 4.152811 29.245150 39 28 16
-4.163365 4.163365 29.319471 43 29 38
-4.110382 4.169102 29.359875 26 28 36
-4.059977 4.177657 29.420122 24 16 30
-4.007723 4.184534 29.468550 35 31 39
-3.954452 4.190539 29.510839 34 25 16
-3.901986 4.197591 29.560499 32 16 42
-3.846387 4.201438 29.587593 40 21 18
-3.791114 4.205767 29.618076 39 35 27
-3.733702 4.207823 29.632557 34 36 44
-3.675897 4.209494 29.644327 15 41 25
-3.619654 4.213040 29.669294 21 18 29
-9.569455 3.827782 26.581820 43 17 29
-9.519790 3.829189 26.591591 22 19 41
-9.469518 3.830367 26.599770 41 15 32
-9.419676 3.831733 26.609255 17 24 23
-9.370828 3.833521 26.621672 23 31 30
-9.320687 3.834797 26.630533 20 39 39
-9.270600 3.836110 26.639654 28 22 19
-9.219310 3.836938 26.645405 33 30 42
-9.166480 3.837131 26.646744 38 15 43
-9.112406 3.836803 26.644463 37 44 32
-9.057178 3.835981 26.638758 43 21 32
-9.002379 3.835333 26.634256 44 38 33
-8.948351 3.835008 26.631998 20 23 29
-8.895678 3.835262 26.633766 24 33 36
-8.844280 3.836073 26.639399 27 22 16
-8.793361 3.837103 26.646547 37 43 33
-8.745181 3.839348 26.662136 16 20 25
-8.696553 3.841422 26.676542 40 16 41
-8.649042 3.844019 26.694574 26 29 18
-8.603528 3.847541 26.719032 44 43 43
-8.555928 3.850167 26.737274 38 42 44
-8.509789 3.853489 26.760344 15 20 16
-8.460732 3.855524 26.774469 28 26 28
-8.411213 3.857372 26.787304 20 29 30
-8.363480 3.860068 26.806026 43 35 27
-8.313780 3.861885 26.818644 29 42 32
-8.267447 3.865300 26.842360 31 41 41
-8.220030 3.868249 26.862843 39 22 41
-8.173466 3.871642 26.886402 27 39 30
-8.129106 3.876130 26.917568 38 29 35
-8.081864 3.879295 26.939547 36 18 18
-8.038171 3.884217 26.973728 17 40 31
-7.992362 3.888176 27.001223 41 40 43
-7.946168 3.892001 27.027782 27 25 39
-7.901614 3.896686 27.060322 23 36 44
-7.853258 3.899549 27.080200 42 38 41
-7.806361 3.903181 27.105421 15 44 40
-7.756792 3.905517 27.121649 21 42 30
-7.706336 3.907438 27.134987 37 22 42
-7.657495 3.910210 27.154236 44 41 22
-7.606655 3.911994 27.166624 24 16 17
-7.556634 3.914228 27.182137 25 22 15
-7.505161 3.915736 27.192612 30 35 40
-7.452843 3.916823 27.200157 30 35 40
-7.400790 3.918065 27.208786 30 35 40
-7.347375 3.918600 27.212502 30 35 40
-7.294536 3.919452 27.218418 30 35 40
-7.241867 3.920409 27.225065 30 35 40
-7.188322 3.920903 27.228493 30 35 40
-7.133371 3.920632 27.226608 30 35 40
-7.077326 3.919750 27.220484 30 35 40
-7.021117 3.918763 27.213631 30 35 40
-6.965033 3.917831 27.207159 30 35 40
-6.910276 3.917637 27.205812 44 40 24
-6.857339 3.918480 27.211664 33 26 27
-6.805403 3.919912 27.221613 20 39 26
-6.756241 3.922979 27.242908 33 21 40
-6.707168 3.926147 27.264910 15 37 26
-6.658193 3.929426 27.287678 24 16 22
-6.609581 3.932974 27.312319 32 38 29
-6.558361 3.935017 27.326506 30 20 40
-6.504699 3.935616 27.330669 26 30 33
-6.448284 3.934546 27.323236 32 35 43
-6.389672 3.932106 27.306290 28 17 26
-6.330588 3.929331 27.287018 15 20 18
-6.272444 3.927095 27.271494 15 33 40
-6.213777 3.924491 27.253407 19 43 38
-6.156342 3.922625 27.240452 20 31 18
-6.100386 3.921677 27.233868 32 22 16
-6.044891 3.921010 27.229237 21 32 40
-5.990745 3.921215 27.230659 40 41 22
-5.940372 3.923915 27.249411 31 20 21
-5.890767 3.927178 27.272068 120 120 120
-5.843697 3.932208 27.306997 120 120 120
-5.799059 3.938983 27.354052 120 120 120
-5.752133 3.944320 27.391111 34 33 18
-5.709676 3.952852 27.450363 40 29 35
-5.663617 3.959033 27.493286 23 33 17
-5.619206 3.966499 27.545130 26 27 23
-5.580912 3.978472 27.628277 37 40 34
-5.539138 3.988179 27.695690 40 29 31
-5.500138 4.000100 27.778473 18 23 22
-5.454162 4.007139 27.827356 18 38 16
-5.406838 4.013323 27.870296 31 28 22
-5.363650 4.022737 27.935675 34 35 31
-5.316376 4.029253 27.980925 15 33 41
-5.273763 4.039478 28.051933 17 37 43
-5.228327 4.047737 28.109283 17 40 27
-5.182444 4.055826 28.165455 42 42 37
-5.138367 4.065521 28.232786 37 29 19
-5.089157 4.071326 28.273094 23 28 35
-5.044442 4.080897 28.339560 24 38 30
-4.997965 4.089244 28.397526 25 25 29
-4.950623 4.097067 28.451855 29 16 25
-4.904062 4.105727 28.511990 28 36 20
-4.852504 4.110357 28.544144 27 28 26
-4.802495 4.116425 28.586283 44 36 28
-4.749669 4.120195 28.612467 43 33 41
-4.696528 4.123781 28.637367 30 43 44
-4.646016 4.129792 28.679110 33 41 24
-4.593752 4.134377 28.710953 30 42 23
-4.543409 4.140829 28.755754 28 27 23
-4.490366 4.144953 28.784399 38 23 27
-4.437796 4.149627 28.816856 43 43 32
-4.387877 4.156936 28.867609 29 28 33
-4.336010 4.162570 28.906734 41 18 39
-4.289328 4.173400 28.981945 31 40 38
-4.241909 4.183801 29.054171 19 43 30
-4.194393 4.194393 29.127731 36 15 17
-4.147196 4.205607 29.205606 21 19 18
-4.094641 4.211631 29.247437 44 26 16
-4.044619 4.220472 29.308830 36 30 39
-3.992837 4.227710 29.359097 32 29 33
-3.939594 4.233593 29.399952 33 17 30
-3.886322 4.239623 29.441830 16 39 32
-3.829679 4.242106 29.459068 23 27 24
-3.773560 4.245255 29.480934 26 34 27
-3.716105 4.246977 29.492897 20 22 42
-3.658622 4.248722 29.505014 30 20 36
-9.536238 3.867474 26.489550 18 24 25
-9.486993 3.868997 26.499981 27 17 31
-9.436950 3.870210 26.508287 41 25 18
-9.387182 3.871550 26.517464 43 35 41
-9.338391 3.873310 26.529520 21 16 25
-9.288274 3.874537 26.537926 28 36 26
-9.238065 3.875740 26.546164 41 42 23
-9.186696 3.876467 26.551146 19 15 31
-9.133705 3.876514 26.551468 19 42 19
-9.079306 3.875961 26.547678 30 36 37
-9.023869 3.874956 26.540792 22 32 42
-8.968757 3.874079 26.534784 24 40 37
-8.914629 3.873618 26.531633 32 20 24
-8.861882 3.873757 26.532579 18 29 42
-8.810304 3.874411 26.537060 21 28 32
-8.759338 3.875343 26.543447 43 22 20
-8.710923 3.877423 26.557692 33 20 34
-8.662074 3.879334 26.570780 18 29 39
-8.614398 3.881797 26.587648 34 22 17
-8.568714 3.885193 26.610914 40 31 44
-8.521164 3.887781 26.628637 27 35 23
-8.475150 3.891107 26.651415 24 18 22
-8.426337 3.893181 26.665623 44 26 29
-8.377149 3.895107 26.678818 35 44 29
-8.329684 3.897865 26.697706 19 40 26
-8.280226 3.899719 26.710407 34 43 38
-8.234301 3.903272 26.734743 15 40 16
-8.187315 3.906366 26.755930 42 22 32
-8.141283 3.909958 26.780537 31 39 35
-8.097595 3.914731 26.813229 16 34 22
-8.050940 3.918124 26.836466 33 32 18
-8.007882 3.923325 26.872087 16 20 41
-7.962518 3.927458 26.900398 15 41 36
-7.916705 3.931425 26.927567 20 41 41
-7.872615 3.936308 26.961012 37 38 44
-7.824624 3.939293 26.981461 29 25 29
-7.778112 3.943071 27.007334 16 30 18
-7.728866 3.945505 27.024008 23 17 35
-7.678670 3.947485 27.037571 33 35 40
-7.630090 3.950330 27.057056 27 23 41
-7.579457 3.952145 27.069489 23 36 27
-7.529567 3.954377 27.084772 30 35 40
-7.478181 3.955849 27.094858 30 35 40
-7.425931 3.956883 27.101938 30 35 40
-7.373966 3.958085 27.110168 30 35 40
-7.320693 3.958597 27.113676 30 35 40
-7.267984 3.959424 27.119345 30 35 40
-7.215510 3.960393 27.125978 30 35 40
-7.162125 3.960872 27.129263 30 35 40
-7.107228 3.960516 27.126825 30 35 40
-7.051205 3.959523 27.120020 30 35 40
-6.995052 3.958440 27.112604 30 35 40
-6.939145 3.957481 27.106033 30 35 40
-6.884593 3.957286 27.104698 30 35 40
-6.831802 3.958108 27.110327 36 23 26
-6.780002 3.959521 27.120007 44 24 34
-6.730938 3.962568 27.140879 40 26 31
-6.682031 3.965758 27.162727 18 24 36
-6.633125 3.969001 27.184937 19 33 27
-6.584312 3.972354 27.207901 27 18 43
-6.532866 3.974160 27.220276 35 40 36
-6.479082 3.974563 27.223034 42 30 17
-6.422835 3.973449 27.215405 36 38 33
-6.364539 3.971037 27.198883 33 34 19
-6.305784 3.968295 27.180103 37 19 37
-6.247981 3.966110 27.165134 42 37 40
-6.189631 3.963535 27.147503 17 35 36
-6.132392 3.961634 27.134480 44 31 25
-6.076665 3.960684 27.127970 30 25 22
-6.021628 3.960170 27.124449 36 34 20
-5.967987 3.960573 27.127213 15 17 30
-5.917839 3.963323 27.146049 41 43 30
-5.868208 3.966474 27.167629 120 120 120
-5.820870 3.971248 27.200327 120 120 120
-5.775838 3.977700 27.244518 120 120 120
-5.728633 3.982764 27.279205 23 23 38
-5.685595 3.990850 27.334591 30 33 38
-5.639116 3.996655 27.374352 37 24 25
-5.594253 4.003730 27.422808 42 40 31
-5.555225 4.015162 27.501112 28 19 38
-5.512991 4.024483 27.564953 35 37 37
-5.473698 4.036161 27.644938 43 26 35
-5.428005 4.043310 27.693903 20 40 17
-5.381076 4.049676 27.737505 32 44 35
-5.337885 4.059017 27.801487 19 38 16
-5.290511 4.065340 27.844793 29 44 39
-5.247831 4.075443 27.913996 17 29 35
-5.202569 4.083737 27.970798 20 36 17
-5.156915 4.091900 28.026712 18 26 34
-5.112951 4.101598 28.093136 38 22 34
-5.063875 4.107366 28.132641 25 27 16
-5.019289 4.116945 28.198254 33 26 34
-4.973030 4.125354 28.255852 20 28 22
-4.925923 4.133245 28.309900 22 17 15
-4.879541 4.141936 28.369423 21 16 32
-4.828173 4.146549 28.401018 44 43 19
-4.778393 4.152651 28.442818 37 28 34
-4.725813 4.156438 28.468752 37 37 15
-4.673034 4.160140 28.494108 20 43 36
-4.623015 4.166421 28.537130 19 32 40
-4.571283 4.171295 28.570517 19 37 41
-4.521670 4.178252 28.618162 18 44 31
-4.469260 4.182769 28.649101 21 25 28
-4.417416 4.187940 28.684521 42 42 41
-4.368440 4.196002 28.739737 38 44 27
-4.317364 4.202235 28.782429 30 24 34
-4.271613 4.213889 28.862253 15 40 44
-4.224914 4.224914 28.937767 34 31 40
-4.177995 4.236023 29.013857 37 29 43
-4.131456 4.247835 29.094763 15 16 29
-4.079345 4.254175 29.138182 20 40 16
-4.029505 4.263100 29.199314 37 17 17
-3.977798 4.270284 29.248518 31 35 40
-3.924267 4.275694 29.285576 33 24 35
-3.870230 4.280709 29.319923 31 26 17
-3.812840 4.282113 29.329540 35 16 22
-3.756055 4.284250 29.344177 39 15 27
-3.698514 4.285580 29.353289 44 32 43
-3.641210 4.287231 29.364597 17 20 29
-9.444322 3.904357 26.380789 37 16 40
-9.394557 3.905602 26.389204 31 16 31
-9.344815 3.906872 26.397781 41 31 41
-9.296028 3.908557 26.409170 25 33 34
-9.245925 3.909705 26.416927 19 17 27
-9.195621 3.910781 26.424198 39 36 38
-9.144278 3.911425 26.428549 23 34 26
-9.091295 3.911371 26.428183 29 18 29
-9.036750 3.910640 26.423246 22 24 34
-8.981254 3.909487 26.415453 28 28 22
-8.926134 3.908485 26.408680 31 20 21
-8.872202 3.907994 26.405363 24 27 30
-8.819731 3.908144 26.406380 31 38 39
-8.768342 3.908779 26.410669 18 15 31
-8.717578 3.909702 26.416904 41 38 24
-8.669184 3.911705 26.430439 30 41 20
-8.620284 3.913503 26.442589 28 36 20
-8.572544 3.915853 26.458469 27 42 28
-8.526861 3.919178 26.480934 23 25 18
-8.479467 3.921753 26.498333 29 43 23
-8.433654 3.925097 26.520924 43 24 31
-8.385120 3.927208 26.535191 22 15 44
-8.336254 3.929190 26.548580 39 23 29
-8.289047 3.931984 26.567457 20 23 38
-8.239814 3.933847 26.580046 15 34 32
-8.194238 3.937491 26.604668 23 38 33
-8.147655 3.940696 26.626324 17 34 19
-8.102126 3.944456 26.651730 25 27 35
-8.059048 3.949467 26.685591 20 24 23
-8.012950 3.953055 26.709833 18 36 35
-7.970441 3.958474 26.746447 16 35 29
-7.925455 3.962728 26.775187 32 38 39
-7.879953 3.966779 26.802561 20 23 33
-7.836255 3.971800 26.836489 38 17 42
-7.788611 3.974878 26.857281 24 36 36
-7.742437 3.978753 26.883463 21 18 23
-7.693473 3.981238 26.900255 33 31 18
-7.643507 3.983236 26.913755 43 19 20
-7.595127 3.986095 26.933073 39 30 41
-7.544683 3.987904 26.945297 20 17 23
-7.494880 3.990080 26.959999 42 28 41
-7.443543 3.991465 26.969358 30 35 40
-7.391334 3.992399 26.975672 30 35 40
-7.339422 3.993509 26.983168 30 35 40
-7.286310 3.993977 26.986334 30 35 40
-7.233769 3.994768 26.991674 30 35 40
-7.181540 3.995744 26.998270 30 35 40
-7.128379 3.996213 27.001436 30 35 40
-7.073569 3.995756 26.998354 30 35 40
-7.017615 3.994642 26.990826 30 35 40
-6.961577 3.993463 26.982857 30 35 40
-6.905946 3.992500 26.976351 30 35 40
-6.851684 3.992320 26.975134 42 44 15
-6.799084 3.993113 26.980494 24 24 18
-6.747458 3.994495 26.989832 30 28 34
-6.698528 3.997509 27.010195 30 18 17
-6.649907 4.000757 27.032143 15 19 42
-6.601107 4.003950 27.053719 30 21 28
-6.551913 4.006955 27.074020 15 34 22
-6.499990 4.008327 27.083292 25 22 20
-6.445921 4.008388 27.083700 15 27 43
-6.389878 4.007211 27.075752 32 33 35
-6.332031 4.004875 27.059963 15 26 19
-6.273666 4.002166 27.041662 26 19 32
-6.216277 4.000039 27.027290 32 16 29
-6.158324 3.997509 27.010195 40 34 26
-6.101360 3.995581 26.997169 19 37 24
-6.045963 3.994654 26.990908 23 32 29
-5.991520 3.994347 26.988831 16 41 21
-5.938533 3.995013 26.993332 40 35 41
-5.888718 3.997845 27.012466 20 18 22
-5.839114 4.000874 27.032934 120 120 120
-5.791526 4.005354 27.063206 120 120 120
-5.746120 4.011442 27.104338 120 120 120
-5.698661 4.016199 27.136482 43 23 21
-5.655021 4.023765 27.187603 25 18 42
-5.608106 4.029124 27.223814 31 26 24
-5.562780 4.035743 27.268532 39 18 35
-5.523016 4.046566 27.341663 37 40 36
-5.480359 4.055466 27.401796 25 31 31
-5.440835 4.066887 27.478964 35 29 36
-5.395484 4.074141 27.527979 22 37 36
-5.349025 4.080700 27.572294 43 24 33
-5.305882 4.089950 27.634800 15 31 34
-5.258463 4.096066 27.676119 40 17 30
-5.215804 4.106059 27.743641 23 22 24
-5.170848 4.114438 27.800257 30 25 35
-5.125551 4.122726 27.856255 23 27 18
-5.081755 4.132416 27.921730 19 17 15
-5.032830 4.138104 27.960165 25 20 36
-4.988397 4.147656 28.024702 16 20 31
-4.942404 4.156112 28.081841 40 21 32
-4.895599 4.164073 28.135628 43 38 37
-4.849454 4.172786 28.194498 41 19 39
-4.798352 4.177389 28.225599 39 40 37
-4.748865 4.183524 28.267052 32 34 35
-4.696585 4.187317 28.292681 36 23 18
-4.644228 4.191132 28.318462 33 30 29
-4.594791 4.197710 28.362906 31 39 35
-4.543680 4.202904 28.398003 34 26 37
-4.494873 4.210387 28.448563 16 29 39
-4.443131 4.215278 28.481611 17 39 35
-4.392050 4.220931 28.519806 28 15 31
-4.344089 4.229771 28.579531 20 24 15
-4.293897 4.236645 28.625980 41 20 15
-4.249163 4.249163 28.710562 41 38 43
-4.203246 4.260825 28.789358 41 15 42
-4.156994 4.272467 28.868017 40 24 22
-4.111288 4.285004 28.952732 33 43 35
-4.059821 4.291810 28.998718 26 22 16
-4.009997 4.300576 29.057949 22 42 31
-3.957828 4.307048 29.101677 32 39 24
-3.903533 4.311365 29.130846 19 30 20
-3.848764 4.315281 29.157301 31 16 26
-3.791053 4.315968 29.161943 31 40 32
-3.733879 4.317297 29.170929 30 32 42
-3.676271 4.318159 29.176750 37 25 26
-9.416168 3.945322 26.302145 16 37 17
-9.366557 3.946583 26.310555 18 30 17
-9.316815 3.947803 26.318686 25 37 39
-9.268038 3.949448 26.329653 27 17 43
-9.217949 3.950550 26.336998 40 20 41
-9.167715 3.951601 26.344007 37 39 36
-9.116536 3.952255 26.348370 19 30 27
