ply
format ascii 1.0
element vertex 1289
property float x
property float y
property float z
property uchar red
property uchar green
property uchar blue
end_header
8.985487 2.822364 28.799637 36 31 32
9.036918 2.820440 28.779995 26 25 25
9.085697 2.817716 28.752205 22 20 26
9.127414 2.812851 28.702560 30 23 43
9.170964 2.808608 28.659264 15 25 33
9.208821 2.802685 28.598822 29 23 28
9.253326 2.798845 28.559647 34 17 23
9.296308 2.794596 28.516283 16 35 25
9.330796 2.787860 28.447548 36 28 23
9.370025 2.782614 28.394016 17 31 17
9.401601 2.775171 28.318075 44 23 24
9.438782 2.769463 28.259827 33 24 35
9.478234 2.764485 28.209030 27 17 21
9.515671 2.758981 28.152872 38 21 23
9.562289 2.756189 28.124380 40 44 21
9.604958 2.752298 28.084673 25 36 42
9.652860 2.749943 28.060638 19 36 35
9.699218 2.747177 28.032423 35 40 37
9.738309 2.742397 27.983646 21 39 37
9.780393 2.738510 27.943979 37 35 29
9.808233 2.730701 27.864298 44 42 15
5.653626 3.176195 31.761946 25 37 15
5.702168 3.167871 31.678713 15 35 16
5.746204 3.157255 31.572550 37 30 16
5.797239 3.150673 31.506731 43 17 24
5.849145 3.144701 31.447014 19 24 29
5.894482 3.135363 31.353626 17 15 28
5.944454 3.128660 31.286598 18 25 21
5.988732 3.119131 31.191315 43 16 20
6.038319 3.112536 31.125357 43 32 25
6.087300 3.105765 31.057653 17 23 42
6.130333 3.096128 30.961277 41 37 44
6.178615 3.089308 30.893076 21 39 32
6.217982 3.078209 30.782087 19 44 21
6.261379 3.069303 30.693033 37 20 38
6.303489 3.059946 30.599463 16 30 32
6.339770 3.047966 30.479662 26 24 38
6.384027 3.040013 30.400127 120 120 120
6.418877 3.027772 30.277723 120 120 120
6.458576 3.018026 30.180262 120 120 120
6.498753 3.008682 30.086819 32 28 38
6.534176 2.997328 29.973284 37 35 25
6.578947 2.990430 29.904305 29 18 32
6.618080 2.981117 29.811171 29 32 21
6.662429 2.974298 29.742985 28 25 26
6.709438 2.968778 29.687780 22 24 16
6.754306 2.962415 29.624149 17 40 42
6.806203 2.959219 29.592186 27 41 42
6.855421 2.954923 29.549227 34 21 29
6.907528 2.951935 29.519352 20 19 40
6.960559 2.949389 29.493893 43 19 19
7.011167 2.945869 29.458687 34 27 44
7.064729 2.943637 29.436373 15 27 32
7.115710 2.940376 29.403759 24 24 44
7.168426 2.937879 29.378794 22 18 22
7.221501 2.935570 29.355696 39 39 20
7.272790 2.932577 29.325768 28 27 28
7.326706 2.930682 29.306824 19 21 27
7.380124 2.928621 29.286207 28 36 44
7.436133 2.927611 29.276114 28 36 37
7.492914 2.926919 29.269194 25 32 15
7.548413 2.925742 29.257416 19 23 37
7.604978 2.924991 29.249914 42 32 32
7.657812 2.922829 29.228289 22 41 34
7.710215 2.920536 29.205360 23 19 29
7.761143 2.917723 29.177229 19 24 35
7.810307 2.914294 29.142937 23 21 21
7.862277 2.911954 29.119545 32 28 38
7.910236 2.908175 29.081749 39 34 41
7.959400 2.904890 29.048904 27 34 27
8.009236 2.901897 29.018970 42 27 43
8.058334 2.898681 28.986813 40 44 15
8.111712 2.897040 28.970400 28 23 28
8.165065 2.895413 28.954132 15 26 34
8.220887 2.894679 28.946787 16 26 18
8.278165 2.894463 28.944632 19 37 22
8.334501 2.893924 28.939240 31 27 21
8.391621 2.893662 28.936625 18 20 41
8.448884 2.893453 28.934534 43 28 33
8.507584 2.893736 28.937359 36 22 31
8.565085 2.893610 28.936098 31 37 32
8.619864 2.892572 28.925718 31 36 35
8.673834 2.891278 28.912781 42 28 42
8.722023 2.888087 28.880871 32 24 35
8.769046 2.884555 28.845547 25 25 35
8.815441 2.880863 28.808630 18 37 17
8.862654 2.877485 28.774851 15 20 35
8.915478 2.875961 28.759607 17 26 32
8.964796 2.873332 28.733320 28 16 30
9.016577 2.871521 28.715212 42 34 23
9.065933 2.868966 28.689663 18 23 44
9.108330 2.864255 28.642548 16 29 20
9.152327 2.860102 28.601021 39 18 36
9.190911 2.854320 28.543201 27 36 31
9.235939 2.850599 28.505985 35 25 34
9.279452 2.846458 28.464577 36 31 21
9.314713 2.839852 28.398516 39 29 32
9.354452 2.834682 28.346823 17 22 34
9.386517 2.827264 28.272642 42 23 21
9.423800 2.821497 28.214972 35 36 17
9.463272 2.816450 28.164501 26 44 34
9.500930 2.810926 28.109261 16 17 37
9.547716 2.808152 28.081518 15 15 27
9.591072 2.804407 28.044071 30 34 39
9.640646 2.802514 28.025135 36 24 29
9.687454 2.799842 27.998423 17 37 20
9.723697 2.794166 27.941658 37 41 22
9.761400 2.788972 27.889715 18 18 35
5.638894 3.231276 31.679180 21 42 37
5.690013 3.224340 31.611181 16 23 39
5.735430 3.214362 31.513350 28 44 25
5.785448 3.207150 31.442652 43 29 40
5.835677 3.200210 31.374605 17 23 15
5.880619 3.190548 31.279886 35 22 32
5.930944 3.183980 31.215492 16 16 29
5.975484 3.174476 31.122313 24 21 34
6.025007 3.167787 31.056738 26 18 39
6.073791 3.160850 30.988729 43 36 33
6.116642 3.150997 30.892132 41 36 19
6.164724 3.144009 30.823622 19 37 41
6.203685 3.132554 30.711313 43 34 29
6.246612 3.123306 30.620649 34 17 29
6.288212 3.113581 30.525299 43 32 43
6.324010 3.101197 30.403894 33 23 35
6.367948 3.093003 30.323563 120 120 120
6.402514 3.080455 30.200539 120 120 120
6.442013 3.070492 30.102865 120 120 120
6.482087 3.060985 30.009661 31 29 26
6.517408 3.049429 29.896366 32 27 21
6.562106 3.042431 29.827755 40 19 21
6.601207 3.032987 29.735167 21 27 35
6.645500 3.026076 29.667410 16 37 44
6.692455 3.020489 29.612635 23 24 22
6.737285 3.014048 29.549494 33 35 39
6.789096 3.010816 29.517807 19 23 27
6.838357 3.006519 29.475676 34 15 35
6.890515 3.003558 29.446644 28 43 40
6.943658 3.001073 29.422281 25 37 19
6.994447 2.997620 29.388433 38 20 18
7.048098 2.995442 29.367077 33 44 31
7.099406 2.992312 29.336388 26 18 17
7.152474 2.989969 29.313419 17 23 27
7.205903 2.987813 29.292288 23 20 44
7.257522 2.984948 29.264200 32 26 40
7.311530 2.983104 29.246119 27 21 39
7.365094 2.981109 29.226562 36 36 28
7.421184 2.980160 29.217258 16 21 20
7.477995 2.979514 29.210918 33 29 20
7.533587 2.978395 29.199951 30 33 30
7.590146 2.977673 29.192871 27 28 30
7.643028 2.975530 29.171862 25 36 36
7.695419 2.973230 29.149315 15 40 25
7.746332 2.970398 29.121550 37 18 25
7.795563 2.966968 29.087921 36 37 38
7.847564 2.964635 29.065050 42 16 15
7.895504 2.960814 29.027588 17 26 21
7.944610 2.957483 28.994928 36 33 26
7.994228 2.954389 28.964596 16 34 25
8.042910 2.950996 28.931330 30 16 24
8.095820 2.949192 28.913643 30 42 44
8.148463 2.947317 28.895260 19 26 35
8.203765 2.946423 28.886497 25 33 23
8.260334 2.945993 28.882286 19 18 28
8.315545 2.945089 28.873421 29 21 25
8.371671 2.944519 28.867832 16 36 21
8.427405 2.943820 28.860977 38 32 21
8.484772 2.943697 28.859770 16 33 33
8.540952 2.943166 28.854568 43 22 43
8.594221 2.941646 28.839666 17 41 33
8.647220 2.940055 28.824068 31 30 18
8.694199 2.936451 28.788738 41 33 43
8.740244 2.932582 28.750803 35 36 44
8.785928 2.928643 28.712183 30 33 35
8.832410 2.925019 28.676657 34 36 24
8.884875 2.923411 28.660889 33 43 35
8.934125 2.920772 28.635015 43 17 20
8.986053 2.919036 28.618002 22 15 21
9.035762 2.916607 28.594183 15 26 23
9.078589 2.912000 28.549021 42 26 30
9.122847 2.907907 28.508896 16 39 20
9.161908 2.902219 28.453131 18 23 42
9.207181 2.898557 28.417225 23 43 37
9.251055 2.894502 28.377470 38 19 32
9.287181 2.888087 28.314577 27 26 36
9.327660 2.883095 28.265636 28 35 39
9.360554 2.875833 28.194439 43 18 28
9.398271 2.870131 28.138535 18 16 42
9.437889 2.865074 28.088957 24 31 34
9.475748 2.859545 28.034758 30 29 22
9.522501 2.856750 28.007357 21 33 42
9.565110 2.852752 27.968157 23 18 26
9.613731 2.850583 27.946894 39 42 28
9.658945 2.847435 27.916025 17 41 18
9.692484 2.840901 27.851967 37 42 43
9.727653 2.834916 27.793293 22 30 36
5.679035 3.281220 31.550196 15 44 19
5.724893 3.271367 31.455454 15 43 18
5.775014 3.264138 31.385946 20 18 30
5.825223 3.257114 31.318405 37 33 23
5.870342 3.247423 31.225222 29 27 39
5.920784 3.240850 31.162024 39 16 25
5.965417 3.231267 31.069880 20 24 41
6.014895 3.224480 31.004616 33 36 19
6.063565 3.217402 30.936554 27 19 17
6.106329 3.207365 30.840046 39 29 18
6.154313 3.200243 30.771566 43 28 32
6.193073 3.188513 30.658777 37 44 42
6.235733 3.179001 30.567320 26 42 35
6.277058 3.169000 30.471153 36 40 16
6.312625 3.156312 30.349157 16 24 15
6.356419 3.147941 30.268663 120 120 120
6.390914 3.135166 30.145823 120 120 120
6.430368 3.125039 30.048449 120 120 120
6.470450 3.115402 29.955786 40 17 43
6.505833 3.103700 29.843271 23 33 33
6.550549 3.096623 29.775223 15 25 16
6.589707 3.087070 29.683365 44 27 42
6.634005 3.080074 29.616093 41 24 42
6.680934 3.074412 29.561657 19 21 38
6.725696 3.067861 29.498667 38 16 42
6.777369 3.064550 29.466824 29 40 20
6.826563 3.060183 29.424839 20 37 43
6.878695 3.057198 29.396133 40 32 22
6.931848 3.054713 29.372236 24 37 16
6.982645 3.051240 29.338844 44 19 26
7.036278 3.049054 29.317825 39 33 24
7.087682 3.045946 29.287941 18 41 43
7.140895 3.043660 29.265963 37 32 39
7.194457 3.041559 29.245760 31 29 22
7.246167 3.038715 29.218414 43 32 18
7.300126 3.036852 29.200502 20 31 20
7.353639 3.034835 29.181107 30 22 39
7.409653 3.033874 29.171862 26 19 17
7.466354 3.033206 29.165443 17 21 17
7.521788 3.032039 29.154219 42 25 42
7.578195 3.031278 29.146902 23 25 34
7.631031 3.029112 29.126074 32 39 43
7.683528 3.026844 29.104273 33 24 39
7.734554 3.024036 29.077271 30 35 25
7.783822 3.020588 29.044113 41 43 18
7.835733 3.018208 29.021235 31 26 40
7.883551 3.014299 28.983643 16 35 41
7.932566 3.010901 28.950970 43 22 20
7.981967 3.007698 28.920172 34 24 19
8.030256 3.004125 28.885815 43 22 35
8.082758 3.002167 28.866993 35 37 28
8.134775 3.000059 28.846720 26 31 27
8.189610 2.999012 28.836657 30 17 44
8.245567 2.998388 28.830654 36 17 37
8.299837 2.997164 28.818880 21 17 26
8.355145 2.996328 28.810844 43 41 20
8.409697 2.995235 28.800333 38 32 31
8.466076 2.994802 28.796177 38 32 34
8.521332 2.993981 28.788282 15 35 37
8.573595 2.992127 28.770452 31 27 39
8.626011 2.990351 28.753370 17 34 27
8.672227 2.986462 28.715984 37 27 44
8.717670 2.982361 28.676546 36 44 38
8.762851 2.978224 28.636766 16 30 37
8.808760 2.974386 28.599869 39 33 41
8.860847 2.972671 28.583376 39 34 16
8.909810 2.969937 28.557083 18 22 16
8.961620 2.968180 28.540190 25 42 23
9.011287 2.965740 28.516731 43 24 24
9.053998 2.961056 28.471693 24 17 40
9.098088 2.956879 28.431524 39 41 36
9.137021 2.951088 28.375843 20 15 32
9.182026 2.947317 28.339586 33 34 39
9.225894 2.943230 28.300289 39 23 19
9.262551 2.936906 28.239485 20 42 41
9.303715 2.932080 28.193075 29 15 37
9.337655 2.925048 28.125465 20 22 36
9.376298 2.919566 28.072748 42 33 28
9.416540 2.914643 28.025417 42 31 42
9.454960 2.909218 27.973253 32 32 36
9.501802 2.906434 27.946476 23 23 32
9.542562 2.901832 27.902227 23 19 28
9.587583 2.898572 27.870880 24 18 44
9.629480 2.894410 27.830866 31 37 36
9.661887 2.887460 27.764042 44 28 24
5.667087 3.337285 31.483816 26 39 25
5.712944 3.327319 31.389801 42 34 16
5.763496 3.320275 31.323349 35 40 43
5.814265 3.313506 31.259491 17 16 21
5.859808 3.303934 31.169193 39 31 21
5.910359 3.297358 31.107155 29 17 24
5.955056 3.287687 31.015919 40 39 36
6.004453 3.280784 30.950790 40 24 21
6.052951 3.273534 30.882401 20 27 20
6.095618 3.263311 30.785950 15 16 43
6.143506 3.256058 30.717529 30 24 15
6.182133 3.244090 30.604618 23 29 27
6.224624 3.234363 30.512863 23 30 25
6.265768 3.224133 30.416349 15 42 43
6.301164 3.211170 30.294058 16 27 22
6.344818 3.202623 30.213421 120 120 120
6.379268 3.189634 30.090889 120 120 120
6.418751 3.179381 29.994162 120 120 120
6.458917 3.169654 29.902395 36 21 31
6.494436 3.157845 29.790989 21 28 34
6.539233 3.150721 29.723785 40 22 29
6.578514 3.141092 29.632944 19 44 33
6.622863 3.134033 29.566353 22 31 40
6.669798 3.128312 29.512381 26 37 33
6.714576 3.121689 29.449896 35 26 17
6.766203 3.118337 29.418276 15 44 21
6.815426 3.113945 29.376837 24 43 39
6.867605 3.110966 29.348738 28 37 28
6.920804 3.108497 29.325439 38 44 24
6.971649 3.105020 29.292645 25 37 42
7.025260 3.102823 29.271917 31 26 43
7.076729 3.099724 29.242682 29 31 32
7.130039 3.097476 29.221472 41 16 41
7.183660 3.095398 29.201868 27 37 23
7.235337 3.092523 29.174747 20 29 36
7.289158 3.090603 29.156631 34 33 28
7.342431 3.088483 29.136629 16 33 15
7.398183 3.087431 29.126703 31 41 40
7.454559 3.086653 29.119370 41 21 41
7.509565 3.085325 29.106840 39 20 16
7.565593 3.084434 29.098434 30 19 17
7.618291 3.082209 29.077448 25 40 32
7.670965 3.080009 29.056686 20 21 43
7.722261 3.077292 29.031057 33 36 43
7.771611 3.073846 28.998549 22 36 25
7.823415 3.071415 28.975611 43 16 27
7.871117 3.067421 28.937931 25 33 42
7.920048 3.063960 28.905283 34 37 40
7.969279 3.060665 28.874201 44 44 18
8.017260 3.056941 28.839064 29 18 44
8.069427 3.054855 28.819384 17 24 38
8.120976 3.052566 28.797789 33 40 15
8.175477 3.051411 28.786892 21 29 24
8.230997 3.050649 28.779711 33 31 40
8.284533 3.049168 28.765739 33 34 19
8.339172 3.048111 28.755764 42 19 43
8.392807 3.046704 28.742491 21 29 34
8.448428 3.046032 28.736151 24 37 21
8.503015 3.044998 28.726400 40 28 25
8.554588 3.042907 28.706671 31 20 36
8.606641 3.041013 28.688803 42 24 35
8.652400 3.036935 28.650331 44 17 25
8.697502 3.032681 28.610203 42 32 31
8.742353 3.028397 28.569780 43 30 34
8.787789 3.024369 28.531782 15 40 28
8.839486 3.022534 28.514471 20 43 42
8.887994 3.019639 28.487160 30 43 15
8.939453 3.017777 28.469595 41 44 15
8.988831 3.015241 28.445667 24 20 31
9.031227 3.010409 28.400084 21 20 24
9.075099 3.006127 28.359686 32 29 30
9.113769 3.000185 28.303631 27 16 29
9.158397 2.996266 28.266657 20 43 23
9.202097 2.992093 28.227291 32 18 27
9.239027 2.985783 28.167767 40 38 27
9.280668 2.981063 28.123236 27 31 22
9.315146 2.974113 28.057669 15 20 20
9.354192 2.968696 28.006563 43 38 35
9.394442 2.963723 27.959650 18 32 21
9.432597 2.958152 27.907091 26 20 16
9.478898 2.955186 27.879110 22 33 39
9.517188 2.949772 27.828035 19 25 22
9.558115 2.945233 27.785217 43 17 29
9.596725 2.940037 27.736198 18 24 15
9.628850 2.932926 27.669109 15 43 17
5.698467 3.381508 31.310259 41 21 32
5.749148 3.374500 31.245369 32 18 17
5.799979 3.367730 31.182684 42 40 34
5.845711 3.358174 31.094208 22 19 26
5.896338 3.351602 31.033356 15 25 24
5.941046 3.341838 30.942945 30 15 25
5.990292 3.334802 30.877796 18 22 19
6.038556 3.327368 30.808960 38 27 32
6.081036 3.316929 30.712301 32 15 41
6.128756 3.309528 30.643778 21 29 39
6.167169 3.297298 30.530539 36 29 31
6.209433 3.287347 30.438396 15 22 20
6.250322 3.276868 30.341370 31 26 40
6.285400 3.263573 30.218271 16 35 36
6.328755 3.254788 30.136927 120 120 120
6.363034 3.241546 30.014311 120 120 120
6.402464 3.231150 29.918056 120 120 120
6.442696 3.221348 29.827297 32 25 30
6.478329 3.209447 29.717106 27 36 15
6.523181 3.202289 29.650822 37 29 22
6.562614 3.192623 29.561323 39 17 37
6.607014 3.185525 29.495598 22 40 28
6.654027 3.179800 29.442596 23 31 33
6.698991 3.173206 29.381540 30 40 34
6.750726 3.169906 29.350985 31 40 19
6.800250 3.165634 29.311422 28 43 41
6.852693 3.162781 29.285013 23 39 15
6.906170 3.160451 29.263432 38 19 15
6.957332 3.157109 29.232487 18 16 35
7.011069 3.154981 29.212788 38 30 22
7.062825 3.152004 29.185226 38 15 40
7.116428 3.149894 29.165688 36 27 27
7.170237 3.147909 29.147306 18 38 25
7.222012 3.145070 29.121016 30 15 19
7.275725 3.143113 29.102901 18 33 24
7.328731 3.140885 29.082264 19 31 28
7.384167 3.139724 29.071522 33 32 44
7.440118 3.138800 29.062962 26 43 27
7.494572 3.137263 29.048727 19 27 19
7.550100 3.136195 29.038845 31 41 23
7.602625 3.133907 29.017654 18 31 31
7.655558 3.131819 28.998325 16 31 17
7.707219 3.129247 28.974506 32 29 35
7.756712 3.125839 28.942957 38 44 21
7.808408 3.123363 28.920029 37 20 39
7.855973 3.119283 28.882254 28 31 22
7.904796 3.115759 28.849619 18 29 26
7.953818 3.112364 28.818182 33 44 16
8.001492 3.108493 28.782347 43 43 31
8.053321 3.106281 28.761860 34 32 31
8.104460 3.103836 28.739220 35 43 22
8.158718 3.102611 28.727879 30 44 44
8.213877 3.101744 28.719849 27 26 31
8.266725 3.100022 28.703907 25 34 33
8.320671 3.098733 28.691969 36 29 26
8.373350 3.096993 28.675858 42 30 15
8.428165 3.096061 28.667229 40 30 37
8.482016 3.094790 28.655460 44 42 22
8.532825 3.092433 28.633640 21 19 39
8.584431 3.090395 28.614771 37 39 20
8.629693 3.086116 28.575144 33 16 23
8.674445 3.081711 28.534357 31 35 21
8.718992 3.077291 28.493439 40 32 18
8.764001 3.073091 28.454548 32 31 37
8.815348 3.071154 28.436607 18 30 15
8.863492 3.068132 28.408628 36 44 18
8.914622 3.066176 28.390514 15 41 25
8.963835 3.063589 28.366568 43 23 27
9.006271 3.058733 28.321606 30 25 35
9.050291 3.054473 28.282160 17 16 43
9.089232 3.048562 28.227428 21 34 21
9.134047 3.044682 28.191502 42 37 20
9.177880 3.040525 28.153008 25 19 15
9.215105 3.034242 28.094833 41 20 35
9.256923 3.029538 28.051281 28 31 30
9.290799 3.022308 27.984333 42 16 20
9.328809 3.016501 27.930567 18 26 21
9.367426 3.010958 27.879244 30 35 40
9.403473 3.004660 27.820927 15 24 29
9.448049 3.001145 27.788380 36 24 40
9.483931 2.994925 27.730791 37 28 19
9.522500 2.989622 27.681686 20 39 35
9.559631 2.983931 27.628992 19 28 42
5.739579 3.431270 31.193363 35 20 35
5.790357 3.424404 31.130949 25 23 34
5.836136 3.414760 31.043276 38 29 16
5.886783 3.408138 30.983070 21 39 32
5.931452 3.398227 30.892977 42 36 25
5.980560 3.391039 30.827629 27 38 34
6.028640 3.383421 30.758369 18 36 30
6.070966 3.372759 30.661446 37 28 36
6.118562 3.365209 30.592812 31 43 26
6.156835 3.352732 30.479380 38 28 16
6.198991 3.342593 30.387209 40 21 25
6.239748 3.331904 30.290039 16 39 25
6.274587 3.318291 30.166283 23 22 25
6.317685 3.309264 30.084215 120 120 120
6.351794 3.295742 29.961290 120 120 120
6.391176 3.285184 29.865309 120 120 120
6.431456 3.275278 29.775257 20 37 23
6.467149 3.263240 29.665819 41 30 16
6.512047 3.256024 29.600214 38 35 22
6.551608 3.246292 29.511749 19 36 32
6.596052 3.239132 29.446659 23 22 35
6.643162 3.233397 29.394522 22 39 44
6.688375 3.226847 29.334976 15 26 19
6.740302 3.223623 29.305662 23 33 37
6.790214 3.219498 29.268166 40 35 43
6.842970 3.216781 29.243464 33 15 35
6.896767 3.214595 29.223587 43 37 44
6.948290 3.211394 29.194494 23 34 22
7.002188 3.209336 29.175785 43 29 43
7.054239 3.206472 29.149750 30 21 35
7.108091 3.204467 29.131521 22 31 30
7.162066 3.202550 29.114088 21 35 29
7.213933 3.199728 29.088438 41 43 19
7.267566 3.197729 29.070265 35 33 44
7.320348 3.195390 29.049000 30 42 15
7.375515 3.194121 29.037462 28 23 40
7.431104 3.193052 29.027748 29 25 16
7.485066 3.191307 29.011883 26 30 23
7.540173 3.190073 29.000664 29 26 16
7.592549 3.187711 28.979195 37 23 19
7.645700 3.185708 28.960985 34 41 29
7.697710 3.183264 28.938761 35 16 25
7.747319 3.179870 28.907907 18 43 38
7.798951 3.177350 28.885004 21 25 15
7.846424 3.173186 28.847147 37 22 18
7.895159 3.169589 28.814449 29 35 21
7.944076 3.166117 28.782883 16 27 31
7.991607 3.162147 28.746788 31 20 41
8.043305 3.159870 28.726088 18 22 22
8.094334 3.157364 28.703312 21 28 16
8.148586 3.156143 28.692205 15 32 17
8.203675 3.155260 28.684177 40 26 29
8.256292 3.153445 28.667681 16 32 24
8.309948 3.152049 28.654993 37 23 44
8.362223 3.150152 28.637749 28 34 19
8.416693 3.149103 28.628208 43 22 41
8.470236 3.147723 28.615662 28 17 29
8.520732 3.145237 28.593060 26 16 22
8.572156 3.143124 28.573854 21 38 23
8.617264 3.138738 28.533985 26 38 30
8.661949 3.134258 28.493252 21 25 21
8.706441 3.129766 28.452421 38 20 26
8.751317 3.125470 28.413366 28 19 32
8.802507 3.123470 28.395184 38 29 34
8.850455 3.120353 28.366842 40 38 26
8.901349 3.118307 28.348246 34 28 20
8.950462 3.115667 28.324247 37 25 33
8.993083 3.110815 28.280134 21 25 16
9.037418 3.106612 28.241930 29 31 44
9.076825 3.100779 28.188898 30 30 41
9.122088 3.097005 28.154593 19 32 20
9.166166 3.092878 28.117073 36 32 26
9.203456 3.086525 28.059319 39 32 19
9.245081 3.081694 28.015396 24 21 18
9.277633 3.073915 27.944677 22 27 38
9.313903 3.067453 27.885937 40 19 34
9.350279 3.061103 27.828213 28 23 34
9.383630 3.053844 27.762220 20 43 38
9.426239 3.049665 27.724232 27 22 15
9.460667 3.042905 27.662769 42 40 29
9.499019 3.037477 27.613426 17 38 35
5.775670 3.477823 31.051989 20 29 33
5.821199 3.467948 30.963825 30 24 38
5.871599 3.461153 30.903152 21 20 24
5.915870 3.450924 30.811825 21 16 26
5.964544 3.443448 30.745073 34 24 15
6.012193 3.435539 30.674454 38 18 35
6.054152 3.424571 30.576523 17 24 24
6.101523 3.416853 30.507616 24 18 21
6.139564 3.404114 30.393879 26 38 41
6.181522 3.393777 30.301579 20 30 30
6.222074 3.382875 30.204241 34 19 15
6.256595 3.368936 30.079784 23 20 27
6.299364 3.359661 29.996971 120 120 120
6.333402 3.345948 29.874537 120 120 120
6.372924 3.335362 29.780020 120 120 120
6.413478 3.325507 29.692028 33 36 21
6.449432 3.313469 29.584549 27 23 15
6.494429 3.306255 29.520132 18 35 31
6.534207 3.296537 29.433367 15 44 22
6.578722 3.289361 29.369293 25 39 29
6.625976 3.283669 29.318478 32 16 21
6.671557 3.277256 29.261215 32 35 23
6.723787 3.274192 29.233856 22 42 31
6.774167 3.270287 29.198994 37 27 18
6.827240 3.267739 29.176239 43 25 27
6.881286 3.265695 29.157993 40 28 23
6.933129 3.262649 29.130793 28 44 41
6.987117 3.260655 29.112989 41 31 15
7.039406 3.257907 29.088453 41 37 25
7.093518 3.256041 29.071796 38 29 43
7.147632 3.254207 29.055416 15 25 21
7.199495 3.251385 29.030220 19 32 17
7.252915 3.249306 29.011660 21 15 40
7.305229 3.246768 28.989002 20 24 36
7.359878 3.245301 28.975899 35 19 42
7.414826 3.243986 28.964165 18 33 32
7.468007 3.241926 28.945765 40 37 27
7.522510 3.240466 28.932732 23 31 26
7.574356 3.237893 28.909756 32 18 37
7.627190 3.235778 28.890871 18 34 33
7.679185 3.233341 28.869118 28 24 28
7.729047 3.230050 28.839729 31 28 30
7.781063 3.227700 28.818752 30 34 44
7.829056 3.223729 28.783293 34 42 42
7.878095 3.220243 28.752172 30 19 21
7.927216 3.216841 28.721798 22 41 36
7.974977 3.212940 28.686968 41 29 21
8.026692 3.210677 28.666758 30 39 16
8.077890 3.208240 28.645000 39 18 20
8.132371 3.207132 28.635109 39 15 25
8.187618 3.206340 28.628036 16 18 42
8.240272 3.204550 28.612057 34 38 34
8.293767 3.203110 28.599197 38 36 24
8.345792 3.201126 28.581478 35 41 24
8.399991 3.199997 28.571398 42 36 26
8.453231 3.198520 28.558214 31 27 38
8.503470 3.195935 28.535133 21 17 29
8.554727 3.193765 28.515757 21 29 43
8.599730 3.189304 28.475927 32 42 36
8.644443 3.184795 28.435667 37 39 25
8.688884 3.180245 28.395046 16 27 42
8.733448 3.175799 28.355350 26 32 27
8.784213 3.173651 28.336172 26 24 42
8.831485 3.170277 28.306042 40 32 22
8.881628 3.167969 28.285439 17 42 24
8.930176 3.165126 28.260052 15 39 36
8.972728 3.160206 28.216125 34 27 41
9.017421 3.156097 28.179440 30 15 31
9.056739 3.150170 28.126520 18 28 44
9.101421 3.146170 28.090805 30 43 28
9.144630 3.141713 28.051012 19 32 36
9.181161 3.135031 27.991344 18 29 43
9.222318 3.129999 27.946419 17 44 43
9.253472 3.121653 27.871902 35 19 41
9.288148 3.114589 27.808826 36 17 30
9.322559 3.107520 27.745712 28 21 27
9.353372 3.099342 27.672699 31 30 42
9.394035 3.094506 27.629515 17 21 38
9.427035 3.087216 27.564430 28 34 31
5.810000 3.523085 30.904253 24 35 43
5.860008 3.516005 30.842148 27 16 33
5.903718 3.505333 30.748533 38 25 33
5.951887 3.497501 30.679831 31 23 17
5.999086 3.489264 30.607580 43 21 44
6.040652 3.477951 30.508343 43 15 33
6.087827 3.470062 30.439137 16 41 32
6.125667 3.457060 30.325087 15 30 37
6.167463 3.446524 30.232664 37 44 32
6.207872 3.435424 30.135300 36 16 26
6.242178 3.421194 30.010469 36 31 23
6.284704 3.411697 29.927164 120 120 120
6.318791 3.397841 29.805620 120 120 120
6.358564 3.387273 29.712917 120 120 120
6.399470 3.377498 29.627174 18 43 25
6.435718 3.365467 29.521643 43 20 35
6.480799 3.358232 29.458176 36 25 27
6.520742 3.348489 29.372713 31 39 20
6.565315 3.341276 29.309443 20 21 33
6.612651 3.335585 29.259518 16 32 27
6.658522 3.329261 29.204042 42 16 21
6.711001 3.326322 29.178267 16 42 22
6.761691 3.322555 29.145220 37 30 36
6.814919 3.320089 29.123585 34 15 31
6.869043 3.318097 29.106113 35 26 21
6.920996 3.315099 29.079817 41 42 36
6.974983 3.313117 29.062429 26 24 31
7.027354 3.310406 29.038652 33 22 19
7.081612 3.308622 29.022999 17 26 38
7.135780 3.306825 29.007235 25 40 29
7.187566 3.303962 28.982122 38 26 30
7.240777 3.301795 28.963110 43 18 36
7.292660 3.299060 28.939127 15 38 35
7.346849 3.297404 28.924601 17 23 37
7.401252 3.295870 28.911140 23 30 21
7.453816 3.293546 28.890759 26 41 20
7.507866 3.291910 28.876408 23 29 18
7.559086 3.289068 28.851475 26 33 32
7.611188 3.286650 28.830259 30 29 34
7.662831 3.284070 28.807634 39 22 37
7.713056 3.280927 28.780060 38 43 44
7.765877 3.278926 28.762508 17 37 16
7.814787 3.275315 28.730835 33 32 31
7.864261 3.271992 28.701681 42 20 20
7.913685 3.268696 28.672771 26 21 35
7.961864 3.264937 28.639797 23 23 41
8.013744 3.262739 28.620514 27 39 24
8.065330 3.260452 28.600460 29 25 22
8.120181 3.259509 28.592186 23 42 36
8.175758 3.258869 28.586567 18 18 18
8.228705 3.257196 28.571894 27 44 44
8.282266 3.255787 28.559538 18 32 40
8.334307 3.253805 28.542147 20 23 44
8.388435 3.252659 28.532093 20 37 26
8.441540 3.251134 28.518717 28 44 18
8.491667 3.248490 28.495527 38 44 21
8.542815 3.246270 28.476049 42 18 23
8.587687 3.241710 28.436050 16 31 43
8.632397 3.237149 28.396044 44 37 39
8.676682 3.232489 28.355169 29 42 15
8.720743 3.227808 28.314102 37 21 37
8.770920 3.225435 28.293289 37 27 35
8.817317 3.221712 28.260632 32 42 44
8.866583 3.219078 28.237526 26 37 28
8.914489 3.215986 28.210407 25 30 39
8.957062 3.211022 28.166861 16 36 30
9.002319 3.207076 28.132248 32 23 18
9.041121 3.200894 28.078016 31 25 27
9.084261 3.196314 28.037842 29 35 31
9.125612 3.191165 27.992674 35 41 20
9.160709 3.183905 27.928991 18 23 22
9.201270 3.178620 27.882635 22 16 42
9.231635 3.169899 27.806129 16 23 33
9.265761 3.162565 27.741798 39 38 43
9.299625 3.155230 27.677454 26 41 44
9.329338 3.146581 27.601591 31 38 26
9.368980 3.141364 27.555822 29 20 18
5.847358 3.569966 30.775570 39 28 26
5.890414 3.558792 30.679237 33 23 16
5.938002 3.550558 30.608259 22 36 34
5.984713 3.541973 30.534250 25 32 41
6.025859 3.530301 30.433630 33 41 21
6.072844 3.522250 30.364222 18 42 17
6.110486 3.508992 30.249929 32 21 18
6.152083 3.498243 30.157270 36 42 40
6.192345 3.486952 30.059927 40 25 37
6.226458 3.472448 29.934896 23 29 27
6.268808 3.462770 29.851467 120 120 120
6.303034 3.448830 29.731295 120 120 120
6.343151 3.438344 29.640894 120 120 120
6.384491 3.428708 29.557829 18 41 39
6.421118 3.416742 29.454672 29 19 32
6.466320 3.409514 29.392365 41 35 26
6.506467 3.399776 29.308411 34 38 34
6.551123 3.392546 29.246086 22 29 39
6.598543 3.386863 29.197092 43 39 38
6.644700 3.380637 29.143423 21 21 34
6.697407 3.377823 29.119160 34 25 34
6.748330 3.374165 29.087631 23 27 28
6.801614 3.371740 29.066725 15 27 25
6.855689 3.369745 29.049530 20 36 26
6.907604 3.366731 29.023544 37 20 28
6.961474 3.364713 29.006144 38 18 42
7.013801 3.361987 28.982651 40 41 26
7.068106 3.360247 28.967648 24 39 24
7.122257 3.358463 28.952265 15 34 32
7.173862 3.355516 28.926865 24 33 28
7.226787 3.353229 28.907146 19 32 34
7.278168 3.350268 28.881620 33 32 41
7.331837 3.348398 28.865499 22 43 15
7.385665 3.346629 28.850254 41 43 18
7.437594 3.344035 28.827885 43 35 26
7.491205 3.342230 28.812328 35 26 30
7.541703 3.339075 28.785126 44 18 15
7.592870 3.336261 28.760870 30 21 35
7.643929 3.333443 28.736576 44 34 25
7.694343 3.330387 28.710234 22 20 27
7.747903 3.328729 28.695938 24 18 35
7.797857 3.325557 28.668591 27 44 33
7.848053 3.322534 28.642530 23 38 18
7.898129 3.319503 28.616409 42 40 42
7.946979 3.316006 28.586256 42 33 18
7.999120 3.313921 28.568287 33 24 38
8.051197 3.311840 28.550343 28 34 37
8.106467 3.311092 28.543900 28 35 36
8.162432 3.310637 28.539972 40 36 34
8.215841 3.309158 28.527225 27 21 32
8.269623 3.307849 28.515942 32 39 29
8.321909 3.305964 28.499687 36 36 16
8.376116 3.304862 28.490191 43 34 31
8.429236 3.303349 28.477148 35 21 27
8.479442 3.300722 28.454502 37 35 20
8.530612 3.298503 28.435373 43 24 34
8.575638 3.293954 28.396152 44 34 39
8.620609 3.289443 28.357265 37 43 44
8.664976 3.284762 28.316914 32 20 33
8.708817 3.279944 28.275381 20 30 38
8.758542 3.277390 28.253361 24 31 23
8.804064 3.273306 28.218155 33 24 24
8.852360 3.270298 28.192228 20 21 20
8.899329 3.266842 28.162434 39 28 18
8.941311 3.261610 28.117331 19 33 30
8.986519 3.257613 28.082870 38 34 39
9.024334 3.251002 28.025881 21 17 35
9.065818 3.245787 27.980919 42 22 41
9.105423 3.239967 27.930746 21 37 22
9.139169 3.232145 27.863321 25 31 34
9.179237 3.226641 27.815870 40 24 20
9.209191 3.217669 27.738527 19 26 23
9.243193 3.210211 27.674231 18 22 37
9.277032 3.202785 27.610214 20 27 44
9.306491 3.193944 27.533997 39 19 27
5.872218 3.608967 30.584469 23 42 21
5.919203 3.600340 30.511354 18 35 20
5.965386 3.591406 30.435642 19 31 21
6.006112 3.579400 30.333900 22 39 16
6.052898 3.571210 30.264492 37 29 44
6.090331 3.557718 30.150152 18 25 42
6.131688 3.546761 30.057293 28 38 39
6.171759 3.535279 29.959993 20 21 44
6.205690 3.520536 29.835047 43 43 20
6.247853 3.510699 29.751682 120 120 120
6.282287 3.496745 29.633430 120 120 120
6.322798 3.486403 29.545784 120 120 120
6.364644 3.476982 29.465946 20 28 18
6.401758 3.465172 29.365862 34 21 27
6.447142 3.458012 29.305189 20 39 17
6.487586 3.448356 29.223358 15 16 16
6.532363 3.441155 29.162334 22 27 23
6.579890 3.435518 29.114555 23 29 21
6.626355 3.429429 29.062962 35 26 21
6.679259 3.426750 29.040258 43 30 39
6.730392 3.423217 29.010311 19 19 34
6.783704 3.420842 28.990189 39 26 34
6.837682 3.418841 28.973228 28 31 37
6.889465 3.415785 28.947330 35 16 19
6.943113 3.413697 28.929638 43 25 22
6.995283 3.410923 28.906128 27 26 22
7.049578 3.409222 28.891712 17 35 37
7.103643 3.407439 28.876598 43 23 43
7.154958 3.404375 28.850636 44 20 24
7.207478 3.401929 28.829910 34 38 35
7.258178 3.398670 28.802292 25 20 37
7.311181 3.396533 28.784178 18 29 40
7.364267 3.394467 28.766668 22 34 36
7.415384 3.391532 28.741798 44 29 32
7.468431 3.389519 28.724735 20 43 40
7.518122 3.386024 28.695122 16 41 24
7.568421 3.382855 28.668262 29 31 22
7.618892 3.379809 28.642452 44 43 32
7.669085 3.376687 28.615988 28 21 33
7.722810 3.375154 28.602999 32 42 18
7.773594 3.372368 28.579391 25 41 37
7.824867 3.369833 28.557907 41 15 20
7.876048 3.367296 28.536406 17 33 40
7.925740 3.364163 28.509855 36 38 27
7.978046 3.362176 28.493021 26 34 33
8.030507 3.360283 28.476976 31 42 18
8.086115 3.359724 28.472235 37 23 30
8.142375 3.359441 28.469841 15 43 32
8.196203 3.358166 28.459038 15 21 17
8.250187 3.356973 28.448921 16 34 35
8.302751 3.355221 28.434080 38 20 35
8.357031 3.354182 28.425274 36 18 31
8.410215 3.352721 28.412889 31 34 16
8.460653 3.350191 28.391453 27 29 15
8.511976 3.348044 28.373253 26 40 21
8.557552 3.343679 28.336264 17 34 42
8.603209 3.339404 28.300030 31 42 41
8.648200 3.334927 28.262093 19 20 44
8.692594 3.330280 28.222708 25 21 26
8.742478 3.327782 28.201542 20 38 21
8.787490 3.323474 28.165031 33 26 21
8.834931 3.320133 28.136724 33 44 30
8.880501 3.316136 28.102850 34 20 39
8.920603 3.310161 28.052210 38 38 25
8.964224 3.305557 28.013199 44 31 37
9.000419 3.298290 27.951612 28 42 39
9.040956 3.292694 27.904186 38 41 17
9.080170 3.286687 27.853283 30 33 26
9.113773 3.278736 27.785894 29 38 21
9.154111 3.273288 27.739729 37 40 16
9.184227 3.264274 27.663336 18 20 35
9.218094 3.256692 27.599083 43 39 15
9.251700 3.249109 27.534822 23 17 24
5.905912 3.653141 30.442844 25 29 29
5.951786 3.643951 30.366257 42 43 32
5.992293 3.631693 30.264107 44 34 22
6.038976 3.623385 30.194878 25 36 35
6.076308 3.609688 30.080732 27 31 19
6.117509 3.598534 29.987787 37 15 33
6.157452 3.586865 29.890545 34 36 22
6.191304 3.571906 29.765886 32 34 39
6.233411 3.561949 29.682911 120 120 120
6.268032 3.547942 29.566187 120 120 120
6.308818 3.537655 29.480459 120 120 120
6.351006 3.528336 29.402803 34 29 37
6.388478 3.516593 29.304943 29 29 23
6.434014 3.509462 29.245518 19 18 20
6.474682 3.499828 29.165234 21 40 42
6.519556 3.492619 29.105162 42 34 26
6.567153 3.486984 29.058197 35 24 17
6.613770 3.480931 29.007761 44 31 41
6.666756 3.478308 28.985897 19 18 42
6.717937 3.474795 28.956623 38 39 23
6.771200 3.472410 28.936752 21 15 37
6.825033 3.470356 28.919630 36 28 37
6.876621 3.467204 28.893366 27 17 26
6.930037 3.465018 28.875153 37 35 20
6.981988 3.462143 28.851189 20 16 27
7.036202 3.460427 28.836895 17 19 22
7.090141 3.458605 28.821711 20 28 35
7.141174 3.455407 28.795055 34 36 43
7.193374 3.452820 28.773497 36 28 42
7.243576 3.449322 28.744350 40 17 22
7.296123 3.446987 28.724894 26 28 31
7.348711 3.444708 28.705902 44 18 43
7.399285 3.441528 28.679399 39 42 18
7.451970 3.439371 28.661423 26 30 40
7.501143 3.435638 28.630316 20 38 36
7.550970 3.432259 28.602158 25 28 17
7.601038 3.429040 28.575333 24 20 17
7.650755 3.425711 28.547592 32 38 39
7.704138 3.424061 28.533844 19 34 40
7.755258 3.421437 28.511978 36 39 28
7.807419 3.419307 28.494228 21 34 17
7.859633 3.417232 28.476931 43 34 26
7.909978 3.414379 28.453159 42 38 15
7.962332 3.412428 28.436899 32 41 41
8.014968 3.410625 28.421871 26 36 21
8.070693 3.410152 28.417933 30 26 33
8.127063 3.409956 28.416304 33 38 28
8.181150 3.408812 28.406771 34 36 20
8.235298 3.407710 28.397579 29 41 27
8.288125 3.406079 28.383989 43 44 29
8.342503 3.405103 28.375860 36 30 37
8.395837 3.403718 28.364313 16 24 29
8.446582 3.401308 28.344236 27 35 38
8.498127 3.399251 28.327089 29 42 21
8.544384 3.395120 28.292664 34 17 24
8.590788 3.391101 28.259172 19 24 16
8.636590 3.386898 28.224150 44 25 39
8.681943 3.382575 28.188126 26 35 17
8.732411 3.380288 28.169067 28 36 23
8.777454 3.375944 28.132866 38 35 25
8.824516 3.372427 28.103556 41 41 34
8.868934 3.367950 28.066248 22 17 44
8.906900 3.361094 28.009119 32 43 33
8.948351 3.355632 27.963596 28 36 19
8.983066 3.347726 27.897720 34 19 24
9.023569 3.342063 27.850521 24 31 34
9.063593 3.336292 27.802433 37 38 36
9.098031 3.328548 27.737898 31 20 17
9.139125 3.323318 27.694319 29 35 29
9.169938 3.314436 27.620296 34 26 29
5.971774 3.679578 30.160475 28 21 33
6.018233 3.671122 30.091166 30 25 18
6.055229 3.657119 29.976381 25 22 44
6.095991 3.645642 29.882309 21 33 31
6.135548 3.633674 29.784212 17 29 44
6.169103 3.618416 29.659147 43 27 35
6.211029 3.608312 29.576330 120 120 120
6.245768 3.594263 29.461168 120 120 120
6.286798 3.584063 29.377562 120 120 120
6.329349 3.574910 29.302540 19 31 22
6.367186 3.563288 29.207277 29 21 30
6.412856 3.556220 29.149347 18 21 27
6.453860 3.546716 29.071442 37 17 24
6.498978 3.539622 29.013294 40 24 30
6.546815 3.534121 28.968208 35 20 16
6.593807 3.528265 28.920204 18 37 34
6.646989 3.525794 28.899954 23 24 30
6.698376 3.522422 28.872311 27 40 18
6.751653 3.520093 28.853218 33 15 16
6.805395 3.518043 28.836418 17 44 29
6.856898 3.514880 28.810495 25 25 18
6.910143 3.512656 28.792261 18 24 33
6.962018 3.509778 28.768671 38 38 30
7.016245 3.508122 28.755102 17 18 25
7.070134 3.506327 28.740383 41 32 15
7.120972 3.503059 28.713596 42 21 42
7.172859 3.500355 28.691437 30 42 28
7.222576 3.496644 28.661015 44 23 44
7.274632 3.494114 28.640282 36 32 18
7.326700 3.491630 28.619921 19 31 33
7.376736 3.488224 28.592001 29 33 33
7.429044 3.485936 28.573246 32 25 37
7.477709 3.481987 28.540874 33 19 34
7.527003 3.478388 28.511374 20 19 33
7.576635 3.474998 28.483589 16 35 15
7.625927 3.471504 28.454950 33 25 22
7.679032 3.469785 28.440859 15 29 43
7.730607 3.467405 28.421349 18 41 21
7.783711 3.465740 28.407705 28 38 24
7.837037 3.464198 28.395061 42 29 30
7.888246 3.461748 28.374985 24 26 34
7.940828 3.459932 28.360102 25 27 42
7.993743 3.458286 28.346607 42 33 40
8.049537 3.457900 28.343439 22 20 43
8.105892 3.457758 28.342279 26 19 20
8.160166 3.456737 28.333910 44 19 17
8.214448 3.455733 28.325684 26 22 43
8.267415 3.454194 28.313066 44 15 43
8.321712 3.453227 28.305141 29 27 25
8.375003 3.451859 28.293928 41 21 35
8.425919 3.449537 28.274895 29 27 32
8.477642 3.447574 28.258806 31 25 21
8.524546 3.443691 28.226973 17 22 28
8.571874 3.440028 28.196953 40 36 21
8.618337 3.436069 28.164501 19 18 30
8.663706 3.431728 28.128916 31 21 17
8.713553 3.429205 28.108236 34 15 41
8.757470 3.424395 28.068815 30 20 30
8.803407 3.420432 28.036329 26 15 29
8.846638 3.415474 27.995691 22 43 25
8.883357 3.408080 27.935085 37 43 36
8.924045 3.402292 27.887642 16 28 26
8.958191 3.394097 27.820469 22 23 26
8.998824 3.388446 27.774147 22 23 35
9.038815 3.382624 27.726425 33 41 32
9.072217 3.374422 27.659197 38 17 29
9.111912 3.368646 27.611855 34 41 27
6.002409 3.721494 30.012047 27 25 42
6.039004 3.707112 29.896061 25 29 30
6.079304 3.695263 29.800510 43 43 35
6.118426 3.682936 29.701099 27 28 32
6.151593 3.667296 29.574965 39 25 15
6.193290 3.656990 29.491856 120 120 120
6.227991 3.642787 29.377316 120 120 120
6.269112 3.632570 29.294918 120 120 120
6.311866 3.623479 29.221601 15 18 32
6.349885 3.611861 29.127914 31 42 17
6.395604 3.604795 29.070927 16 20 34
6.436878 3.595373 28.994946 43 15 37
6.482254 3.588390 28.938633 35 35 25
6.530397 3.583050 28.895561 25 38 28
6.577840 3.577422 28.850174 21 40 38
6.631295 3.575133 28.831717 19 27 15
6.683037 3.571968 28.806194 38 23 27
6.736469 3.569753 28.788328 35 33 15
6.790299 3.567784 28.772455 21 42 39
6.841987 3.564733 28.747845 31 38 37
6.895298 3.562571 28.730410 31 21 17
6.947356 3.559802 28.708082 24 32 41
7.001770 3.558277 28.695780 22 43 41
7.055779 3.556572 28.682030 21 33 38
7.106690 3.553345 28.656008 36 18 15
7.158488 3.550610 28.633953 39 42 15
7.208058 3.546822 28.603405 15 36 35
7.259917 3.544211 28.582350 20 15 35
7.311747 3.541627 28.561512 31 17 24
7.361596 3.538131 28.533318 27 42 44
7.413759 3.535793 28.514456 30 41 17
7.462219 3.531737 28.481750 18 20 32
7.511239 3.528006 28.451664 18 41 41
7.560669 3.524522 28.423567 43 41 22
7.609843 3.520972 28.394938 17 28 15
7.662932 3.519272 28.381229 28 21 17
7.714856 3.517067 28.363440 27 36 19
7.768485 3.515665 28.352135 30 43 41
7.822405 3.514414 28.342049 20 16 26
7.874154 3.512213 28.324295 27 27 22
7.926944 3.510504 28.310514 20 39 33
7.980045 3.508956 28.298031 20 44 26
8.035831 3.508602 28.295179 39 23 22
8.092095 3.508461 28.294037 23 29 37
8.146386 3.507472 28.286062 34 38 36
8.200669 3.506493 28.278170 21 20 32
8.253579 3.504945 28.265682 22 38 18
8.307642 3.503903 28.257284 19 33 36
8.360808 3.502500 28.245972 21 41 20
8.411941 3.500271 28.227989 38 25 17
8.464027 3.498465 28.213425 36 37 33
8.511580 3.494821 28.184040 23 31 15
8.559846 3.491516 28.157387 33 39 17
8.606646 3.487660 28.126293 40 33 35
8.651014 3.482876 28.087708 26 23 15
8.699095 3.479638 28.061598 22 23 26
8.741103 3.474028 28.016356 30 19 32
8.785666 3.469499 27.979828 19 22 23
8.828361 3.464294 27.937851 28 19 17
8.865657 3.457048 27.879423 29 30 27
8.907733 3.451747 27.836666 38 24 17
8.943105 3.443928 27.773617 43 38 21
8.984672 3.438578 27.730471 17 21 28
9.024240 3.432533 27.681717 20 35 21
9.054932 3.423206 27.606499 37 27 43
6.062969 3.744775 29.720436 24 24 21
6.101576 3.732032 29.619303 18 43 19
6.134344 3.715997 29.492037 23 37 29
6.175841 3.705504 29.408766 120 120 120
6.210468 3.691127 29.294659 120 120 120
6.251581 3.680838 29.212997 120 120 120
6.294410 3.671739 29.140785 36 38 42
6.332517 3.660079 29.048244 34 16 37
6.378229 3.652986 28.991951 22 21 30
6.419744 3.643639 28.917767 42 34 32
6.465389 3.636781 28.863342 39 38 28
6.513853 3.631617 28.822359 31 43 38
6.561684 3.626194 28.779316 43 15 23
6.615326 3.624048 28.762287 24 16 37
6.667287 3.621027 28.738306 28 20 29
6.720772 3.618877 28.721247 17 22 29
6.774596 3.616946 28.705917 44 38 35
6.826394 3.613973 28.682329 39 25 44
6.879748 3.611868 28.665617 21 33 28
6.931950 3.609197 28.644423 40 33 33
6.986471 3.607768 28.633080 17 21 15
7.040558 3.606139 28.620153 43 16 17
7.091504 3.602942 28.594774 22 17 15
7.143219 3.600182 28.572874 41 35 41
7.192683 3.596341 28.542393 39 43 25
7.244396 3.593677 28.521242 28 30 36
7.296074 3.591037 28.500290 41 37 25
7.345801 3.587484 28.472095 43 26 30
7.397858 3.585116 28.453299 37 31 43
7.446196 3.580995 28.420595 36 26 44
7.495031 3.577174 28.390270 17 24 38
7.544312 3.573622 28.362076 31 30 39
7.593443 3.570052 28.333742 40 28 43
7.646524 3.568378 28.320457 26 23 20
7.698679 3.566300 28.303967 15 43 35
7.752561 3.565046 28.294020 34 44 32
7.806839 3.563992 28.285650 35 15 29
7.859130 3.562052 28.270250 32 21 17
7.912317 3.560543 28.258274 35 22 29
7.965677 3.559132 28.247082 37 19 22
8.021355 3.558770 28.244209 29 28 35
8.077379 3.558566 28.242584 18 31 25
8.131598 3.557574 28.234715 23 43 21
8.185866 3.556618 28.227123 29 36 40
8.238599 3.555012 28.214380 38 30 34
8.292358 3.553868 28.205299 21 33 32
8.345168 3.552335 28.193134 17 19 44
8.395972 3.549975 28.174402 37 21 42
8.447815 3.548082 28.159382 30 18 26
8.495206 3.544358 28.129822 26 22 23
8.543746 3.541158 28.104429 20 28 41
8.590357 3.537206 28.073063 16 30 39
8.633258 3.531787 28.030058 28 39 29
8.679424 3.527766 27.998140 37 39 15
8.719483 3.521330 27.947060 25 17 17
8.762715 3.516249 27.906736 33 25 24
8.805081 3.510887 27.864180 41 24 31
8.843427 3.503999 27.809519 40 38 17
8.887398 3.499413 27.773119 34 42 42
8.923809 3.491925 27.713692 16 42 37
8.965288 3.486501 27.670641 21 23 26
6.112883 3.761774 29.388861 35 34 40
6.154265 3.751171 29.306023 120 120 120
6.188916 3.736704 29.193001 120 120 120
6.230055 3.726388 29.112408 120 120 120
6.272977 3.717320 29.041559 17 20 29
6.311197 3.705657 28.950443 30 16 43
6.356911 3.698567 28.895052 42 24 29
6.398655 3.689315 28.822771 41 20 15
6.444574 3.682614 28.770420 27 25 32
6.493297 3.677619 28.731401 32 30 17
6.541351 3.672337 28.690134 26 19 41
6.594986 3.670253 28.673853 28 18 29
6.646859 3.667232 28.650253 15 23 27
6.700093 3.665008 28.632875 38 18 41
6.753605 3.662972 28.616972 33 17 38
6.805152 3.659914 28.593077 38 39 15
6.858311 3.657766 28.576296 16 30 34
6.910352 3.655062 28.555172 23 22 33
6.964760 3.653645 28.544100 20 21 34
7.018708 3.652011 28.531334 36 31 42
7.069438 3.648742 28.505800 39 22 32
7.120878 3.645890 28.483513 31 25 40
7.170006 3.641908 28.452404 40 36 20
7.221404 3.639133 28.430723 15 24 22
7.272774 3.636387 28.409273 23 40 39
7.322187 3.632713 28.380569 34 30 20
7.373984 3.630269 28.361479 39 40 27
7.422022 3.626026 28.328329 30 29 18
7.470515 3.622068 28.297405 20 20 41
7.519534 3.618423 28.268927 40 28 38
7.568500 3.614806 28.240671 42 42 19
7.621504 3.613157 28.227791 39 21 15
7.673895 3.611245 28.212849 41 24 30
7.728028 3.610174 28.204481 15 40 35
7.782802 3.609416 28.198559 40 30 33
7.836034 3.607958 28.187172 35 38 25
7.890040 3.606875 28.178715 18 19 30
7.943966 3.605772 28.170094 18 35 23
7.999470 3.605395 28.167147 16 18 25
8.055095 3.605078 28.164669 15 42 37
8.109358 3.604159 28.157494 38 23 24
8.163794 3.603330 28.151014 44 36 25
8.216514 3.601760 28.138748 41 27 32
8.270194 3.600629 28.129911 32 35 24
8.322445 3.598895 28.116367 39 27 15
8.371929 3.595996 28.093721 44 43 29
8.422293 3.593512 28.074310 15 19 36
8.468003 3.589087 28.039743 44 17 42
8.515581 3.585508 28.011780 19 15 40
8.561335 3.581212 27.978220 24 24 19
8.602885 3.575225 27.931444 35 19 28
8.647994 3.570785 27.896755 23 39 40
8.686809 3.563819 27.842337 32 31 16
8.728952 3.558299 27.799210 43 19 29
8.770751 3.552709 27.755541 26 17 35
8.809578 3.545994 27.703075 39 36 28
8.854736 3.541894 27.671049 15 26 25
8.890218 3.534000 27.609373 40 42 23
6.175454 3.786835 29.129501 120 120 120
6.216596 3.776437 29.049515 120 120 120
6.259527 3.767308 28.979292 41 43 34
6.297787 3.755561 28.888931 19 33 34
6.343479 3.748419 28.833996 17 28 39
6.385318 3.739150 28.762695 42 28 21
6.431378 3.732496 28.711508 44 27 26
6.480192 3.727544 28.673414 34 26 42
6.528224 3.722233 28.632563 27 29 15
6.581692 3.720087 28.616051 44 21 23
6.633239 3.716901 28.591549 32 39 42
6.686107 3.714504 28.573109 27 18 16
6.739200 3.712271 28.555933 19 42 30
6.790350 3.709015 28.530882 21 28 22
6.843235 3.706752 28.513479 26 32 25
6.894970 3.703909 28.491611 28 19 24
6.949136 3.702409 28.480066 20 17 21
7.002863 3.700700 28.466923 36 16 42
7.053291 3.697290 28.440689 20 16 36
7.104472 3.694325 28.417887 16 29 29
7.153304 3.690196 28.386126 37 16 37
7.204454 3.687319 28.363991 41 20 22
7.255604 3.684486 28.342201 19 40 42
7.304747 3.680686 28.312973 20 20 25
7.356342 3.678171 28.293623 25 22 37
7.404142 3.673811 28.260084 27 30 43
7.452402 3.669743 28.228794 18 36 40
7.501235 3.666017 28.200132 24 19 19
7.550071 3.662348 28.171907 17 19 36
7.602992 3.660700 28.159231 24 29 28
7.655462 3.658861 28.145082 38 40 38
7.709607 3.657843 28.137253 39 40 28
7.764629 3.657253 28.132715 23 40 18
7.818615 3.656187 28.124516 23 44 22
7.873410 3.655512 28.119320 31 42 44
7.927873 3.654693 28.113024 41 39 25
7.983193 3.654278 28.109833 32 29 17
8.038444 3.653838 28.106447 37 19 43
8.092789 3.652995 28.099962 29 28 23
8.147445 3.652303 28.094639 36 33 37
8.200229 3.650787 28.082975 30 37 19
8.254023 3.649738 28.074909 40 39 18
8.305758 3.647799 28.059994 18 29 17
8.353675 3.644221 28.032467 29 23 36
8.402162 3.640937 28.007208 28 32 27
8.445610 3.635527 27.965595 27 24 22
8.491543 3.631252 27.932707 36 36 35
8.536163 3.626474 27.895956 38 43 22
8.576927 3.620132 27.847166 18 37 38
8.622033 3.615691 27.813011 33 36 35
8.660690 3.608621 27.758623 30 15 37
8.702481 3.602938 27.714907 30 22 18
8.743923 3.597183 27.670641 37 31 40
6.240270 3.813498 28.890139 38 23 19
6.278500 3.801661 28.800459 31 42 37
6.324190 3.794514 28.746317 26 36 19
6.366228 3.785325 28.676702 26 40 38
6.412568 3.778835 28.627535 21 41 40
6.461581 3.774021 28.591066 37 26 21
6.509591 3.768711 28.550838 35 43 31
6.562774 3.766461 28.533798 29 44 38
6.613891 3.763076 28.508152 38 33 40
6.666328 3.760493 28.488583 33 38 32
6.718926 3.758043 28.470026 29 19 33
6.769589 3.754562 28.443649 30 42 27
6.822110 3.752161 28.425459 31 25 23
6.873326 3.749087 28.402172 25 18 40
6.927020 3.747404 28.389425 27 27 29
6.980231 3.745490 28.374924 17 17 15
7.030039 3.741795 28.346931 20 42 25
7.080722 3.738621 28.322889 41 16 29
7.128952 3.734213 28.289492 29 32 20
7.179623 3.731143 28.266233 44 18 19
7.230323 3.728135 28.243448 30 27 34
7.278931 3.724104 28.212910 40 34 44
7.330109 3.721440 28.192728 25 26 44
7.377429 3.716873 28.158127 25 15 40
7.425282 3.712641 28.126068 26 38 18
7.473786 3.708796 28.096939 16 22 36
7.522269 3.704998 28.068169 37 17 42
7.574943 3.703305 28.055344 32 39 17
7.627270 3.701469 28.041435 16 31 24
7.681261 3.700462 28.033800 32 41 44
7.736345 3.699991 28.030235 19 28 29
7.790796 3.699227 28.024446 35 27 19
7.846115 3.698883 28.021841 24 32 19
7.900919 3.698303 28.017445 19 19 23
7.956084 3.697898 28.014381 37 17 33
8.010920 3.697347 28.010208 26 38 40
8.064952 3.696436 28.003305 33 42 36
8.119330 3.695695 27.997690 27 37 31
8.171343 3.693895 27.984051 42 31 39
8.224303 3.692544 27.973820 41 41 31
8.274818 3.690122 27.955467 44 21 27
8.320932 3.685782 27.922590 26 35 28
8.367826 3.681843 27.892754 37 42 23
8.409492 3.675672 27.845999 19 40 24
8.454237 3.670919 27.809990 38 26 41
8.498067 3.665833 27.771460 35 27 23
8.538108 3.659189 27.721128 37 28 44
8.582957 3.654678 27.686958 22 42 29
8.621134 3.647403 27.631840 23 24 40
6.352240 3.834235 28.613693 21 27 42
6.398844 3.827880 28.566267 18 34 37
6.448050 3.823180 28.531193 32 39 17
6.496052 3.817855 28.491457 25 21 27
6.548994 3.815501 28.473888 39 20 41
6.599799 3.811953 28.447409 29 22 39
6.651975 3.809251 28.427244 39 39 34
6.704273 3.806663 28.407936 32 26 30
6.754579 3.802998 28.380583 17 42 17
6.806832 3.800481 28.361801 40 18 35
6.857572 3.797168 28.337074 30 33 37
6.910792 3.795271 28.322918 34 18 34
6.963466 3.793108 28.306774 18 30 29
7.012631 3.789083 28.276737 15 16 43
7.062830 3.785677 28.251322 31 41 17
7.110441 3.780949 28.216034 20 36 28
7.160630 3.777655 28.191456 27 21 43
7.210875 3.774442 28.167480 27 39 33
7.258945 3.770150 28.135445 29 23 41
7.309727 3.767321 28.114334 41 32 37
7.356578 3.762525 28.078543 42 40 35
7.404071 3.758127 28.045723 25 33 44
7.452251 3.754142 28.015982 27 35 25
7.500369 3.750185 27.986452 23 26 29
7.552762 3.748408 27.973192 37 29 42
7.604818 3.746491 27.958891 38 37 31
7.658599 3.745446 27.951090 26 24 42
7.713540 3.744980 27.947609 39 23 33
7.767943 3.744260 27.942240 20 44 20
7.823256 3.743987 27.940201 19 38 16
7.878076 3.743483 27.936440 32 32 29
7.933315 3.743184 27.934208 23 23 25
7.987977 3.742619 27.929989 42 23 36
